ply
format ascii 1.0
element vertex 1405
property float32 x
property float32 y
property float32 z
property float32 CosAngle
property uint32 ObjIdx
property uint32 ObjTag
end_header
-0.0237 8.4801 -2.6345 0.2967 0 8
-0.1004 8.4796 -2.6345 0.2967 0 8
-0.1771 8.4783 -2.6345 0.2967 0 8
-0.2538 8.4764 -2.6345 0.2967 0 8
-0.3304 8.4737 -2.6345 0.2967 0 8
-0.4071 8.4704 -2.6345 0.2967 0 8
-0.4836 8.4664 -2.6345 0.2967 0 8
-0.5602 8.4617 -2.6345 0.2967 0 8
-0.6367 8.4563 -2.6345 0.2967 0 8
-0.7131 8.4502 -2.6345 0.2967 0 8
-0.7895 8.4433 -2.6345 0.2967 0 8
-0.8659 8.4359 -2.6345 0.2967 0 8
-0.9421 8.4277 -2.6345 0.2967 0 8
-1.0183 8.4188 -2.6345 0.2967 0 8
-1.0944 8.4093 -2.6345 0.2967 0 8
-1.1704 8.3990 -2.6345 0.2967 0 8
-1.2463 8.3881 -2.6345 0.2967 0 8
-1.3221 8.3765 -2.6345 0.2967 0 8
-1.3978 8.3642 -2.6345 0.2967 0 8
-1.4734 8.3512 -2.6345 0.2967 0 8
-1.5488 8.3375 -2.6345 0.2967 0 8
-1.6242 8.3232 -2.6345 0.2967 0 8
-1.6994 8.3082 -2.6345 0.2967 0 8
-1.7745 8.2925 -2.6345 0.2967 0 8
-1.8494 8.2761 -2.6345 0.2967 0 8
-1.9241 8.2590 -2.6345 0.2967 0 8
-1.9988 8.2413 -2.6345 0.2967 0 8
-2.0732 8.2229 -2.6345 0.2967 0 8
-1.9595 7.4855 -2.4038 0.3124 0 5
-2.0038 7.3817 -2.3762 0.9156 0 5
-2.0769 7.3860 -2.3836 0.9128 0 5
-2.1504 7.3904 -2.3911 0.9099 0 5
-2.2244 7.3948 -2.3990 0.9069 0 5
-2.5161 8.0983 -2.6345 0.2967 0 8
-2.5893 8.0752 -2.6345 0.2967 0 8
-2.5371 7.6731 -2.5107 0.3569 0 19
-2.5492 7.4822 -2.4557 0.3648 0 19
-2.6111 7.4425 -2.4503 0.8792 0 19
-2.6887 7.4475 -2.4598 0.8758 0 19
-2.7669 7.4525 -2.4696 0.8723 0 19
-2.8458 7.4575 -2.4797 0.8688 0 19
-2.9253 7.4626 -2.4901 0.8651 0 19
-3.0055 7.4677 -2.5008 0.8614 0 19
-3.0876 7.4756 -2.5127 0.6317 0 19
-3.3080 7.8084 -2.6345 0.2967 0 8
-3.3785 7.7782 -2.6345 0.2967 0 8
-3.4487 7.7473 -2.6345 0.2967 0 8
-3.5186 7.7158 -2.6345 0.2967 0 8
-3.5882 7.6836 -2.6345 0.2967 0 8
-3.6576 7.6509 -2.6345 0.2967 0 8
-3.7266 7.6175 -2.6345 0.2967 0 8
-3.7953 7.5835 -2.6345 0.2967 0 8
-3.8638 7.5488 -2.6345 0.2967 0 8
-3.9319 7.5136 -2.6345 0.2967 0 8
-3.9997 7.4777 -2.6345 0.2967 0 8
-4.0671 7.4412 -2.6345 0.2967 0 8
-4.1343 7.4042 -2.6345 0.2967 0 8
-4.2010 7.3665 -2.6345 0.2967 0 8
-4.2675 7.3282 -2.6345 0.2967 0 8
-4.3336 7.2893 -2.6345 0.2967 0 8
-4.3993 7.2498 -2.6345 0.2967 0 8
-4.4647 7.2097 -2.6345 0.2967 0 8
-4.5297 7.1690 -2.6345 0.2967 0 8
-4.5944 7.1278 -2.6345 0.2967 0 8
-4.6587 7.0859 -2.6345 0.2967 0 8
-4.7225 7.0435 -2.6345 0.2967 0 8
-4.7860 7.0005 -2.6345 0.2967 0 8
-4.8492 6.9570 -2.6345 0.2967 0 8
-4.9119 6.9128 -2.6345 0.2967 0 8
-4.9804 6.8767 -2.6378 0.7349 0 8
-5.0746 6.8750 -2.6546 0.7788 0 8
-5.1727 6.8768 -2.6733 0.7733 0 8
-5.2721 6.8786 -2.6924 0.7679 0 8
-5.3729 6.8803 -2.7120 0.7623 0 8
-5.4751 6.8820 -2.7321 0.7567 0 8
-5.5789 6.8837 -2.7526 0.7510 0 8
-5.6842 6.8854 -2.7738 0.7453 0 8
-5.7590 6.8489 -2.7799 0.3084 0 8
-5.8226 6.7988 -2.7808 0.3083 0 8
-5.8857 6.7481 -2.7817 0.3082 0 8
-5.4229 6.1050 -2.5368 0.0856 0 10
-5.3917 5.9604 -2.4969 0.6765 0 10
-5.3975 5.8595 -2.4749 0.6825 0 10
-5.4119 5.7696 -2.4575 0.5560 0 10
-5.4111 5.6651 -2.4338 0.5751 0 10
-5.4030 5.5552 -2.4074 0.7811 0 10
-5.4109 5.4636 -2.3888 0.7937 0 10
-5.4267 5.3813 -2.3742 0.7677 0 10
-5.4619 5.3191 -2.3685 0.4924 0 10
-5.4936 5.2540 -2.3615 0.4778 0 10
-5.5280 5.1920 -2.3560 0.4766 0 10
-5.5544 5.1230 -2.3474 0.5172 0 10
-5.6109 5.0820 -2.3518 0.5472 0 10
-5.6815 5.0532 -2.3621 0.5914 0 10
-5.7799 5.0479 -2.3840 0.6251 0 10
-5.8983 5.0580 -2.4139 0.6331 0 10
-6.0190 5.0678 -2.4444 0.5968 0 10
-6.1483 5.0823 -2.4781 0.8464 0 10
-6.3406 5.1454 -2.5368 0.5893 0 10
-6.4651 5.1502 -2.5678 0.4748 0 10
-6.6090 5.1678 -2.6063 0.8037 0 10
-6.6584 5.1101 -2.6075 0.6987 0 10
-7.1656 5.3971 -2.7869 0.2967 0 7
-7.2141 5.3321 -2.7869 0.2967 0 7
-7.2620 5.2666 -2.7869 0.2967 0 7
-7.3094 5.2007 -2.7869 0.2967 0 7
-7.3561 5.1344 -2.7869 0.2967 0 7
-7.4022 5.0677 -2.7869 0.2967 0 7
-7.4478 5.0005 -2.7869 0.2967 0 7
-7.4927 4.9330 -2.7869 0.2967 0 7
-7.5370 4.8650 -2.7869 0.2967 0 7
-7.5807 4.7966 -2.7869 0.2967 0 7
-7.6238 4.7279 -2.7869 0.2967 0 7
-7.6662 4.6588 -2.7869 0.2967 0 7
-7.7080 4.5892 -2.7869 0.2967 0 6
-7.7492 4.5193 -2.7869 0.2967 0 6
-7.7898 4.4491 -2.7869 0.2967 0 7
-7.8297 4.3784 -2.7869 0.2967 0 7
-7.8689 4.3074 -2.7869 0.2967 0 7
-7.9076 4.2361 -2.7869 0.2967 0 7
-7.9456 4.1644 -2.7869 0.2967 0 7
-7.9829 4.0924 -2.7869 0.2967 0 7
-8.0196 4.0200 -2.7869 0.2967 0 7
-8.0556 3.9473 -2.7869 0.2967 0 7
-8.0910 3.8743 -2.7869 0.2967 0 7
-8.1257 3.8010 -2.7869 0.2967 0 7
-8.1597 3.7274 -2.7869 0.2967 0 7
-8.1931 3.6534 -2.7869 0.2967 0 7
-8.2258 3.5792 -2.7869 0.2967 0 7
-8.2578 3.5046 -2.7869 0.2967 0 7
-8.2892 3.4298 -2.7869 0.2967 0 7
-8.3199 3.3547 -2.7869 0.2967 0 7
-8.3499 3.2793 -2.7869 0.2967 0 7
-8.3792 3.2037 -2.7869 0.2967 0 7
-8.4078 3.1278 -2.7869 0.2967 0 7
-8.4358 3.0516 -2.7869 0.2967 0 7
-8.4630 2.9752 -2.7869 0.2967 0 7
-8.4896 2.8985 -2.7869 0.2967 0 7
-8.5154 2.8216 -2.7869 0.2967 0 7
-8.5406 2.7445 -2.7869 0.2967 0 7
-8.5651 2.6672 -2.7869 0.2967 0 7
-8.5888 2.5896 -2.7869 0.2967 0 7
-8.6119 2.5118 -2.7869 0.2967 0 7
-8.6343 2.4338 -2.7869 0.2967 0 7
-8.6559 2.3557 -2.7869 0.2967 0 7
-8.6769 2.2773 -2.7869 0.2967 0 7
-8.6971 2.1987 -2.7869 0.2967 0 7
-8.7167 2.1200 -2.7869 0.2967 0 7
-8.7355 2.0411 -2.7869 0.2967 0 7
-8.7536 1.9620 -2.7869 0.2967 0 7
-8.7710 1.8827 -2.7869 0.2967 0 7
-8.7876 1.8033 -2.7869 0.2967 0 7
-8.8036 1.7238 -2.7869 0.2967 0 7
-8.8188 1.6441 -2.7869 0.2967 0 7
-8.8333 1.5643 -2.7869 0.2967 0 7
-8.8471 1.4843 -2.7869 0.2967 0 7
-8.8602 1.4043 -2.7869 0.2967 0 7
-8.8725 1.3241 -2.7869 0.2967 0 7
-8.8841 1.2438 -2.7869 0.2967 0 7
-8.8950 1.1634 -2.7869 0.2967 0 7
-8.9052 1.0829 -2.7869 0.2967 0 7
-8.9146 1.0023 -2.7869 0.2967 0 7
-8.9233 0.9217 -2.7869 0.2967 0 7
-8.9312 0.8409 -2.7869 0.2967 0 7
-8.9385 0.7601 -2.7869 0.2967 0 7
-8.9450 0.6793 -2.7869 0.2967 0 7
-8.9508 0.5983 -2.7869 0.2967 0 7
-8.9558 0.5174 -2.7869 0.2967 0 7
-8.9601 0.4364 -2.7869 0.2967 0 7
-8.9637 0.3553 -2.7869 0.2967 0 7
-8.9666 0.2742 -2.7869 0.2967 0 7
-8.9687 0.1931 -2.7869 0.2967 0 7
-8.9701 0.1120 -2.7869 0.2967 0 7
-8.9707 0.0309 -2.7869 0.2967 0 7
-8.9706 -0.0502 -2.7869 0.2967 0 7
-8.9698 -0.1314 -2.7869 0.2967 0 7
-8.9682 -0.2125 -2.7869 0.2967 0 7
-8.9660 -0.2936 -2.7869 0.2967 0 7
-8.9629 -0.3747 -2.7869 0.2967 0 7
-8.9592 -0.4557 -2.7869 0.2967 0 7
-8.9547 -0.5367 -2.7869 0.2967 0 7
-8.9495 -0.6177 -2.7869 0.2967 0 7
-8.9435 -0.6986 -2.7869 0.2967 0 7
-8.9368 -0.7794 -2.7869 0.2967 0 7
-8.9294 -0.8602 -2.7869 0.2967 0 7
-8.9213 -0.9409 -2.7869 0.2967 0 7
-8.9124 -1.0216 -2.7869 0.2967 0 7
-8.9028 -1.1021 -2.7869 0.2967 0 7
-8.8925 -1.1826 -2.7869 0.2967 0 7
-8.8814 -1.2630 -2.7869 0.2967 0 7
-8.8696 -1.3432 -2.7869 0.2967 0 7
-8.8571 -1.4234 -2.7869 0.2967 0 7
-8.8439 -1.5034 -2.7869 0.2967 0 7
-8.8299 -1.5833 -2.7869 0.2967 0 7
-8.8152 -1.6631 -2.7869 0.2967 0 7
-8.7998 -1.7428 -2.7869 0.2967 0 7
-8.7837 -1.8223 -2.7869 0.2967 0 7
-8.7669 -1.9017 -2.7869 0.2967 0 7
-8.7493 -1.9809 -2.7869 0.2967 0 7
-8.7310 -2.0599 -2.7869 0.2967 0 7
-8.7121 -2.1388 -2.7869 0.2967 0 7
-8.6924 -2.2175 -2.7869 0.2967 0 7
-8.6720 -2.2960 -2.7869 0.2967 0 6
-8.6508 -2.3743 -2.7869 0.2967 0 7
-8.6290 -2.4525 -2.7869 0.2967 0 7
-8.6065 -2.5304 -2.7869 0.2967 0 6
-8.5832 -2.6081 -2.7869 0.2967 0 7
-8.5593 -2.6857 -2.7869 0.2967 0 7
-8.5347 -2.7629 -2.7869 0.2967 0 7
-8.5093 -2.8400 -2.7869 0.2967 0 7
-8.4833 -2.9169 -2.7869 0.2967 0 7
-8.4566 -2.9935 -2.7869 0.2967 0 7
-8.4292 -3.0698 -2.7869 0.2967 0 7
-8.4011 -3.1459 -2.7869 0.2967 0 7
-8.3723 -3.2218 -2.7869 0.2967 0 7
-8.3428 -3.2973 -2.7869 0.2967 0 7
-8.3126 -3.3727 -2.7869 0.2967 0 7
-8.2818 -3.4477 -2.7869 0.2967 0 7
-8.2503 -3.5224 -2.7869 0.2967 0 7
-8.2181 -3.5969 -2.7869 0.2967 0 7
-8.1852 -3.6711 -2.7869 0.2967 0 7
-8.1517 -3.7450 -2.7869 0.2967 0 7
-8.1175 -3.8185 -2.7869 0.2967 0 7
-8.0826 -3.8918 -2.7869 0.2967 0 7
-8.0471 -3.9647 -2.7869 0.2967 0 7
-8.0109 -4.0373 -2.7869 0.2967 0 7
-7.9740 -4.1096 -2.7869 0.2967 0 7
-7.9366 -4.1816 -2.7869 0.2967 0 7
-7.8984 -4.2532 -2.7869 0.2967 0 7
-7.8596 -4.3244 -2.7869 0.2967 0 7
-7.8202 -4.3953 -2.7869 0.2967 0 7
-7.7801 -4.4659 -2.7869 0.2967 0 7
-7.7394 -4.5360 -2.7869 0.2967 0 7
-7.6981 -4.6059 -2.7869 0.2967 0 7
-7.6561 -4.6753 -2.7869 0.2967 0 7
-7.6135 -4.7443 -2.7869 0.2967 0 7
-7.5703 -4.8130 -2.7869 0.2967 0 7
-7.5265 -4.8813 -2.7869 0.2967 0 7
-7.4820 -4.9491 -2.7869 0.2967 0 7
-7.4370 -5.0166 -2.7869 0.2967 0 7
-7.3913 -5.0836 -2.7869 0.2967 0 7
-7.3450 -5.1503 -2.7869 0.2967 0 7
-7.2981 -5.2165 -2.7869 0.2967 0 7
-7.2507 -5.2823 -2.7869 0.2967 0 7
-7.2026 -5.3476 -2.7869 0.2967 0 7
-7.1539 -5.4125 -2.7869 0.2967 0 7
-7.1047 -5.4770 -2.7869 0.2967 0 7
-7.0549 -5.5410 -2.7869 0.2967 0 7
-7.0045 -5.6046 -2.7869 0.2967 0 7
-6.9535 -5.6677 -2.7869 0.2967 0 7
-6.9020 -5.7304 -2.7869 0.2967 0 7
-6.8499 -5.7926 -2.7869 0.2967 0 7
-6.7972 -5.8543 -2.7869 0.2967 0 7
-6.7440 -5.9155 -2.7869 0.2967 0 7
-6.6902 -5.9763 -2.7869 0.2967 0 7
-6.6359 -6.0365 -2.7869 0.2967 0 6
-6.5810 -6.0963 -2.7869 0.2967 0 6
-6.5256 -6.1555 -2.7869 0.2967 0 7
-6.4697 -6.2143 -2.7869 0.2967 0 7
-6.4132 -6.2726 -2.7869 0.2967 0 7
-6.3562 -6.3303 -2.7869 0.2967 0 7
-6.2987 -6.3875 -2.7869 0.2967 0 7
-6.2407 -6.4442 -2.7869 0.2967 0 7
-6.1822 -6.5004 -2.7869 0.2967 0 7
-6.1231 -6.5561 -2.7869 0.2967 0 7
-6.0636 -6.6112 -2.7869 0.2967 0 7
-6.0035 -6.6657 -2.7869 0.2967 0 7
-5.9430 -6.7198 -2.7869 0.2967 0 7
-5.8820 -6.7732 -2.7869 0.2967 0 7
-5.8205 -6.8261 -2.7869 0.2967 0 7
-5.7585 -6.8785 -2.7869 0.2967 0 7
-5.6961 -6.9303 -2.7869 0.2967 0 7
-5.6332 -6.9815 -2.7869 0.2967 0 7
-5.5698 -7.0322 -2.7869 0.2967 0 7
-5.5060 -7.0823 -2.7869 0.2967 0 7
-5.4417 -7.1318 -2.7869 0.2967 0 7
-5.3770 -7.1807 -2.7869 0.2967 0 7
-5.3118 -7.2290 -2.7869 0.2967 0 7
-5.2463 -7.2768 -2.7869 0.2967 0 7
-5.1802 -7.3239 -2.7869 0.2967 0 7
-5.1138 -7.3705 -2.7869 0.2967 0 7
-5.0469 -7.4164 -2.7869 0.2967 0 7
-4.9796 -7.4617 -2.7869 0.2967 0 7
-4.9120 -7.5065 -2.7869 0.2967 0 7
-4.8439 -7.5506 -2.7869 0.2967 0 7
-4.7754 -7.5941 -2.7869 0.2967 0 7
-4.7065 -7.6370 -2.7869 0.2967 0 7
-4.6373 -7.6792 -2.7869 0.2967 0 7
-4.5676 -7.7208 -2.7869 0.2967 0 7
-4.4976 -7.7618 -2.7869 0.2967 0 7
-4.4272 -7.8022 -2.7869 0.2967 0 7
-4.3565 -7.8419 -2.7869 0.2967 0 7
-4.2854 -7.8810 -2.7869 0.2967 0 7
-4.2140 -7.9194 -2.7869 0.2967 0 7
-4.1422 -7.9572 -2.7869 0.2967 0 7
-4.0700 -7.9943 -2.7869 0.2967 0 7
-3.9976 -8.0308 -2.7869 0.2967 0 7
-3.9248 -8.0666 -2.7869 0.2967 0 7
-3.8517 -8.1018 -2.7869 0.2967 0 7
-3.7782 -8.1363 -2.7869 0.2967 0 7
-3.7045 -8.1701 -2.7869 0.2967 0 7
-3.6305 -8.2033 -2.7869 0.2967 0 7
-3.5561 -8.2358 -2.7869 0.2967 0 7
-3.4815 -8.2676 -2.7869 0.2967 0 7
-3.4066 -8.2988 -2.7869 0.2967 0 7
-3.3314 -8.3292 -2.7869 0.2967 0 7
-3.2559 -8.3590 -2.7869 0.2967 0 7
-3.1802 -8.3881 -2.7869 0.2967 0 7
-3.1042 -8.4165 -2.7869 0.2967 0 7
-3.0280 -8.4443 -2.7869 0.2967 0 7
-2.9515 -8.4713 -2.7869 0.2967 0 7
-2.8748 -8.4977 -2.7869 0.2967 0 7
-2.7978 -8.5233 -2.7869 0.2967 0 7
-2.7206 -8.5483 -2.7869 0.2967 0 7
-2.6432 -8.5725 -2.7869 0.2967 0 7
-2.5655 -8.5961 -2.7869 0.2967 0 7
-2.4877 -8.6189 -2.7869 0.2967 0 7
-2.4097 -8.6411 -2.7869 0.2967 0 7
-2.3314 -8.6625 -2.7869 0.2967 0 7
-2.2530 -8.6832 -2.7869 0.2967 0 7
-2.1744 -8.7033 -2.7869 0.2967 0 7
-2.0956 -8.7226 -2.7869 0.2967 0 7
-2.0166 -8.7412 -2.7869 0.2967 0 7
-1.9375 -8.7590 -2.7869 0.2967 0 7
-1.8582 -8.7762 -2.7869 0.2967 0 7
-1.7787 -8.7926 -2.7869 0.2967 0 7
-1.6991 -8.8084 -2.7869 0.2967 0 7
-1.6194 -8.8234 -2.7869 0.2967 0 7
-1.5395 -8.8377 -2.7869 0.2967 0 7
-1.4596 -8.8512 -2.7869 0.2967 0 7
-1.3794 -8.8641 -2.7869 0.2967 0 7
-1.2992 -8.8762 -2.7869 0.2967 0 7
-1.2189 -8.8876 -2.7869 0.2967 0 7
-1.1385 -8.8982 -2.7869 0.2967 0 7
-1.0580 -8.9082 -2.7869 0.2967 0 7
-0.9774 -8.9173 -2.7869 0.2967 0 7
-0.8967 -8.9258 -2.7869 0.2967 0 7
-0.8159 -8.9336 -2.7869 0.2967 0 7
-0.7351 -8.9406 -2.7869 0.2967 0 7
-0.6542 -8.9469 -2.7869 0.2967 0 7
-0.5733 -8.9524 -2.7869 0.2967 0 7
-0.4923 -8.9572 -2.7869 0.2967 0 7
-0.4113 -8.9613 -2.7869 0.2967 0 7
-0.3302 -8.9647 -2.7869 0.2967 0 7
-0.2491 -8.9673 -2.7869 0.2967 0 7
-0.1680 -8.9692 -2.7869 0.2967 0 7
-0.0869 -8.9703 -2.7869 0.2967 0 7
-0.0058 -8.9708 -2.7869 0.2967 0 7
0.0754 -8.9704 -2.7869 0.2967 0 7
0.1565 -8.9694 -2.7869 0.2967 0 7
0.2376 -8.9676 -2.7869 0.2967 0 7
0.3187 -8.9651 -2.7869 0.2967 0 7
0.3998 -8.9619 -2.7869 0.2967 0 7
0.4808 -8.9579 -2.7869 0.2967 0 7
0.5618 -8.9532 -2.7869 0.2967 0 7
0.6427 -8.9477 -2.7869 0.2967 0 7
0.7236 -8.9415 -2.7869 0.2967 0 7
0.8044 -8.9346 -2.7869 0.2967 0 7
0.8852 -8.9270 -2.7869 0.2967 0 7
0.9659 -8.9186 -2.7869 0.2967 0 7
1.0465 -8.9095 -2.7869 0.2967 0 7
1.1270 -8.8997 -2.7869 0.2967 0 7
1.2075 -8.8891 -2.7869 0.2967 0 7
1.2878 -8.8778 -2.7869 0.2967 0 7
1.3681 -8.8658 -2.7869 0.2967 0 7
1.4482 -8.8531 -2.7869 0.2967 0 7
1.5282 -8.8396 -2.7869 0.2967 0 7
1.6081 -8.8255 -2.7869 0.2967 0 7
1.6878 -8.8105 -2.7869 0.2967 0 7
1.7674 -8.7949 -2.7869 0.2967 0 7
1.8469 -8.7786 -2.7869 0.2967 0 7
1.9262 -8.7615 -2.7869 0.2967 0 7
2.0054 -8.7437 -2.7869 0.2967 0 7
2.0843 -8.7252 -2.7869 0.2967 0 7
2.1632 -8.7060 -2.7869 0.2967 0 7
2.2418 -8.6861 -2.7869 0.2967 0 7
2.3203 -8.6655 -2.7869 0.2967 0 7
2.3985 -8.6442 -2.7869 0.2967 0 7
2.4766 -8.6221 -2.7869 0.2967 0 7
2.5545 -8.5994 -2.7869 0.2967 0 7
2.6322 -8.5759 -2.7869 0.2967 0 7
2.7096 -8.5517 -2.7869 0.2967 0 7
2.7868 -8.5269 -2.7869 0.2967 0 7
2.8638 -8.5013 -2.7869 0.2967 0 7
2.9406 -8.4751 -2.7869 0.2967 0 7
3.0171 -8.4482 -2.7869 0.2967 0 7
3.0934 -8.4205 -2.7869 0.2967 0 7
3.1694 -8.3922 -2.7869 0.2967 0 7
3.2452 -8.3632 -2.7869 0.2967 0 7
3.3207 -8.3335 -2.7869 0.2967 0 7
3.3959 -8.3031 -2.7869 0.2967 0 7
3.4709 -8.2721 -2.7869 0.2967 0 7
3.5455 -8.2404 -2.7869 0.2967 0 7
3.6199 -8.2080 -2.7869 0.2967 0 7
3.6940 -8.1749 -2.7869 0.2967 0 7
3.7678 -8.1411 -2.7869 0.2967 0 7
3.8412 -8.1067 -2.7869 0.2967 0 7
3.9144 -8.0717 -2.7869 0.2967 0 7
3.9872 -8.0359 -2.7869 0.2967 0 7
4.0598 -7.9996 -2.7869 0.2967 0 7
4.1319 -7.9625 -2.7869 0.2967 0 7
4.2038 -7.9248 -2.7869 0.2967 0 7
4.2753 -7.8865 -2.7869 0.2967 0 7
4.3464 -7.8475 -2.7869 0.2967 0 7
4.4172 -7.8079 -2.7869 0.2967 0 7
4.4876 -7.7676 -2.7869 0.2967 0 7
4.5577 -7.7267 -2.7869 0.2967 0 7
4.6274 -7.6852 -2.7869 0.2967 0 7
4.6967 -7.6430 -2.7869 0.2967 0 7
4.7656 -7.6002 -2.7869 0.2967 0 7
4.8342 -7.5568 -2.7869 0.2967 0 7
4.9023 -7.5128 -2.7869 0.2967 0 7
4.9701 -7.4681 -2.7869 0.2967 0 7
5.0374 -7.4229 -2.7869 0.2967 0 7
5.1043 -7.3770 -2.7869 0.2967 0 7
5.1708 -7.3306 -2.7869 0.2967 0 7
5.2369 -7.2835 -2.7869 0.2967 0 7
5.3026 -7.2358 -2.7869 0.2967 0 7
5.3678 -7.1876 -2.7869 0.2967 0 7
5.4326 -7.1388 -2.7869 0.2967 0 7
5.4969 -7.0893 -2.7869 0.2967 0 7
5.5608 -7.0393 -2.7869 0.2967 0 7
5.6242 -6.9887 -2.7869 0.2967 0 7
5.6872 -6.9376 -2.7869 0.2967 0 7
5.7497 -6.8859 -2.7869 0.2967 0 7
5.8117 -6.8336 -2.7869 0.2967 0 7
5.8733 -6.7808 -2.7869 0.2967 0 7
5.9344 -6.7274 -2.7869 0.2967 0 7
5.9950 -6.6734 -2.7869 0.2967 0 7
6.0551 -6.6189 -2.7869 0.2967 0 7
6.1147 -6.5639 -2.7869 0.2967 0 7
6.1738 -6.5084 -2.7869 0.2967 0 7
6.2324 -6.4523 -2.7869 0.2967 0 7
6.2905 -6.3956 -2.7869 0.2967 0 7
6.3481 -6.3385 -2.7869 0.2967 0 7
6.4052 -6.2808 -2.7869 0.2967 0 7
6.4617 -6.2226 -2.7869 0.2967 0 7
6.5177 -6.1639 -2.7869 0.2967 0 7
6.5732 -6.1047 -2.7869 0.2967 0 7
6.6281 -6.0450 -2.7869 0.2967 0 7
6.6825 -5.9848 -2.7869 0.2967 0 7
6.7364 -5.9242 -2.7869 0.2967 0 7
6.7897 -5.8630 -2.7869 0.2967 0 7
6.8424 -5.8014 -2.7869 0.2967 0 7
6.8946 -5.7393 -2.7869 0.2967 0 7
6.9462 -5.6767 -2.7869 0.2967 0 7
6.9973 -5.6136 -2.7869 0.2967 0 7
7.0477 -5.5501 -2.7869 0.2967 0 7
7.0977 -5.4862 -2.7869 0.2967 0 7
7.1470 -5.4217 -2.7869 0.2967 0 7
7.1957 -5.3569 -2.7869 0.2967 0 7
7.2439 -5.2916 -2.7869 0.2967 0 7
7.2914 -5.2259 -2.7869 0.2967 0 7
7.3384 -5.1597 -2.7869 0.2967 0 7
7.3847 -5.0931 -2.7869 0.2967 0 7
7.4305 -5.0261 -2.7869 0.2967 0 7
7.4757 -4.9587 -2.7869 0.2967 0 7
7.5202 -4.8909 -2.7869 0.2967 0 7
7.5641 -4.8227 -2.7869 0.2967 0 7
7.6074 -4.7541 -2.7869 0.2967 0 7
7.6501 -4.6851 -2.7869 0.2967 0 7
7.6922 -4.6157 -2.7869 0.2967 0 7
7.7336 -4.5460 -2.7869 0.2967 0 7
7.7744 -4.4759 -2.7869 0.2967 0 7
7.8145 -4.4054 -2.7869 0.2967 0 7
7.8541 -4.3345 -2.7869 0.2967 0 7
7.8929 -4.2633 -2.7869 0.2967 0 7
7.9312 -4.1918 -2.7869 0.2967 0 7
7.9688 -4.1199 -2.7869 0.2967 0 7
8.0057 -4.0476 -2.7869 0.2967 0 7
8.0420 -3.9751 -2.7869 0.2967 0 7
8.0776 -3.9022 -2.7869 0.2967 0 7
8.1126 -3.8290 -2.7869 0.2967 0 7
8.1468 -3.7554 -2.7869 0.2967 0 7
8.1805 -3.6816 -2.7869 0.2967 0 7
8.2134 -3.6075 -2.7869 0.2967 0 7
8.2457 -3.5331 -2.7869 0.2967 0 7
8.2773 -3.4583 -2.7869 0.2967 0 6
8.3083 -3.3833 -2.7869 0.2967 0 7
8.3385 -3.3081 -2.7869 0.2967 0 7
8.3681 -3.2325 -2.7869 0.2967 0 6
8.3970 -3.1567 -2.7869 0.2967 0 6
8.4252 -3.0806 -2.7869 0.2967 0 7
8.4527 -3.0043 -2.7869 0.2967 0 7
8.4795 -2.9278 -2.7869 0.2967 0 7
8.5057 -2.8510 -2.7869 0.2967 0 7
8.5311 -2.7739 -2.7869 0.2967 0 7
8.5559 -2.6967 -2.7869 0.2967 0 7
8.5799 -2.6192 -2.7869 0.2967 0 7
8.6032 -2.5415 -2.7869 0.2967 0 7
8.6259 -2.4636 -2.7869 0.2967 0 7
8.6478 -2.3855 -2.7869 0.2967 0 7
8.6690 -2.3071 -2.7869 0.2967 0 7
8.6895 -2.2287 -2.7869 0.2967 0 7
8.7093 -2.1500 -2.7869 0.2967 0 7
8.7284 -2.0711 -2.7869 0.2967 0 7
8.7468 -1.9921 -2.7869 0.2967 0 7
8.7644 -1.9129 -2.7869 0.2967 0 7
8.7814 -1.8336 -2.7869 0.2967 0 7
8.7976 -1.7541 -2.7869 0.2967 0 7
8.8131 -1.6745 -2.7869 0.2967 0 7
8.8279 -1.5947 -2.7869 0.2967 0 7
8.8419 -1.5148 -2.7869 0.2967 0 7
8.8553 -1.4348 -2.7869 0.2967 0 7
8.8679 -1.3546 -2.7869 0.2967 0 7
8.8798 -1.2744 -2.7869 0.2967 0 7
8.8909 -1.1940 -2.7869 0.2967 0 7
8.9014 -1.1136 -2.7869 0.2967 0 7
8.9111 -1.0330 -2.7869 0.2967 0 7
8.9201 -0.9524 -2.7869 0.2967 0 7
8.9283 -0.8717 -2.7869 0.2967 0 7
8.9358 -0.7909 -2.7869 0.2967 0 7
8.9426 -0.7101 -2.7869 0.2967 0 7
8.9487 -0.6292 -2.7869 0.2967 0 7
8.9540 -0.5482 -2.7869 0.2967 0 7
8.9586 -0.4672 -2.7869 0.2967 0 7
8.9624 -0.3862 -2.7869 0.2967 0 7
8.9656 -0.3051 -2.7869 0.2967 0 7
8.9680 -0.2240 -2.7869 0.2967 0 7
8.9696 -0.1429 -2.7869 0.2967 0 7
8.9705 -0.0618 -2.7869 0.2967 0 7
8.9707 0.0194 -2.7869 0.2967 0 7
8.9702 0.1005 -2.7869 0.2967 0 7
8.9689 0.1816 -2.7869 0.2967 0 7
8.9669 0.2627 -2.7869 0.2967 0 7
8.9642 0.3438 -2.7869 0.2967 0 7
8.9607 0.4248 -2.7869 0.2967 0 7
8.9565 0.5059 -2.7869 0.2967 0 7
8.9515 0.5868 -2.7869 0.2967 0 7
8.9459 0.6678 -2.7869 0.2967 0 7
8.9395 0.7486 -2.7869 0.2967 0 7
8.9323 0.8295 -2.7869 0.2967 0 7
8.9245 0.9102 -2.7869 0.2967 0 7
8.9159 0.9909 -2.7869 0.2967 0 7
8.9065 1.0715 -2.7869 0.2967 0 7
8.8965 1.1520 -2.7869 0.2967 0 7
8.8857 1.2324 -2.7869 0.2967 0 7
8.8742 1.3127 -2.7869 0.2967 0 7
8.8620 1.3929 -2.7869 0.2967 0 7
8.8490 1.4730 -2.7869 0.2967 0 7
8.8353 1.5529 -2.7869 0.2967 0 7
8.8209 1.6328 -2.7869 0.2967 0 7
8.8058 1.7125 -2.7869 0.2967 0 7
8.7899 1.7921 -2.7869 0.2967 0 7
8.7734 1.8715 -2.7869 0.2967 0 7
8.7561 1.9507 -2.7869 0.2967 0 7
8.7381 2.0298 -2.7869 0.2967 0 6
8.7194 2.1088 -2.7869 0.2967 0 6
8.6999 2.1875 -2.7869 0.2967 0 6
8.6798 2.2661 -2.7869 0.2967 0 6
8.6590 2.3445 -2.7869 0.2967 0 6
8.6374 2.4227 -2.7869 0.2967 0 6
8.6151 2.5008 -2.7869 0.2967 0 6
8.5922 2.5786 -2.7869 0.2967 0 6
8.5685 2.6562 -2.7869 0.2967 0 6
8.5441 2.7335 -2.7869 0.2967 0 6
8.5191 2.8107 -2.7869 0.2967 0 6
8.4933 2.8876 -2.7869 0.2967 0 6
8.4668 2.9644 -2.7869 0.2967 0 6
8.4397 3.0407 -2.7869 0.2967 0 7
8.4118 3.1170 -2.7869 0.2967 0 7
8.3833 3.1929 -2.7869 0.2967 0 7
8.3541 3.2686 -2.7869 0.2967 0 7
8.3242 3.3440 -2.7869 0.2967 0 7
8.2936 3.4192 -2.7869 0.2967 0 7
8.2623 3.4940 -2.7869 0.2967 0 7
8.2304 3.5686 -2.7869 0.2967 0 7
8.1978 3.6429 -2.7869 0.2967 0 6
8.1645 3.7169 -2.7869 0.2967 0 6
8.1306 3.7906 -2.7869 0.2967 0 7
8.0959 3.8639 -2.7869 0.2967 0 7
8.0607 3.9370 -2.7869 0.2967 0 7
8.0247 4.0097 -2.7869 0.2967 0 7
7.9881 4.0821 -2.7869 0.2967 0 7
7.9509 4.1542 -2.7869 0.2967 0 7
7.9130 4.2260 -2.7869 0.2967 0 7
7.8745 4.2973 -2.7869 0.2967 0 7
7.8353 4.3684 -2.7869 0.2967 0 7
7.7955 4.4391 -2.7869 0.2967 0 7
7.7550 4.5094 -2.7869 0.2967 0 7
7.7139 4.5793 -2.7869 0.2967 0 7
7.6722 4.6489 -2.7869 0.2967 0 7
7.6298 4.7181 -2.7869 0.2967 0 7
7.5868 4.7869 -2.7869 0.2967 0 7
7.5432 4.8553 -2.7869 0.2967 0 7
7.4990 4.9233 -2.7869 0.2967 0 7
7.4542 4.9910 -2.7869 0.2967 0 7
7.4087 5.0581 -2.7869 0.2967 0 7
7.3627 5.1250 -2.7869 0.2967 0 7
7.3160 5.1913 -2.7869 0.2967 0 7
7.2688 5.2573 -2.7869 0.2967 0 7
7.2210 5.3228 -2.7869 0.2967 0 7
7.1725 5.3879 -2.7869 0.2967 0 7
7.1235 5.4525 -2.7869 0.2967 0 7
7.0739 5.5167 -2.7869 0.2967 0 7
7.0237 5.5805 -2.7869 0.2967 0 7
6.9730 5.6438 -2.7869 0.2967 0 7
6.9216 5.7066 -2.7869 0.2967 0 7
6.8696 5.7688 -2.7868 0.3077 0 8
6.8148 5.8287 -2.7859 0.3078 0 8
6.7595 5.8881 -2.7849 0.3079 0 8
6.7037 5.9470 -2.7840 0.3080 0 8
6.6474 6.0053 -2.7830 0.3081 0 8
6.5906 6.0632 -2.7821 0.3082 0 8
6.5334 6.1205 -2.7812 0.3083 0 8
6.4756 6.1773 -2.7803 0.3084 0 8
6.4174 6.2336 -2.7794 0.3085 0 8
6.3175 6.2485 -2.7604 0.7489 0 8
6.2135 6.2579 -2.7396 0.7546 0 8
6.1111 6.2671 -2.7194 0.7602 0 8
6.0102 6.2762 -2.6996 0.7658 0 8
5.9106 6.2850 -2.6803 0.7713 0 8
5.8125 6.2938 -2.6615 0.7768 0 8
5.7157 6.3023 -2.6432 0.7822 0 8
5.6399 6.3329 -2.6345 0.2967 0 8
5.5823 6.3836 -2.6345 0.2967 0 8
5.5244 6.4339 -2.6345 0.2967 0 8
5.4660 6.4836 -2.6345 0.2967 0 8
5.4071 6.5327 -2.6345 0.2967 0 8
5.3478 6.5814 -2.6345 0.2967 0 8
5.2881 6.6295 -2.6345 0.2967 0 8
5.2279 6.6770 -2.6345 0.2967 0 8
5.1673 6.7240 -2.6345 0.2967 0 8
5.1063 6.7705 -2.6345 0.2967 0 8
5.0449 6.8164 -2.6345 0.2967 0 8
4.9830 6.8617 -2.6345 0.2967 0 8
4.9208 6.9065 -2.6345 0.2967 0 8
4.8581 6.9507 -2.6345 0.2967 0 8
4.7950 6.9944 -2.6345 0.2967 0 8
4.7170 7.0158 -2.6264 0.7525 0 19
4.6287 7.0207 -2.6124 0.8291 0 19
4.5417 7.0263 -2.5991 0.8334 0 19
4.4556 7.0318 -2.5861 0.8375 0 19
4.3704 7.0372 -2.5735 0.8417 0 19
4.2860 7.0426 -2.5612 0.8457 0 19
4.2023 7.0479 -2.5492 0.8497 0 19
4.1371 7.0833 -2.5483 0.4282 0 19
4.1478 7.2514 -2.5952 0.4205 0 19
4.1437 7.3988 -2.6345 0.2967 0 8
4.0767 7.4360 -2.6345 0.2967 0 8
4.0093 7.4726 -2.6345 0.2967 0 8
3.9415 7.5085 -2.6345 0.2967 0 8
3.8735 7.5439 -2.6345 0.2967 0 8
3.8051 7.5786 -2.6345 0.2967 0 8
3.7364 7.6127 -2.6345 0.2967 0 8
3.6674 7.6462 -2.6345 0.2967 0 8
3.5981 7.6790 -2.6345 0.2967 0 8
3.5285 7.7112 -2.6345 0.2967 0 8
8.3058 -0.0000 -2.7869 0.3181 0 6
8.3054 0.0751 -2.7869 0.3181 0 6
8.3044 0.1502 -2.7869 0.3181 0 6
8.3027 0.2253 -2.7869 0.3181 0 6
8.3003 0.3004 -2.7869 0.3181 0 6
8.2973 0.3754 -2.7869 0.3181 0 6
8.2935 0.4504 -2.7869 0.3181 0 6
8.2891 0.5255 -2.7869 0.3181 0 7
8.2841 0.6004 -2.7869 0.3181 0 7
8.2783 0.6753 -2.7869 0.3181 0 7
8.2718 0.7501 -2.7869 0.3181 0 7
8.2647 0.8249 -2.7869 0.3181 0 7
8.2569 0.8996 -2.7869 0.3181 0 7
8.2485 0.9742 -2.7869 0.3181 0 7
8.2393 1.0488 -2.7869 0.3181 0 7
8.2295 1.1233 -2.7869 0.3181 0 7
8.2190 1.1976 -2.7869 0.3181 0 7
8.2078 1.2719 -2.7869 0.3181 0 7
8.1960 1.3461 -2.7869 0.3181 0 7
8.1835 1.4202 -2.7869 0.3181 0 7
8.1703 1.4941 -2.7869 0.3181 0 7
8.1564 1.5679 -2.7869 0.3181 0 7
8.1419 1.6417 -2.7869 0.3181 0 7
8.1268 1.7152 -2.7869 0.3181 0 7
8.1109 1.7886 -2.7869 0.3181 0 7
8.0944 1.8619 -2.7869 0.3181 0 7
8.0772 1.9350 -2.7869 0.3181 0 7
8.0594 2.0080 -2.7869 0.3181 0 7
8.0409 2.0808 -2.7869 0.3181 0 7
8.0218 2.1534 -2.7869 0.3181 0 7
8.0020 2.2259 -2.7869 0.3181 0 7
7.9815 2.2982 -2.7869 0.3181 0 7
7.9604 2.3702 -2.7869 0.3181 0 7
7.9386 2.4422 -2.7869 0.3181 0 7
7.9162 2.5138 -2.7869 0.3181 0 7
7.8932 2.5853 -2.7869 0.3181 0 7
7.8695 2.6566 -2.7869 0.3181 0 7
7.8451 2.7277 -2.7869 0.3181 0 7
7.8201 2.7985 -2.7869 0.3181 0 7
7.7945 2.8691 -2.7869 0.3181 0 7
7.7682 2.9395 -2.7869 0.3181 0 7
7.7413 3.0096 -2.7869 0.3181 0 7
7.7138 3.0795 -2.7869 0.3181 0 7
7.6856 3.1491 -2.7869 0.3181 0 7
7.6568 3.2185 -2.7869 0.3181 0 7
7.6274 3.2876 -2.7869 0.3181 0 7
7.5974 3.3565 -2.7869 0.3181 0 7
7.5667 3.4250 -2.7869 0.3181 0 7
7.5354 3.4933 -2.7869 0.3181 0 7
7.5035 3.5613 -2.7869 0.3181 0 7
7.4710 3.6291 -2.7869 0.3181 0 7
7.4379 3.6965 -2.7869 0.3181 0 6
7.4041 3.7636 -2.7869 0.3181 0 6
7.3698 3.8304 -2.7869 0.3181 0 7
7.3349 3.8969 -2.7869 0.3181 0 7
7.2993 3.9630 -2.7869 0.3181 0 7
7.2632 4.0289 -2.7869 0.3181 0 7
7.2265 4.0944 -2.7869 0.3181 0 7
7.1891 4.1596 -2.7869 0.3181 0 7
7.1512 4.2244 -2.7869 0.3181 0 7
7.1127 4.2890 -2.7869 0.3181 0 7
7.0736 4.3531 -2.7869 0.3181 0 7
7.0340 4.4169 -2.7869 0.3181 0 7
6.9938 4.4803 -2.7869 0.3181 0 7
6.9530 4.5434 -2.7869 0.3181 0 7
6.9116 4.6061 -2.7869 0.3181 0 7
6.8697 4.6684 -2.7869 0.3181 0 7
6.8271 4.7303 -2.7869 0.3181 0 7
6.7841 4.7919 -2.7869 0.3181 0 7
6.7405 4.8530 -2.7869 0.3181 0 7
6.6963 4.9138 -2.7869 0.3181 0 7
6.6516 4.9742 -2.7869 0.3181 0 7
6.6063 5.0341 -2.7869 0.3181 0 7
6.5605 5.0936 -2.7869 0.3181 0 7
6.5142 5.1528 -2.7869 0.3181 0 7
6.4674 5.2115 -2.7869 0.3181 0 7
6.4200 5.2697 -2.7869 0.3181 0 7
6.3720 5.3276 -2.7869 0.3181 0 7
6.3236 5.3850 -2.7869 0.3181 0 7
6.2746 5.4420 -2.7869 0.3181 0 7
6.2252 5.4985 -2.7869 0.3181 0 7
6.1752 5.5546 -2.7869 0.3181 0 7
6.1247 5.6102 -2.7869 0.3181 0 7
6.0737 5.6653 -2.7869 0.3181 0 7
6.0222 5.7200 -2.7869 0.3181 0 7
5.9703 5.7743 -2.7869 0.3181 0 7
5.9174 5.8276 -2.7867 0.3299 0 8
5.8627 5.8791 -2.7859 0.3300 0 8
5.8076 5.9302 -2.7850 0.3301 0 8
5.7521 5.9807 -2.7842 0.3302 0 8
5.6961 6.0308 -2.7834 0.3303 0 8
5.6397 6.0803 -2.7827 0.3304 0 8
5.5830 6.1294 -2.7819 0.3305 0 8
5.5258 6.1779 -2.7811 0.3306 0 8
5.4682 6.2259 -2.7803 0.3307 0 8
5.4102 6.2734 -2.7796 0.3308 0 8
5.3339 6.2992 -2.7695 0.8004 0 8
5.2435 6.3073 -2.7521 0.8055 0 8
5.1542 6.3152 -2.7351 0.8105 0 8
5.0660 6.3230 -2.7185 0.8154 0 8
4.9788 6.3306 -2.7024 0.8203 0 8
4.8926 6.3381 -2.6866 0.8251 0 8
4.8073 6.3455 -2.6712 0.8299 0 8
4.7230 6.3528 -2.6561 0.8346 0 8
4.6399 6.3603 -2.6416 0.7867 0 8
4.5698 6.3847 -2.6345 0.3181 0 8
4.5119 6.4258 -2.6345 0.3181 0 8
4.4536 6.4663 -2.6345 0.3181 0 8
4.3949 6.5063 -2.6345 0.3181 0 8
4.3359 6.5458 -2.6345 0.3181 0 8
4.2765 6.5847 -2.6345 0.3181 0 8
4.2168 6.6231 -2.6345 0.3181 0 8
4.1567 6.6610 -2.6345 0.3181 0 8
4.0963 6.6983 -2.6345 0.3181 0 8
4.0356 6.7351 -2.6345 0.3181 0 8
3.9745 6.7713 -2.6345 0.3181 0 8
3.9131 6.8070 -2.6345 0.3181 0 8
3.8514 6.8421 -2.6345 0.3181 0 8
3.7893 6.8766 -2.6345 0.3181 0 8
3.7270 6.9106 -2.6345 0.3181 0 8
3.6643 6.9441 -2.6345 0.3181 0 8
3.6014 6.9769 -2.6345 0.3181 0 8
3.5381 7.0092 -2.6345 0.3181 0 8
3.4746 7.0409 -2.6345 0.3181 0 8
3.4108 7.0720 -2.6345 0.3181 0 8
3.3467 7.1026 -2.6345 0.3181 0 8
3.2823 7.1326 -2.6345 0.3181 0 8
3.2177 7.1620 -2.6345 0.3181 0 8
3.1528 7.1908 -2.6345 0.3181 0 8
3.0876 7.2190 -2.6345 0.3181 0 8
3.0222 7.2466 -2.6345 0.3181 0 8
2.9566 7.2736 -2.6345 0.3181 0 8
2.8907 7.3001 -2.6345 0.3181 0 8
2.8245 7.3259 -2.6345 0.3181 0 8
2.7582 7.3512 -2.6345 0.3181 0 8
2.6916 7.3758 -2.6345 0.3181 0 8
2.6248 7.3999 -2.6345 0.3181 0 8
2.5577 7.4233 -2.6345 0.3181 0 8
2.4905 7.4461 -2.6345 0.3181 0 8
2.4231 7.4683 -2.6345 0.3181 0 8
2.3554 7.4900 -2.6345 0.3181 0 8
2.2876 7.5109 -2.6345 0.3181 0 8
2.2196 7.5313 -2.6345 0.3181 0 8
2.1514 7.5511 -2.6345 0.3181 0 8
2.0830 7.5702 -2.6345 0.3181 0 8
2.0144 7.5888 -2.6345 0.3181 0 8
1.9457 7.6067 -2.6345 0.3181 0 8
1.8769 7.6240 -2.6345 0.3181 0 8
1.8078 7.6406 -2.6345 0.3181 0 8
1.7387 7.6567 -2.6345 0.3181 0 8
1.6693 7.6721 -2.6345 0.3181 0 8
1.5999 7.6869 -2.6345 0.3181 0 8
1.5303 7.7010 -2.6345 0.3181 0 8
1.4606 7.7145 -2.6345 0.3181 0 8
1.3908 7.7274 -2.6345 0.3181 0 8
1.3208 7.7397 -2.6345 0.3181 0 8
1.2508 7.7513 -2.6345 0.3181 0 8
1.1806 7.7623 -2.6345 0.3181 0 8
1.1104 7.7727 -2.6345 0.3181 0 8
1.0400 7.7824 -2.6345 0.3181 0 8
0.9696 7.7915 -2.6345 0.3181 0 8
0.8991 7.7999 -2.6345 0.3181 0 8
0.8285 7.8077 -2.6345 0.3181 0 8
0.7579 7.8149 -2.6345 0.3181 0 8
0.6872 7.8215 -2.6345 0.3181 0 8
0.6164 7.8274 -2.6345 0.3181 0 8
0.5456 7.8326 -2.6345 0.3181 0 8
0.4748 7.8372 -2.6345 0.3181 0 8
0.4039 7.8412 -2.6345 0.3181 0 8
0.3329 7.8445 -2.6345 0.3181 0 8
0.2620 7.8472 -2.6345 0.3181 0 8
0.1910 7.8493 -2.6345 0.3181 0 8
0.1200 7.8507 -2.6345 0.3181 0 8
0.0490 7.8514 -2.6345 0.3181 0 8
-0.0220 7.8515 -2.6345 0.3181 0 8
-0.0930 7.8510 -2.6345 0.3181 0 8
-0.1640 7.8499 -2.6345 0.3181 0 8
-0.2350 7.8481 -2.6345 0.3181 0 8
-0.3059 7.8456 -2.6345 0.3181 0 8
-0.3769 7.8425 -2.6345 0.3181 0 8
-0.4478 7.8388 -2.6345 0.3181 0 8
-0.5187 7.8344 -2.6345 0.3181 0 8
-0.5895 7.8294 -2.6345 0.3181 0 8
-0.6603 7.8238 -2.6345 0.3181 0 8
-0.7310 7.8175 -2.6345 0.3181 0 8
-0.8017 7.8106 -2.6345 0.3181 0 8
-0.8723 7.8030 -2.6345 0.3181 0 8
-0.9428 7.7948 -2.6345 0.3181 0 8
-1.0133 7.7859 -2.6345 0.3181 0 8
-1.0836 7.7764 -2.6345 0.3181 0 8
-1.1539 7.7663 -2.6345 0.3181 0 8
-1.2241 7.7556 -2.6345 0.3181 0 8
-1.2942 7.7442 -2.6345 0.3181 0 8
-1.3642 7.7322 -2.6345 0.3181 0 8
-1.4340 7.7195 -2.6345 0.3181 0 8
-1.5038 7.7062 -2.6345 0.3181 0 8
-1.5734 7.6923 -2.6345 0.3181 0 8
-1.6429 7.6778 -2.6345 0.3181 0 8
-1.7123 7.6626 -2.6345 0.3181 0 8
-1.7815 7.6468 -2.6345 0.3181 0 8
-1.8506 7.6304 -2.6345 0.3181 0 8
-1.9195 7.6133 -2.6345 0.3181 0 8
-1.9532 7.4615 -2.5879 0.3112 0 5
-2.0016 7.3736 -2.5636 0.9100 0 5
-2.0746 7.3779 -2.5715 0.9072 0 5
-2.1480 7.3822 -2.5797 0.9043 0 5
-2.2219 7.3866 -2.5882 0.9014 0 5
-2.3296 7.4980 -2.6345 0.3181 0 8
-2.3973 7.4767 -2.6345 0.3181 0 8
-2.4648 7.4547 -2.6345 0.3181 0 8
-2.5322 7.4320 -2.6345 0.3181 0 8
-2.5993 7.4089 -2.6345 0.3181 0 8
-2.6662 7.3850 -2.6345 0.3181 0 8
-2.7328 7.3606 -2.6345 0.3181 0 8
-2.7993 7.3356 -2.6345 0.3181 0 8
-2.8655 7.3100 -2.6345 0.3181 0 8
-2.9315 7.2838 -2.6345 0.3181 0 8
-2.9973 7.2570 -2.6345 0.3181 0 8
-3.0628 7.2296 -2.6345 0.3181 0 8
-3.1280 7.2016 -2.6345 0.3181 0 8
-3.1930 7.1730 -2.6345 0.3181 0 8
-3.2578 7.1438 -2.6345 0.3181 0 8
-3.3222 7.1141 -2.6345 0.3181 0 8
-3.3864 7.0837 -2.6345 0.3181 0 8
-3.4504 7.0528 -2.6345 0.3181 0 8
-3.5140 7.0213 -2.6345 0.3181 0 8
-3.5774 6.9893 -2.6345 0.3181 0 8
-3.6404 6.9566 -2.6345 0.3181 0 8
-3.7032 6.9234 -2.6345 0.3181 0 8
-3.7656 6.8896 -2.6345 0.3181 0 8
-3.8278 6.8553 -2.6345 0.3181 0 8
-3.8902 6.8215 -2.6349 0.7887 0 8
-3.9702 6.8176 -2.6471 0.8374 0 8
-4.0542 6.8193 -2.6619 0.8327 0 8
-4.1392 6.8210 -2.6771 0.8280 0 8
-4.2251 6.8227 -2.6927 0.8232 0 8
-4.3120 6.8244 -2.7086 0.8184 0 8
-4.3999 6.8261 -2.7250 0.8135 0 8
-4.4889 6.8277 -2.7417 0.8085 0 8
-4.5789 6.8293 -2.7589 0.8035 0 8
-4.6701 6.8309 -2.7765 0.7984 0 8
-4.7375 6.7968 -2.7799 0.3307 0 8
-4.8001 6.7555 -2.7806 0.3306 0 8
-4.8623 6.7137 -2.7814 0.3306 0 8
-4.9242 6.6713 -2.7822 0.3305 0 8
-4.9857 6.6283 -2.7830 0.3304 0 8
-5.0469 6.5848 -2.7838 0.3303 0 8
-5.1077 6.5408 -2.7846 0.3302 0 8
-5.1682 6.4962 -2.7854 0.3301 0 8
-5.2283 6.4511 -2.7862 0.3300 0 8
-5.2877 6.4052 -2.7869 0.3181 0 7
-5.3454 6.3571 -2.7869 0.3181 0 7
-5.4027 6.3085 -2.7869 0.3181 0 7
-5.4595 6.2594 -2.7869 0.3181 0 7
-5.5159 6.2097 -2.7869 0.3181 0 7
-5.5718 6.1596 -2.7869 0.3181 0 7
-5.6273 6.1090 -2.7869 0.3181 0 7
-5.6823 6.0578 -2.7869 0.3181 0 7
-5.7369 6.0062 -2.7869 0.3181 0 7
-5.7910 5.9541 -2.7869 0.3181 0 7
-5.8446 5.9015 -2.7869 0.3181 0 7
-5.8977 5.8483 -2.7869 0.3181 0 7
-5.9503 5.7948 -2.7869 0.3181 0 7
-6.0025 5.7407 -2.7869 0.3181 0 7
-5.4922 5.1583 -2.5282 0.5343 0 10
-5.5330 5.1033 -2.5256 0.7808 0 10
-5.6188 5.0891 -2.5437 0.6145 0 10
-6.2062 5.5199 -2.7869 0.3181 0 7
-6.2559 5.4635 -2.7869 0.3181 0 7
-6.3050 5.4067 -2.7869 0.3181 0 7
-6.3537 5.3495 -2.7869 0.3181 0 7
-6.2037 5.1281 -2.7007 0.5439 0 10
-6.2769 5.0938 -2.7124 0.5474 0 10
-6.3911 5.0912 -2.7417 0.4182 0 10
-6.5430 5.1162 -2.7869 0.3181 0 7
-6.5890 5.0568 -2.7869 0.3181 0 7
-6.6344 4.9970 -2.7869 0.3181 0 7
-6.6794 4.9368 -2.7869 0.3181 0 7
-6.7237 4.8762 -2.7869 0.3181 0 7
-6.7676 4.8152 -2.7869 0.3181 0 7
-6.8108 4.7538 -2.7869 0.3181 0 7
-6.8535 4.6920 -2.7869 0.3181 0 7
-6.8957 4.6298 -2.7869 0.3181 0 7
-6.9373 4.5673 -2.7869 0.3181 0 7
-6.9783 4.5044 -2.7869 0.3181 0 6
-7.0188 4.4411 -2.7869 0.3181 0 6
-7.0586 4.3774 -2.7869 0.3181 0 7
-7.0979 4.3134 -2.7869 0.3181 0 7
-7.1366 4.2490 -2.7869 0.3181 0 7
-7.1748 4.1843 -2.7869 0.3181 0 7
-7.2123 4.1193 -2.7869 0.3181 0 7
-7.2493 4.0539 -2.7869 0.3181 0 7
-7.2857 3.9882 -2.7869 0.3181 0 7
-7.3214 3.9221 -2.7869 0.3181 0 7
-7.3566 3.8557 -2.7869 0.3181 0 7
-7.3912 3.7890 -2.7869 0.3181 0 7
-7.4251 3.7220 -2.7869 0.3181 0 7
-7.4585 3.6547 -2.7869 0.3181 0 7
-7.4912 3.5871 -2.7869 0.3181 0 7
-7.5234 3.5192 -2.7869 0.3181 0 7
-7.5549 3.4511 -2.7869 0.3181 0 7
-7.5858 3.3826 -2.7869 0.3181 0 7
-7.6161 3.3139 -2.7869 0.3181 0 7
-7.6457 3.2449 -2.7869 0.3181 0 7
-7.6747 3.1756 -2.7869 0.3181 0 7
-7.7032 3.1060 -2.7869 0.3181 0 7
-7.7309 3.0362 -2.7869 0.3181 0 7
-7.7581 2.9662 -2.7869 0.3181 0 7
-7.7846 2.8959 -2.7869 0.3181 0 7
-7.8104 2.8254 -2.7869 0.3181 0 7
-7.8357 2.7547 -2.7869 0.3181 0 7
-7.8603 2.6837 -2.7869 0.3181 0 7
-7.8842 2.6125 -2.7869 0.3181 0 7
-7.9075 2.5411 -2.7869 0.3181 0 7
-7.9302 2.4695 -2.7869 0.3181 0 7
-7.9522 2.3977 -2.7869 0.3181 0 7
-7.9735 2.3256 -2.7869 0.3181 0 7
-7.9943 2.2534 -2.7869 0.3181 0 7
-8.0143 2.1810 -2.7869 0.3181 0 7
-8.0337 2.1085 -2.7869 0.3181 0 7
-8.0524 2.0357 -2.7869 0.3181 0 7
-8.0705 1.9628 -2.7869 0.3181 0 7
-8.0879 1.8898 -2.7869 0.3181 0 7
-8.1047 1.8165 -2.7869 0.3181 0 7
-8.1208 1.7432 -2.7869 0.3181 0 7
-8.1362 1.6697 -2.7869 0.3181 0 7
-8.1510 1.5960 -2.7869 0.3181 0 7
-8.1651 1.5222 -2.7869 0.3181 0 7
-8.1785 1.4483 -2.7869 0.3181 0 7
-8.1913 1.3743 -2.7869 0.3181 0 7
-8.2034 1.3002 -2.7869 0.3181 0 7
-8.2148 1.2259 -2.7869 0.3181 0 7
-8.2256 1.1516 -2.7869 0.3181 0 7
-8.2356 1.0772 -2.7869 0.3181 0 7
-8.2450 1.0026 -2.7869 0.3181 0 7
-8.2538 0.9280 -2.7869 0.3181 0 7
-8.2618 0.8533 -2.7869 0.3181 0 7
-8.2692 0.7786 -2.7869 0.3181 0 7
-8.2759 0.7038 -2.7869 0.3181 0 7
-8.2819 0.6289 -2.7869 0.3181 0 7
-8.2873 0.5540 -2.7869 0.3181 0 7
-8.2920 0.4790 -2.7869 0.3181 0 7
-8.2960 0.4040 -2.7869 0.3181 0 7
-8.2993 0.3290 -2.7869 0.3181 0 7
-8.3019 0.2539 -2.7869 0.3181 0 7
-8.3039 0.1788 -2.7869 0.3181 0 7
-8.3051 0.1037 -2.7869 0.3181 0 7
-8.3057 0.0286 -2.7869 0.3181 0 7
-8.3057 -0.0465 -2.7869 0.3181 0 7
-8.3049 -0.1216 -2.7869 0.3181 0 7
-8.3035 -0.1967 -2.7869 0.3181 0 7
-8.3013 -0.2718 -2.7869 0.3181 0 7
-8.2985 -0.3469 -2.7869 0.3181 0 7
-8.2951 -0.4219 -2.7869 0.3181 0 7
-8.2909 -0.4969 -2.7869 0.3181 0 7
-8.2861 -0.5719 -2.7869 0.3181 0 7
-8.2806 -0.6468 -2.7869 0.3181 0 7
-8.2744 -0.7216 -2.7869 0.3181 0 7
-8.2675 -0.7964 -2.7869 0.3181 0 7
-8.2600 -0.8712 -2.7869 0.3181 0 7
-8.2517 -0.9458 -2.7869 0.3181 0 7
-8.2429 -1.0204 -2.7869 0.3181 0 7
-8.2333 -1.0949 -2.7869 0.3181 0 7
-8.2231 -1.1693 -2.7869 0.3181 0 7
-8.2121 -1.2437 -2.7869 0.3181 0 7
-8.2006 -1.3179 -2.7869 0.3181 0 7
-8.1883 -1.3920 -2.7869 0.3181 0 7
-8.1754 -1.4660 -2.7869 0.3181 0 7
-8.1618 -1.5398 -2.7869 0.3181 0 7
-8.1475 -1.6136 -2.7869 0.3181 0 7
-8.1326 -1.6872 -2.7869 0.3181 0 7
-8.1170 -1.7607 -2.7869 0.3181 0 7
-8.1008 -1.8340 -2.7869 0.3181 0 7
-8.0838 -1.9072 -2.7869 0.3181 0 7
-8.0663 -1.9802 -2.7869 0.3181 0 7
-8.0480 -2.0531 -2.7869 0.3181 0 7
-8.0291 -2.1258 -2.7869 0.3181 0 7
-8.0096 -2.1983 -2.7869 0.3181 0 7
-7.9894 -2.2707 -2.7869 0.3181 0 7
-7.9685 -2.3428 -2.7869 0.3181 0 6
-7.9470 -2.4148 -2.7869 0.3181 0 7
-7.9248 -2.4866 -2.7869 0.3181 0 7
-7.9020 -2.5581 -2.7869 0.3181 0 6
-7.8786 -2.6295 -2.7869 0.3181 0 6
-7.8545 -2.7006 -2.7869 0.3181 0 7
-7.8297 -2.7716 -2.7869 0.3181 0 7
-7.8043 -2.8423 -2.7869 0.3181 0 7
-7.7783 -2.9127 -2.7869 0.3181 0 7
-7.7517 -2.9829 -2.7869 0.3181 0 7
-7.7244 -3.0529 -2.7869 0.3181 0 7
-7.6964 -3.1227 -2.7869 0.3181 0 7
-7.6679 -3.1921 -2.7869 0.3181 0 7
-7.6387 -3.2613 -2.7869 0.3181 0 7
-7.6089 -3.3303 -2.7869 0.3181 0 7
-7.5785 -3.3990 -2.7869 0.3181 0 7
-7.5474 -3.4674 -2.7869 0.3181 0 7
-7.5157 -3.5355 -2.7869 0.3181 0 7
-7.4835 -3.6033 -2.7869 0.3181 0 7
-7.4506 -3.6708 -2.7869 0.3181 0 7
-7.4171 -3.7381 -2.7869 0.3181 0 7
-7.3830 -3.8050 -2.7869 0.3181 0 7
-7.3482 -3.8716 -2.7869 0.3181 0 7
-7.3129 -3.9379 -2.7869 0.3181 0 7
-7.2770 -4.0039 -2.7869 0.3181 0 7
-7.2405 -4.0695 -2.7869 0.3181 0 7
-7.2034 -4.1348 -2.7869 0.3181 0 7
-7.1657 -4.1998 -2.7869 0.3181 0 7
-7.1275 -4.2644 -2.7869 0.3181 0 7
-7.0886 -4.3287 -2.7869 0.3181 0 7
-7.0492 -4.3926 -2.7869 0.3181 0 7
-7.0091 -4.4562 -2.7869 0.3181 0 7
-6.9686 -4.5194 -2.7869 0.3181 0 7
-6.9274 -4.5823 -2.7869 0.3181 0 7
-6.8857 -4.6447 -2.7869 0.3181 0 7
-6.8434 -4.7068 -2.7869 0.3181 0 7
-6.8005 -4.7685 -2.7869 0.3181 0 7
-6.7571 -4.8298 -2.7869 0.3181 0 7
-6.7132 -4.8907 -2.7869 0.3181 0 7
-6.6687 -4.9512 -2.7869 0.3181 0 7
-6.6236 -5.0113 -2.7869 0.3181 0 7
-6.5780 -5.0710 -2.7869 0.3181 0 7
-6.5319 -5.1303 -2.7869 0.3181 0 7
-6.4853 -5.1892 -2.7869 0.3181 0 7
-6.4381 -5.2476 -2.7869 0.3181 0 7
-6.3903 -5.3056 -2.7869 0.3181 0 7
-6.3421 -5.3632 -2.7869 0.3181 0 7
-6.2933 -5.4203 -2.7869 0.3181 0 7
-6.2441 -5.4770 -2.7869 0.3181 0 7
-6.1943 -5.5333 -2.7869 0.3181 0 7
-6.1440 -5.5891 -2.7869 0.3181 0 7
-6.0932 -5.6444 -2.7869 0.3181 0 7
-6.0419 -5.6993 -2.7869 0.3181 0 7
-5.9901 -5.7537 -2.7869 0.3181 0 7
-5.9378 -5.8076 -2.7869 0.3181 0 7
-5.8851 -5.8611 -2.7869 0.3181 0 7
-5.8318 -5.9140 -2.7869 0.3181 0 7
-5.7781 -5.9666 -2.7869 0.3181 0 7
-5.7239 -6.0186 -2.7869 0.3181 0 7
-5.6692 -6.0701 -2.7869 0.3181 0 6
-5.6141 -6.1211 -2.7869 0.3181 0 6
-5.5585 -6.1716 -2.7869 0.3181 0 7
-5.5025 -6.2216 -2.7869 0.3181 0 7
-5.4460 -6.2711 -2.7869 0.3181 0 7
-5.3891 -6.3201 -2.7869 0.3181 0 7
-5.3317 -6.3686 -2.7869 0.3181 0 7
-5.2739 -6.4166 -2.7869 0.3181 0 7
-5.2156 -6.4640 -2.7869 0.3181 0 7
-5.1570 -6.5109 -2.7869 0.3181 0 7
-5.0979 -6.5573 -2.7869 0.3181 0 7
-5.0383 -6.6031 -2.7869 0.3181 0 7
-4.9784 -6.6484 -2.7869 0.3181 0 7
-4.9181 -6.6931 -2.7869 0.3181 0 7
-4.8574 -6.7373 -2.7869 0.3181 0 7
-4.7962 -6.7810 -2.7869 0.3181 0 7
-4.7347 -6.8241 -2.7869 0.3181 0 7
-4.6728 -6.8666 -2.7869 0.3181 0 7
-4.6105 -6.9086 -2.7869 0.3181 0 7
-4.5479 -6.9500 -2.7869 0.3181 0 7
-4.4848 -6.9909 -2.7869 0.3181 0 7
-4.4214 -7.0312 -2.7869 0.3181 0 7
-4.3576 -7.0709 -2.7869 0.3181 0 7
-4.2935 -7.1100 -2.7869 0.3181 0 7
-4.2290 -7.1485 -2.7869 0.3181 0 7
-4.1642 -7.1865 -2.7869 0.3181 0 7
-4.0991 -7.2238 -2.7869 0.3181 0 7
-4.0336 -7.2606 -2.7869 0.3181 0 7
-3.9677 -7.2968 -2.7869 0.3181 0 7
-3.9016 -7.3324 -2.7869 0.3181 0 7
-3.8351 -7.3674 -2.7869 0.3181 0 7
-3.7683 -7.4017 -2.7869 0.3181 0 7
-3.7012 -7.4355 -2.7869 0.3181 0 7
-3.6338 -7.4687 -2.7869 0.3181 0 7
-3.5661 -7.5012 -2.7869 0.3181 0 7
-3.4982 -7.5332 -2.7869 0.3181 0 7
-3.4299 -7.5645 -2.7869 0.3181 0 7
-3.3613 -7.5952 -2.7869 0.3181 0 7
-3.2925 -7.6253 -2.7869 0.3181 0 7
-3.2234 -7.6548 -2.7869 0.3181 0 7
-3.1541 -7.6836 -2.7869 0.3181 0 7
-3.0845 -7.7118 -2.7869 0.3181 0 7
-3.0146 -7.7394 -2.7869 0.3181 0 7
-2.9445 -7.7663 -2.7869 0.3181 0 7
-2.8741 -7.7927 -2.7869 0.3181 0 7
-2.8035 -7.8183 -2.7869 0.3181 0 7
-2.7327 -7.8434 -2.7869 0.3181 0 7
-2.6617 -7.8678 -2.7869 0.3181 0 7
-2.5904 -7.8915 -2.7869 0.3181 0 7
-2.5189 -7.9146 -2.7869 0.3181 0 7
-2.4473 -7.9371 -2.7869 0.3181 0 7
-2.3754 -7.9589 -2.7869 0.3181 0 7
-2.3033 -7.9800 -2.7869 0.3181 0 7
-2.2310 -8.0005 -2.7869 0.3181 0 7
-2.1586 -8.0204 -2.7869 0.3181 0 7
-2.0860 -8.0396 -2.7869 0.3181 0 7
-2.0132 -8.0581 -2.7869 0.3181 0 7
-1.9402 -8.0760 -2.7869 0.3181 0 7
-1.8671 -8.0932 -2.7869 0.3181 0 7
-1.7938 -8.1098 -2.7869 0.3181 0 7
-1.7204 -8.1256 -2.7869 0.3181 0 7
-1.6469 -8.1409 -2.7869 0.3181 0 7
-1.5732 -8.1554 -2.7869 0.3181 0 7
-1.4994 -8.1693 -2.7869 0.3181 0 7
-1.4254 -8.1825 -2.7869 0.3181 0 7
-1.3514 -8.1951 -2.7869 0.3181 0 7
-1.2772 -8.2070 -2.7869 0.3181 0 7
-1.2029 -8.2182 -2.7869 0.3181 0 7
-1.1286 -8.2288 -2.7869 0.3181 0 7
-1.0541 -8.2386 -2.7869 0.3181 0 7
-0.9795 -8.2478 -2.7869 0.3181 0 7
-0.9049 -8.2563 -2.7869 0.3181 0 7
-0.8302 -8.2642 -2.7869 0.3181 0 7
-0.7554 -8.2714 -2.7869 0.3181 0 7
-0.6806 -8.2778 -2.7869 0.3181 0 7
-0.6057 -8.2837 -2.7869 0.3181 0 7
-0.5308 -8.2888 -2.7869 0.3181 0 7
-0.4558 -8.2933 -2.7869 0.3181 0 7
-0.3808 -8.2970 -2.7869 0.3181 0 7
-0.3057 -8.3002 -2.7869 0.3181 0 7
-0.2306 -8.3026 -2.7869 0.3181 0 7
-0.1556 -8.3043 -2.7869 0.3181 0 7
-0.0804 -8.3054 -2.7869 0.3181 0 7
-0.0053 -8.3058 -2.7869 0.3181 0 7
0.0698 -8.3055 -2.7869 0.3181 0 7
0.1449 -8.3045 -2.7869 0.3181 0 7
0.2200 -8.3029 -2.7869 0.3181 0 7
0.2951 -8.3006 -2.7869 0.3181 0 7
0.3701 -8.2975 -2.7869 0.3181 0 7
0.4451 -8.2938 -2.7869 0.3181 0 7
0.5201 -8.2895 -2.7869 0.3181 0 7
0.5951 -8.2844 -2.7869 0.3181 0 7
0.6700 -8.2787 -2.7869 0.3181 0 7
0.7448 -8.2723 -2.7869 0.3181 0 7
0.8196 -8.2653 -2.7869 0.3181 0 7
0.8943 -8.2575 -2.7869 0.3181 0 7
0.9689 -8.2491 -2.7869 0.3181 0 7
1.0435 -8.2400 -2.7869 0.3181 0 7
1.1180 -8.2302 -2.7869 0.3181 0 7
1.1924 -8.2198 -2.7869 0.3181 0 7
1.2667 -8.2086 -2.7869 0.3181 0 7
1.3408 -8.1968 -2.7869 0.3181 0 7
1.4149 -8.1844 -2.7869 0.3181 0 7
1.4889 -8.1713 -2.7869 0.3181 0 7
1.5627 -8.1575 -2.7869 0.3181 0 7
1.6364 -8.1430 -2.7869 0.3181 0 7
1.7100 -8.1279 -2.7869 0.3181 0 7
1.7834 -8.1121 -2.7869 0.3181 0 7
1.8567 -8.0956 -2.7869 0.3181 0 7
1.9298 -8.0785 -2.7869 0.3181 0 7
2.0028 -8.0607 -2.7869 0.3181 0 7
2.0756 -8.0423 -2.7869 0.3181 0 7
2.1483 -8.0231 -2.7869 0.3181 0 7
2.2208 -8.0034 -2.7869 0.3181 0 7
2.2930 -7.9830 -2.7869 0.3181 0 7
2.3651 -7.9619 -2.7869 0.3181 0 7
2.4371 -7.9402 -2.7869 0.3181 0 7
2.5088 -7.9178 -2.7869 0.3181 0 7
2.5803 -7.8948 -2.7869 0.3181 0 7
2.6516 -7.8712 -2.7869 0.3181 0 7
2.7226 -7.8469 -2.7869 0.3181 0 7
2.7935 -7.8219 -2.7869 0.3181 0 7
2.8641 -7.7964 -2.7869 0.3181 0 7
2.9345 -7.7701 -2.7869 0.3181 0 7
3.0046 -7.7433 -2.7869 0.3181 0 7
3.0745 -7.7158 -2.7869 0.3181 0 7
3.1442 -7.6877 -2.7869 0.3181 0 7
3.2136 -7.6589 -2.7869 0.3181 0 7
3.2827 -7.6295 -2.7869 0.3181 0 7
3.3516 -7.5995 -2.7869 0.3181 0 7
3.4202 -7.5689 -2.7869 0.3181 0 7
3.4885 -7.5377 -2.7869 0.3181 0 7
3.5565 -7.5058 -2.7869 0.3181 0 7
3.6242 -7.4733 -2.7869 0.3181 0 7
3.6917 -7.4403 -2.7869 0.3181 0 7
3.7588 -7.4066 -2.7869 0.3181 0 7
3.8256 -7.3723 -2.7869 0.3181 0 7
3.8922 -7.3374 -2.7869 0.3181 0 7
3.9584 -7.3019 -2.7869 0.3181 0 7
4.0242 -7.2658 -2.7869 0.3181 0 7
4.0898 -7.2291 -2.7869 0.3181 0 7
4.1550 -7.1918 -2.7869 0.3181 0 7
4.2199 -7.1539 -2.7869 0.3181 0 7
4.2844 -7.1155 -2.7869 0.3181 0 7
4.3486 -7.0764 -2.7869 0.3181 0 7
4.4124 -7.0368 -2.7869 0.3181 0 7
4.4758 -6.9966 -2.7869 0.3181 0 7
4.5389 -6.9559 -2.7869 0.3181 0 7
4.6016 -6.9145 -2.7869 0.3181 0 7
4.6640 -6.8727 -2.7869 0.3181 0 7
4.7259 -6.8302 -2.7869 0.3181 0 7
4.7875 -6.7872 -2.7869 0.3181 0 7
4.8487 -6.7436 -2.7869 0.3181 0 7
4.9095 -6.6995 -2.7869 0.3181 0 7
4.9699 -6.6548 -2.7869 0.3181 0 7
5.0299 -6.6096 -2.7869 0.3181 0 7
5.0894 -6.5638 -2.7869 0.3181 0 7
5.1486 -6.5175 -2.7869 0.3181 0 7
5.2073 -6.4707 -2.7869 0.3181 0 7
5.2656 -6.4233 -2.7869 0.3181 0 7
5.3235 -6.3755 -2.7869 0.3181 0 7
5.3809 -6.3271 -2.7869 0.3181 0 7
5.4379 -6.2781 -2.7869 0.3181 0 7
5.4945 -6.2287 -2.7869 0.3181 0 7
5.5506 -6.1788 -2.7869 0.3181 0 7
5.6062 -6.1283 -2.7869 0.3181 0 7
5.6614 -6.0774 -2.7869 0.3181 0 7
5.7162 -6.0259 -2.7869 0.3181 0 7
5.7704 -5.9740 -2.7869 0.3181 0 7
5.8242 -5.9215 -2.7869 0.3181 0 7
5.8775 -5.8686 -2.7869 0.3181 0 7
5.9304 -5.8152 -2.7869 0.3181 0 7
5.9827 -5.7614 -2.7869 0.3181 0 7
6.0346 -5.7070 -2.7869 0.3181 0 7
6.0859 -5.6522 -2.7869 0.3181 0 7
6.1368 -5.5969 -2.7869 0.3181 0 7
6.1872 -5.5412 -2.7869 0.3181 0 7
6.2370 -5.4850 -2.7869 0.3181 0 7
6.2864 -5.4284 -2.7869 0.3181 0 7
6.3352 -5.3713 -2.7869 0.3181 0 7
6.3835 -5.3138 -2.7869 0.3181 0 7
6.4313 -5.2559 -2.7869 0.3181 0 7
6.4786 -5.1975 -2.7869 0.3181 0 7
6.5253 -5.1387 -2.7869 0.3181 0 7
6.5715 -5.0795 -2.7869 0.3181 0 7
6.6172 -5.0198 -2.7869 0.3181 0 7
6.6623 -4.9598 -2.7869 0.3181 0 7
6.7069 -4.8993 -2.7869 0.3181 0 7
6.7509 -4.8385 -2.7869 0.3181 0 7
6.7944 -4.7772 -2.7869 0.3181 0 7
6.8373 -4.7156 -2.7869 0.3181 0 7
6.8797 -4.6536 -2.7869 0.3181 0 7
6.9215 -4.5912 -2.7869 0.3181 0 7
6.9627 -4.5284 -2.7869 0.3181 0 7
7.0034 -4.4652 -2.7869 0.3181 0 7
7.0435 -4.4017 -2.7869 0.3181 0 7
7.0830 -4.3378 -2.7869 0.3181 0 7
7.1220 -4.2736 -2.7869 0.3181 0 7
7.1603 -4.2090 -2.7869 0.3181 0 7
7.1981 -4.1441 -2.7869 0.3181 0 7
7.2353 -4.0788 -2.7869 0.3181 0 7
7.2719 -4.0132 -2.7869 0.3181 0 7
7.3079 -3.9473 -2.7869 0.3181 0 7
7.3433 -3.8810 -2.7869 0.3181 0 7
7.3781 -3.8145 -2.7869 0.3181 0 7
7.4123 -3.7476 -2.7869 0.3181 0 7
7.4458 -3.6804 -2.7869 0.3181 0 7
7.4788 -3.6129 -2.7869 0.3181 0 7
7.5112 -3.5451 -2.7869 0.3181 0 7
7.5429 -3.4771 -2.7869 0.3181 0 7
7.5741 -3.4087 -2.7869 0.3181 0 6
7.6046 -3.3401 -2.7869 0.3181 0 7
7.6345 -3.2712 -2.7869 0.3181 0 7
7.6638 -3.2020 -2.7869 0.3181 0 6
7.6924 -3.1325 -2.7869 0.3181 0 6
7.7204 -3.0628 -2.7869 0.3181 0 7
7.7478 -2.9929 -2.7869 0.3181 0 7
7.7746 -2.9227 -2.7869 0.3181 0 7
7.8007 -2.8523 -2.7869 0.3181 0 7
7.8261 -2.7816 -2.7869 0.3181 0 7
7.8510 -2.7107 -2.7869 0.3181 0 7
7.8752 -2.6396 -2.7869 0.3181 0 7
7.8987 -2.5683 -2.7869 0.3181 0 7
7.9216 -2.4968 -2.7869 0.3181 0 7
7.9439 -2.4250 -2.7869 0.3181 0 7
7.9655 -2.3531 -2.7869 0.3181 0 7
7.9864 -2.2809 -2.7869 0.3181 0 7
8.0068 -2.2086 -2.7869 0.3181 0 7
8.0264 -2.1361 -2.7869 0.3181 0 7
8.0454 -2.0635 -2.7869 0.3181 0 7
8.0637 -1.9906 -2.7869 0.3181 0 7
8.0814 -1.9176 -2.7869 0.3181 0 7
8.0984 -1.8444 -2.7869 0.3181 0 7
8.1147 -1.7711 -2.7869 0.3181 0 7
8.1304 -1.6977 -2.7869 0.3181 0 7
8.1455 -1.6241 -2.7869 0.3181 0 7
8.1598 -1.5503 -2.7869 0.3181 0 7
8.1735 -1.4764 -2.7869 0.3181 0 6
8.1865 -1.4025 -2.7869 0.3181 0 6
8.1989 -1.3284 -2.7869 0.3181 0 6
8.2105 -1.2542 -2.7869 0.3181 0 6
8.2216 -1.1799 -2.7869 0.3181 0 6
8.2319 -1.1055 -2.7869 0.3181 0 6
8.2415 -1.0310 -2.7869 0.3181 0 6
8.2505 -0.9564 -2.7869 0.3181 0 6
8.2588 -0.8818 -2.7869 0.3181 0 6
8.2665 -0.8071 -2.7869 0.3181 0 6
8.2734 -0.7323 -2.7869 0.3181 0 6
8.2797 -0.6574 -2.7869 0.3181 0 6
8.2853 -0.5825 -2.7869 0.3181 0 6
8.2903 -0.5076 -2.7869 0.3181 0 6
8.2945 -0.4326 -2.7869 0.3181 0 6
8.2981 -0.3575 -2.7869 0.3181 0 6
8.3010 -0.2825 -2.7869 0.3181 0 6
8.3032 -0.2074 -2.7869 0.3181 0 6
8.3047 -0.1323 -2.7869 0.3181 0 6
8.3056 -0.0572 -2.7869 0.3181 0 6
8.3058 0.0179 -2.7869 0.3181 0 6
8.3053 0.0930 -2.7869 0.3181 0 6
8.3041 0.1681 -2.7869 0.3181 0 6
8.3022 0.2432 -2.7869 0.3181 0 6
8.2997 0.3183 -2.7869 0.3181 0 6
8.2965 0.3934 -2.7869 0.3181 0 6
8.2926 0.4684 -2.7869 0.3181 0 7
8.2880 0.5433 -2.7869 0.3181 0 7
8.2827 0.6183 -2.7869 0.3181 0 7
8.2768 0.6932 -2.7869 0.3181 0 7
8.2702 0.7680 -2.7869 0.3181 0 7
8.2629 0.8427 -2.7869 0.3181 0 7
8.2550 0.9174 -2.7869 0.3181 0 7
8.2463 0.9921 -2.7869 0.3181 0 7
8.2370 1.0666 -2.7869 0.3181 0 7
8.2270 1.1410 -2.7869 0.3181 0 7
8.2164 1.2154 -2.7869 0.3181 0 7
8.2051 1.2896 -2.7869 0.3181 0 7
8.1930 1.3638 -2.7869 0.3181 0 7
8.1804 1.4378 -2.7869 0.3181 0 7
8.1671 1.5117 -2.7869 0.3181 0 7
8.1530 1.5855 -2.7869 0.3181 0 7
8.1384 1.6592 -2.7869 0.3181 0 7
8.1230 1.7327 -2.7869 0.3181 0 7
8.1070 1.8061 -2.7869 0.3181 0 7
8.0904 1.8794 -2.7869 0.3181 0 7
8.0730 1.9525 -2.7869 0.3181 0 7
8.0551 2.0254 -2.7869 0.3181 0 7
8.0364 2.0982 -2.7869 0.3181 0 7
8.0171 2.1708 -2.7869 0.3181 0 7
7.9971 2.2432 -2.7869 0.3181 0 7
7.9765 2.3154 -2.7869 0.3181 0 7
7.9553 2.3874 -2.7869 0.3181 0 7
7.9333 2.4593 -2.7869 0.3181 0 7
7.9108 2.5309 -2.7869 0.3181 0 7
7.8876 2.6024 -2.7869 0.3181 0 7
7.8637 2.6736 -2.7869 0.3181 0 7
7.8392 2.7446 -2.7869 0.3181 0 7
7.8141 2.8154 -2.7869 0.3181 0 7
7.7883 2.8859 -2.7869 0.3181 0 7
7.7619 2.9562 -2.7869 0.3181 0 7
7.7348 3.0263 -2.7869 0.3181 0 7
7.7071 3.0961 -2.7869 0.3181 0 7
7.6788 3.1657 -2.7869 0.3181 0 7
7.6499 3.2350 -2.7869 0.3181 0 7
7.6203 3.3041 -2.7869 0.3181 0 7
7.5901 3.3729 -2.7869 0.3181 0 7
7.5593 3.4414 -2.7869 0.3181 0 7
7.5279 3.5096 -2.7869 0.3181 0 7
7.4958 3.5775 -2.7869 0.3181 0 7
7.4632 3.6452 -2.7869 0.3181 0 7
7.4299 3.7125 -2.7869 0.3181 0 6
7.3960 3.7795 -2.7869 0.3181 0 6
7.3615 3.8463 -2.7869 0.3181 0 7
7.3264 3.9127 -2.7869 0.3181 0 7
7.2908 3.9788 -2.7869 0.3181 0 7
7.2545 4.0446 -2.7869 0.3181 0 7
7.2176 4.1100 -2.7869 0.3181 0 7
7.1801 4.1751 -2.7869 0.3181 0 7
7.1421 4.2399 -2.7869 0.3181 0 7
7.1035 4.3043 -2.7869 0.3181 0 7
7.0642 4.3684 -2.7869 0.3181 0 7
