ply
format ascii 1.0
element vertex 1356
property float32 x
property float32 y
property float32 z
property float32 CosAngle
property uint32 ObjIdx
property uint32 ObjTag
end_header
10.1181 22.5461 -3.5725 0.1431 0 22
9.9137 22.6367 -3.5725 0.1431 0 22
9.7085 22.7255 -3.5725 0.1431 0 22
9.5025 22.8124 -3.5725 0.1431 0 22
9.2958 22.8974 -3.5725 0.1431 0 22
9.0882 22.9806 -3.5725 0.1431 0 22
5.2563 13.6509 -2.1146 0.9450 0 19
5.1184 13.6600 -2.1088 0.9476 0 19
4.9812 13.6691 -2.1031 0.9502 0 19
4.8448 13.6781 -2.0977 0.9526 0 19
4.7397 13.7762 -2.1061 0.2597 0 19
7.8281 23.4398 -3.5725 0.1431 0 22
7.6157 23.5096 -3.5725 0.1431 0 22
7.4027 23.5776 -3.5725 0.1431 0 22
7.1891 23.6436 -3.5725 0.1431 0 22
6.9749 23.7077 -3.5725 0.1431 0 22
6.7601 23.7698 -3.5725 0.1431 0 22
6.5448 23.8300 -3.5725 0.1431 0 22
6.3289 23.8882 -3.5725 0.1431 0 22
6.1126 23.9445 -3.5725 0.1431 0 22
4.2454 17.2811 -2.5725 0.1431 0 8
4.0889 17.3188 -2.5725 0.1431 0 8
3.9320 17.3551 -2.5725 0.1431 0 8
3.7749 17.3899 -2.5725 0.1431 0 8
3.6174 17.4234 -2.5725 0.1431 0 8
3.4596 17.4554 -2.5725 0.1431 0 8
2.6127 13.8377 -2.0358 0.4507 0 19
2.4919 13.8856 -2.0394 0.6985 0 19
2.9846 17.5428 -2.5725 0.1431 0 8
2.8258 17.5691 -2.5725 0.1431 0 8
2.6667 17.5940 -2.5725 0.1431 0 8
2.5074 17.6174 -2.5725 0.1431 0 8
2.3480 17.6394 -2.5725 0.1431 0 8
1.0878 8.7783 -1.2787 0.9353 0 5
2.0284 17.6789 -2.5725 0.1431 0 8
1.8684 17.6966 -2.5725 0.1431 0 8
1.7082 17.7127 -2.5725 0.1431 0 8
1.5479 17.7275 -2.5725 0.1431 0 8
1.3875 17.7408 -2.5725 0.1431 0 8
0.9671 13.9938 -2.0278 0.6171 0 19
0.8373 13.9492 -2.0202 0.5394 0 19
0.9055 17.7719 -2.5725 0.1431 0 8
0.7447 17.7794 -2.5725 0.1431 0 8
0.5838 17.7854 -2.5725 0.1431 0 8
0.4229 17.7899 -2.5725 0.1431 0 8
0.2619 17.7930 -2.5725 0.1431 0 8
0.1010 17.7947 -2.5725 0.1431 0 8
-0.0600 17.7948 -2.5725 0.1431 0 8
-0.2210 17.7936 -2.5725 0.1431 0 8
-0.3820 17.7908 -2.5725 0.1431 0 8
-0.5429 17.7866 -2.5725 0.1431 0 8
-0.7038 17.7810 -2.5725 0.1431 0 8
-0.8646 17.7739 -2.5725 0.1431 0 8
-1.0254 17.7654 -2.5725 0.1431 0 8
-1.1861 17.7554 -2.5725 0.1431 0 8
-1.3467 17.7439 -2.5725 0.1431 0 8
-1.5071 17.7310 -2.5725 0.1431 0 8
-1.6675 17.7166 -2.5725 0.1431 0 8
-1.8277 17.7008 -2.5725 0.1431 0 8
-1.9878 17.6836 -2.5725 0.1431 0 8
-2.1476 17.6649 -2.5725 0.1431 0 8
-1.9502 14.9136 -2.1743 0.1896 0 11
-2.0255 14.4699 -2.1122 0.9696 0 11
-2.1604 14.4784 -2.1162 0.9678 0 11
-2.2958 14.4869 -2.1204 0.9659 0 11
-2.4457 14.5782 -2.1369 0.9639 0 11
-2.5830 14.5869 -2.1415 0.9618 0 11
-2.7210 14.5955 -2.1463 0.9597 0 11
-2.0241 10.3373 -1.5228 0.6634 0 9
-2.0965 10.2158 -1.5076 0.6701 0 9
-2.1844 10.1758 -1.5045 0.9975 0 9
-2.2750 10.1495 -1.5036 0.9981 0 9
-2.3655 10.1233 -1.5029 0.9986 0 9
-2.4796 10.1946 -1.5167 0.6181 0 9
-2.6115 10.3291 -1.5402 0.2554 0 9
-3.8496 14.6665 -2.1920 0.9396 0 11
-3.9942 14.6756 -2.1987 0.9368 0 11
-3.9133 13.8814 -2.0849 0.3306 0 20
-3.9384 13.5013 -2.0331 0.3391 0 20
-4.0988 13.5925 -2.0524 0.3475 0 20
-4.1379 13.2864 -2.0117 0.3558 0 20
-4.2407 13.1946 -2.0035 0.9203 0 20
-4.3757 13.2035 -2.0108 0.9169 0 20
-4.5118 13.2125 -2.0183 0.9135 0 20
-4.6488 13.2215 -2.0260 0.9101 0 20
-4.7870 13.2306 -2.0340 0.9065 0 20
-4.9262 13.2398 -2.0422 0.9029 0 20
-5.0666 13.2491 -2.0506 0.8992 0 20
-5.2081 13.2584 -2.0592 0.8954 0 20
-5.3509 13.2678 -2.0681 0.8915 0 20
-5.4948 13.2773 -2.0773 0.8876 0 20
-5.6401 13.2869 -2.0867 0.8836 0 20
-5.7868 13.2965 -2.0963 0.8795 0 20
-5.9348 13.3063 -2.1062 0.8754 0 20
-6.0842 13.3162 -2.1164 0.8712 0 20
-6.2351 13.3261 -2.1269 0.8669 0 20
-6.3875 13.3362 -2.1376 0.8625 0 20
-6.5414 13.3463 -2.1486 0.8581 0 20
-7.0421 14.0449 -2.2713 0.8536 0 20
-7.2075 14.0558 -2.2835 0.8491 0 20
-7.3746 14.0669 -2.2960 0.8444 0 20
-7.5436 14.0780 -2.3089 0.8397 0 20
-8.5462 15.6084 -2.5725 0.1431 0 8
-8.6871 15.5304 -2.5725 0.1431 0 8
-8.8273 15.4512 -2.5725 0.1431 0 8
-8.9667 15.3707 -2.5725 0.1431 0 8
-9.1054 15.2890 -2.5725 0.1431 0 8
-9.2433 15.2060 -2.5725 0.1431 0 8
-9.3805 15.1217 -2.5725 0.1431 0 8
-9.5169 15.0362 -2.5725 0.1431 0 8
-9.6526 14.9495 -2.5725 0.1431 0 8
-9.7874 14.8616 -2.5725 0.1431 0 8
-9.9214 14.7724 -2.5725 0.1431 0 8
-10.0547 14.6821 -2.5725 0.1431 0 8
-10.1871 14.5905 -2.5725 0.1431 0 8
-10.3187 14.4977 -2.5725 0.1431 0 8
-10.4494 14.4038 -2.5725 0.1431 0 8
-10.5793 14.3087 -2.5725 0.1431 0 8
-10.7083 14.2124 -2.5725 0.1431 0 8
-10.8365 14.1149 -2.5725 0.1431 0 8
-10.9637 14.0163 -2.5725 0.1431 0 8
-11.0901 13.9165 -2.5725 0.1431 0 8
-8.0653 9.9350 -1.8499 0.4123 0 19
-8.0880 9.7808 -1.8347 0.9526 0 19
-8.1817 9.7139 -1.8360 0.8532 0 19
-8.3401 9.7220 -1.8517 0.5174 0 19
-11.7080 13.4008 -2.5725 0.1431 0 8
-11.8288 13.2943 -2.5725 0.1431 0 8
-11.9486 13.1868 -2.5725 0.1431 0 8
-12.0674 13.0782 -2.5725 0.1431 0 8
-12.1852 12.9685 -2.5725 0.1431 0 8
-12.3020 12.8577 -2.5725 0.1431 0 8
-12.4178 12.7459 -2.5725 0.1431 0 8
-12.5327 12.6330 -2.5725 0.1431 0 8
-12.6464 12.5191 -2.5725 0.1431 0 8
-12.7592 12.4042 -2.5725 0.1431 0 8
-12.8709 12.2882 -2.5725 0.1431 0 8
-12.9815 12.1713 -2.5725 0.1431 0 8
-13.0911 12.0534 -2.5725 0.1431 0 8
-13.1996 11.9344 -2.5725 0.1431 0 8
-13.3070 11.8145 -2.5725 0.1431 0 8
-13.4133 11.6937 -2.5725 0.1431 0 8
-13.5186 11.5718 -2.5725 0.1431 0 8
-13.6227 11.4491 -2.5725 0.1431 0 8
-13.7257 11.3253 -2.5725 0.1431 0 8
-13.8276 11.2007 -2.5725 0.1431 0 8
-13.9284 11.0752 -2.5725 0.1431 0 8
-14.0280 10.9487 -2.5725 0.1431 0 8
-14.1265 10.8213 -2.5725 0.1431 0 8
-14.2238 10.6931 -2.5725 0.1431 0 8
-14.3200 10.5640 -2.5725 0.1431 0 8
-14.4150 10.4340 -2.5725 0.1431 0 8
-14.5088 10.3032 -2.5725 0.1431 0 8
-14.6014 10.1715 -2.5725 0.1431 0 8
-14.6928 10.0390 -2.5725 0.1431 0 8
-14.7830 9.9056 -2.5725 0.1431 0 8
-14.8720 9.7715 -2.5725 0.1431 0 8
-14.9598 9.6365 -2.5725 0.1431 0 8
-15.0464 9.5008 -2.5725 0.1431 0 8
-15.1317 9.3643 -2.5725 0.1431 0 8
-15.2158 9.2270 -2.5725 0.1431 0 8
-15.5441 9.2348 -2.6137 0.4645 0 8
-15.8966 9.2507 -2.6588 0.4567 0 8
-16.2614 9.2670 -2.7057 0.4487 0 8
-16.4257 9.1648 -2.7191 0.1502 0 8
-16.5231 9.0241 -2.7216 0.1501 0 8
-16.6193 8.8824 -2.7241 0.1499 0 8
-16.7035 8.7340 -2.7249 0.1431 0 7
-16.7818 8.5826 -2.7249 0.1431 0 7
-16.8588 8.4304 -2.7249 0.1431 0 7
-16.9344 8.2775 -2.7249 0.1431 0 7
-17.0086 8.1240 -2.7249 0.1431 0 7
-17.0814 7.9698 -2.7249 0.1431 0 7
-17.1528 7.8149 -2.7249 0.1431 0 7
-17.2228 7.6594 -2.7249 0.1431 0 7
-17.2913 7.5033 -2.7249 0.1431 0 7
-17.3585 7.3466 -2.7249 0.1431 0 7
-17.4243 7.1893 -2.7249 0.1431 0 7
-17.4886 7.0313 -2.7249 0.1431 0 7
-17.5515 6.8728 -2.7249 0.1431 0 6
-17.6130 6.7137 -2.7249 0.1431 0 7
-17.6730 6.5541 -2.7249 0.1431 0 7
-17.7315 6.3940 -2.7249 0.1431 0 7
-17.7887 6.2333 -2.7249 0.1431 0 7
-17.8443 6.0721 -2.7249 0.1431 0 7
-17.8985 5.9104 -2.7249 0.1431 0 7
-17.9513 5.7483 -2.7249 0.1431 0 7
-18.0025 5.5856 -2.7249 0.1431 0 7
-18.0523 5.4225 -2.7249 0.1431 0 7
-18.1007 5.2590 -2.7249 0.1431 0 7
-18.1475 5.0950 -2.7249 0.1431 0 7
-18.1928 4.9306 -2.7249 0.1431 0 7
-18.2367 4.7659 -2.7249 0.1431 0 7
-18.2791 4.6007 -2.7249 0.1431 0 7
-18.3199 4.4351 -2.7249 0.1431 0 7
-18.3593 4.2692 -2.7249 0.1431 0 7
-18.3972 4.1029 -2.7249 0.1431 0 7
-18.4335 3.9363 -2.7249 0.1431 0 7
-18.4684 3.7694 -2.7249 0.1431 0 7
-18.5017 3.6022 -2.7249 0.1431 0 7
-18.5336 3.4346 -2.7249 0.1431 0 7
-18.5639 3.2668 -2.7249 0.1431 0 7
-18.5927 3.0987 -2.7249 0.1431 0 7
-18.6200 2.9304 -2.7249 0.1431 0 7
-18.6457 2.7618 -2.7249 0.1431 0 7
-18.6699 2.5930 -2.7249 0.1431 0 7
-18.6926 2.4240 -2.7249 0.1431 0 7
-18.7138 2.2548 -2.7249 0.1431 0 7
-18.7334 2.0854 -2.7249 0.1431 0 7
-18.7515 1.9159 -2.7249 0.1431 0 7
-18.7681 1.7461 -2.7249 0.1431 0 7
-18.7831 1.5763 -2.7249 0.1431 0 7
-18.7966 1.4063 -2.7249 0.1431 0 7
-18.8086 1.2362 -2.7249 0.1431 0 7
-18.8190 1.0660 -2.7249 0.1431 0 7
-18.8279 0.8957 -2.7249 0.1431 0 7
-18.8352 0.7253 -2.7249 0.1431 0 7
-18.8410 0.5549 -2.7249 0.1431 0 7
-18.8452 0.3844 -2.7249 0.1431 0 7
-18.8479 0.2139 -2.7249 0.1431 0 7
-18.8491 0.0434 -2.7249 0.1431 0 6
-18.8487 -0.1271 -2.7249 0.1431 0 6
-18.8468 -0.2977 -2.7249 0.1431 0 7
-18.8433 -0.4681 -2.7249 0.1431 0 7
-18.8383 -0.6386 -2.7249 0.1431 0 7
-18.8318 -0.8090 -2.7249 0.1431 0 7
-18.8237 -0.9793 -2.7249 0.1431 0 7
-18.8141 -1.1496 -2.7249 0.1431 0 7
-18.8029 -1.3198 -2.7249 0.1431 0 7
-18.7902 -1.4898 -2.7249 0.1431 0 7
-18.7759 -1.6597 -2.7249 0.1431 0 7
-18.7602 -1.8295 -2.7249 0.1431 0 7
-18.7428 -1.9992 -2.7249 0.1431 0 7
-18.7240 -2.1687 -2.7249 0.1431 0 7
-18.7036 -2.3379 -2.7249 0.1431 0 7
-18.6817 -2.5071 -2.7249 0.1431 0 7
-18.6582 -2.6760 -2.7249 0.1431 0 7
-18.6332 -2.8447 -2.7249 0.1431 0 7
-18.6068 -3.0131 -2.7249 0.1431 0 7
-18.5787 -3.1813 -2.7249 0.1431 0 7
-18.5492 -3.3493 -2.7249 0.1431 0 7
-18.5181 -3.5170 -2.7249 0.1431 0 7
-18.4855 -3.6844 -2.7249 0.1431 0 7
-18.4515 -3.8514 -2.7249 0.1431 0 7
-18.4159 -4.0182 -2.7249 0.1431 0 7
-18.3788 -4.1846 -2.7249 0.1431 0 7
-18.3402 -4.3507 -2.7249 0.1431 0 7
-18.3001 -4.5165 -2.7249 0.1431 0 7
-18.2584 -4.6818 -2.7249 0.1431 0 7
-18.2153 -4.8468 -2.7249 0.1431 0 7
-18.1707 -5.0114 -2.7249 0.1431 0 7
-18.1247 -5.1756 -2.7249 0.1431 0 7
-18.0771 -5.3394 -2.7249 0.1431 0 7
-18.0281 -5.5027 -2.7249 0.1431 0 7
-17.9775 -5.6656 -2.7249 0.1431 0 7
-17.9255 -5.8280 -2.7249 0.1431 0 7
-17.8721 -5.9899 -2.7249 0.1431 0 7
-17.8172 -6.1513 -2.7249 0.1431 0 7
-17.7608 -6.3123 -2.7249 0.1431 0 7
-17.7030 -6.4727 -2.7249 0.1431 0 7
-17.6437 -6.6326 -2.7249 0.1431 0 7
-17.5830 -6.7919 -2.7249 0.1431 0 7
-17.5208 -6.9507 -2.7249 0.1431 0 7
-17.4571 -7.1090 -2.7249 0.1431 0 6
-17.3922 -7.2666 -2.7249 0.1431 0 7
-17.3257 -7.4236 -2.7249 0.1431 0 7
-17.2578 -7.5801 -2.7249 0.1431 0 7
-17.1885 -7.7359 -2.7249 0.1431 0 7
-17.1179 -7.8911 -2.7249 0.1431 0 7
-17.0458 -8.0456 -2.7249 0.1431 0 7
-16.9723 -8.1995 -2.7249 0.1431 0 7
-16.8974 -8.3527 -2.7249 0.1431 0 7
-16.8212 -8.5052 -2.7249 0.1431 0 7
-16.7435 -8.6571 -2.7249 0.1431 0 7
-16.6645 -8.8082 -2.7249 0.1431 0 7
-16.5842 -8.9586 -2.7249 0.1431 0 7
-16.5024 -9.1083 -2.7249 0.1431 0 7
-16.4155 -9.2550 -2.7242 0.1523 0 8
-16.3176 -9.3954 -2.7220 0.1524 0 8
-16.2186 -9.5348 -2.7197 0.1525 0 8
-16.1185 -9.6732 -2.7175 0.1527 0 8
-15.8565 -9.7122 -2.6881 0.5901 0 8
-15.5792 -9.7372 -2.6559 0.5972 0 8
-15.3084 -9.7616 -2.6247 0.6043 0 8
-15.0438 -9.7855 -2.5944 0.6114 0 8
-14.8285 -9.8375 -2.5725 0.1431 0 8
-14.7389 -9.9712 -2.5725 0.1431 0 8
-14.6481 -10.1041 -2.5725 0.1431 0 8
-14.5561 -10.2362 -2.5725 0.1431 0 8
-14.4629 -10.3675 -2.5725 0.1431 0 8
-14.3685 -10.4979 -2.5725 0.1431 0 8
-14.2729 -10.6275 -2.5725 0.1431 0 8
-14.1762 -10.7562 -2.5725 0.1431 0 8
-14.0783 -10.8840 -2.5725 0.1431 0 8
-13.9793 -11.0109 -2.5725 0.1431 0 8
-13.8791 -11.1369 -2.5725 0.1431 0 8
-13.7777 -11.2620 -2.5725 0.1431 0 8
-13.6753 -11.3862 -2.5725 0.1431 0 8
-13.5717 -11.5095 -2.5725 0.1431 0 8
-13.4670 -11.6318 -2.5725 0.1431 0 8
-13.3613 -11.7531 -2.5725 0.1431 0 8
-13.2544 -11.8735 -2.5725 0.1431 0 8
-13.1464 -11.9930 -2.5725 0.1431 0 8
-13.0374 -12.1114 -2.5725 0.1431 0 8
-12.9273 -12.2289 -2.5725 0.1431 0 8
-12.8161 -12.3453 -2.5725 0.1431 0 8
-12.7039 -12.4608 -2.5725 0.1431 0 8
-12.5907 -12.5752 -2.5725 0.1431 0 8
-12.4764 -12.6886 -2.5725 0.1431 0 8
-12.3611 -12.8009 -2.5725 0.1431 0 8
-12.2448 -12.9122 -2.5725 0.1431 0 8
-12.0399 -12.9285 -2.5539 0.7688 0 1
-11.8362 -12.9425 -2.5354 0.7744 0 1
-11.6353 -12.9563 -2.5174 0.7799 0 1
-11.4372 -12.9699 -2.4998 0.7854 0 1
-11.2419 -12.9833 -2.4827 0.7908 0 1
-11.0492 -12.9965 -2.4660 0.7962 0 1
-10.8591 -13.0096 -2.4498 0.8014 0 1
-8.9290 -10.8961 -2.0365 0.8105 0 5
-8.7741 -10.9069 -2.0236 0.8156 0 5
-8.6793 -10.9912 -2.0246 0.5665 0 5
-10.1226 -13.0601 -2.3887 0.8219 0 1
-9.9441 -13.0724 -2.3744 0.8269 0 1
-9.7677 -13.0845 -2.3604 0.8318 0 1
-9.5933 -13.0964 -2.3468 0.8366 0 1
-9.4210 -13.1083 -2.3336 0.8413 0 1
-9.2505 -13.1200 -2.3207 0.8460 0 1
-9.0820 -13.1315 -2.3081 0.8506 0 1
-8.9152 -13.1430 -2.2958 0.8552 0 1
-8.7501 -13.1543 -2.2839 0.8596 0 1
-8.5868 -13.1655 -2.2723 0.8641 0 1
-8.4251 -13.1766 -2.2609 0.8684 0 1
-8.2650 -13.1876 -2.2499 0.8726 0 1
-8.1065 -13.1985 -2.2391 0.8768 0 1
-7.9494 -13.2093 -2.2287 0.8809 0 1
-7.7938 -13.2199 -2.2185 0.8850 0 1
-7.6396 -13.2305 -2.2086 0.8890 0 1
-7.4867 -13.2410 -2.1989 0.8929 0 1
-7.3352 -13.2514 -2.1896 0.8967 0 1
-7.1849 -13.2617 -2.1804 0.9004 0 1
-7.0359 -13.2719 -2.1716 0.9041 0 1
-6.8881 -13.2821 -2.1629 0.9077 0 1
-6.7414 -13.2921 -2.1545 0.9113 0 1
-6.5959 -13.3021 -2.1464 0.9147 0 1
-6.4514 -13.3121 -2.1385 0.9181 0 1
-6.3080 -13.3219 -2.1308 0.9214 0 1
-6.1656 -13.3317 -2.1234 0.9246 0 1
-6.0242 -13.3414 -2.1162 0.9278 0 1
-5.8837 -13.3510 -2.1092 0.9309 0 1
-5.7442 -13.3606 -2.1024 0.9339 0 1
-5.6055 -13.3701 -2.0958 0.9368 0 1
-5.4677 -13.3796 -2.0894 0.9396 0 1
-5.3307 -13.3890 -2.0833 0.9424 0 1
-5.1945 -13.3983 -2.0774 0.9451 0 1
-5.0590 -13.4076 -2.0716 0.9477 0 1
-4.9243 -13.4169 -2.0661 0.9503 0 1
-4.7903 -13.4261 -2.0607 0.9527 0 1
-4.6570 -13.4352 -2.0556 0.9551 0 1
-4.5243 -13.4443 -2.0506 0.9574 0 1
-4.3923 -13.4534 -2.0459 0.9597 0 1
-4.2609 -13.4624 -2.0413 0.9618 0 1
-4.1299 -13.4710 -2.0369 0.3744 0 9
-4.0102 -13.5159 -2.0381 0.1431 0 1
-3.8737 -13.5025 -2.0307 0.5604 0 9
-3.7650 -13.5862 -2.0381 0.1431 0 1
-3.6420 -13.6197 -2.0381 0.1431 0 1
-3.5186 -13.6521 -2.0381 0.1431 0 1
-3.3949 -13.6834 -2.0381 0.1431 0 1
-3.2710 -13.7135 -2.0381 0.1431 0 1
-3.1468 -13.7426 -2.0381 0.1431 0 1
-3.0094 -13.7115 -2.0293 0.5145 0 9
-2.8977 -13.7973 -2.0381 0.1431 0 1
-2.7259 -13.5891 -2.0036 0.1407 0 9
-2.6187 -13.6964 -2.0158 0.2227 0 9
-2.4817 -13.6479 -2.0053 0.2682 0 9
-2.3567 -13.6619 -2.0042 0.3314 0 9
-2.2507 -13.7908 -2.0200 0.6312 0 9
-2.1308 -13.8429 -2.0247 0.8370 0 9
-2.0049 -13.8575 -2.0241 0.5649 0 9
-1.8823 -13.8961 -2.0272 0.6725 0 9
-1.7569 -13.9156 -2.0276 0.6886 0 9
-1.6455 -14.0559 -2.0458 0.6993 0 9
-1.5221 -14.1050 -2.0509 0.3050 0 9
-1.3807 -13.9795 -2.0307 0.1834 0 9
-1.2348 -13.7755 -1.9994 0.2821 0 9
-1.1381 -14.1333 -2.0498 0.8879 0 9
-0.9853 -13.7948 -1.9993 0.1379 0 9
-0.8701 -13.9579 -2.0217 0.4962 0 9
-0.7529 -14.1349 -2.0463 0.2007 0 9
-0.6200 -14.0287 -2.0300 0.3292 0 9
-0.4903 -13.9551 -2.0186 0.4144 0 9
-0.3610 -13.8429 -2.0018 0.3278 0 9
-0.2400 -14.0962 -2.0381 0.1431 0 1
-0.1123 -14.0820 -2.0358 0.9648 0 9
0.0151 -14.0703 -2.0340 0.9655 0 9
0.1409 -13.9237 -2.0130 0.8072 0 9
0.2673 -13.9464 -2.0165 0.4769 0 9
0.3931 -13.9298 -2.0145 0.4051 0 9
0.5154 -13.8273 -2.0003 0.4079 0 9
0.6471 -13.9637 -2.0208 0.6452 0 9
0.7733 -13.9566 -2.0207 0.4040 0 9
0.9073 -14.0690 -2.0381 0.1431 0 1
1.0346 -14.0602 -2.0381 0.1431 0 1
1.1617 -14.0503 -2.0381 0.1431 0 1
1.2888 -14.0392 -2.0381 0.1431 0 1
1.4157 -14.0270 -2.0381 0.1431 0 1
1.5400 -13.9906 -2.0347 0.3399 0 9
1.6693 -13.9991 -2.0381 0.1431 0 1
1.7959 -13.9834 -2.0381 0.1431 0 1
1.9223 -13.9666 -2.0381 0.1431 0 1
2.0486 -13.9486 -2.0381 0.1431 0 1
2.1747 -13.9295 -2.0381 0.1431 0 1
2.3012 -13.9128 -2.0386 0.9631 0 1
2.4323 -13.9218 -2.0430 0.9610 0 1
2.5639 -13.9308 -2.0477 0.9588 0 1
2.6962 -13.9399 -2.0525 0.9566 0 1
2.8291 -13.9490 -2.0576 0.9542 0 1
2.9627 -13.9582 -2.0628 0.9518 0 1
3.0970 -13.9674 -2.0682 0.9493 0 1
3.2320 -13.9766 -2.0738 0.9467 0 1
3.3677 -13.9860 -2.0796 0.9441 0 1
3.5042 -13.9953 -2.0856 0.9414 0 1
3.6415 -14.0048 -2.0919 0.9386 0 1
3.7796 -14.0142 -2.0983 0.9357 0 1
3.9187 -14.0238 -2.1050 0.9327 0 1
4.0586 -14.0334 -2.1118 0.9297 0 1
4.1994 -14.0430 -2.1189 0.9266 0 1
4.3412 -14.0528 -2.1262 0.9234 0 1
4.4840 -14.0626 -2.1338 0.9201 0 1
4.6278 -14.0725 -2.1415 0.9168 0 1
4.7727 -14.0824 -2.1495 0.9134 0 1
4.9186 -14.0924 -2.1578 0.9099 0 1
5.0658 -14.1025 -2.1662 0.9063 0 1
5.2140 -14.1127 -2.1749 0.9027 0 1
5.3635 -14.1229 -2.1839 0.8990 0 1
5.5142 -14.1333 -2.1931 0.8952 0 1
5.6663 -14.1437 -2.2026 0.8914 0 1
5.8196 -14.1542 -2.2124 0.8874 0 1
5.9744 -14.1649 -2.2224 0.8834 0 1
6.1305 -14.1756 -2.2327 0.8794 0 1
6.2882 -14.1864 -2.2433 0.8752 0 1
6.4473 -14.1973 -2.2541 0.8710 0 1
6.6080 -14.2083 -2.2653 0.8667 0 1
6.7704 -14.2195 -2.2767 0.8624 0 1
6.9343 -14.2307 -2.2885 0.8579 0 1
7.1000 -14.2421 -2.3005 0.8534 0 1
7.2675 -14.2536 -2.3129 0.8489 0 1
7.4368 -14.2652 -2.3256 0.8442 0 1
7.6080 -14.2770 -2.3387 0.8395 0 1
7.7811 -14.2889 -2.3520 0.8347 0 1
7.9562 -14.3009 -2.3658 0.8299 0 1
8.1334 -14.3130 -2.3799 0.8250 0 1
8.3127 -14.3253 -2.3943 0.8200 0 1
8.4943 -14.3378 -2.4091 0.8150 0 1
8.6781 -14.3504 -2.4244 0.8098 0 1
8.8643 -14.3632 -2.4400 0.8047 0 1
9.0528 -14.3761 -2.4560 0.7994 0 1
9.2440 -14.3893 -2.4724 0.7941 0 1
9.4377 -14.4025 -2.4892 0.7887 0 1
9.6340 -14.4160 -2.5065 0.7833 0 1
9.8332 -14.4297 -2.5243 0.7778 0 1
10.0351 -14.4436 -2.5425 0.7722 0 1
10.2401 -14.4576 -2.5612 0.7666 0 1
10.4163 -14.4278 -2.5725 0.1431 0 8
10.5463 -14.3330 -2.5725 0.1431 0 8
10.6756 -14.2370 -2.5725 0.1431 0 8
10.8039 -14.1398 -2.5725 0.1431 0 8
10.9314 -14.0415 -2.5725 0.1431 0 8
11.0580 -13.9420 -2.5725 0.1431 0 8
11.1837 -13.8414 -2.5725 0.1431 0 8
11.3084 -13.7397 -2.5725 0.1431 0 8
11.4323 -13.6368 -2.5725 0.1431 0 8
11.5552 -13.5328 -2.5725 0.1431 0 8
11.6772 -13.4277 -2.5725 0.1431 0 8
10.9916 -12.4108 -2.3966 0.7089 0 5
11.0062 -12.2031 -2.3756 0.7152 0 5
11.2134 -12.2089 -2.3964 0.6888 0 5
12.1553 -12.9965 -2.5725 0.1431 0 8
12.2724 -12.8860 -2.5725 0.1431 0 8
12.3885 -12.7744 -2.5725 0.1431 0 8
12.5035 -12.6618 -2.5725 0.1431 0 8
12.6176 -12.5482 -2.5725 0.1431 0 8
12.7306 -12.4335 -2.5725 0.1431 0 8
12.8425 -12.3178 -2.5725 0.1431 0 8
12.9534 -12.2011 -2.5725 0.1431 0 8
13.0633 -12.0834 -2.5725 0.1431 0 8
13.1721 -11.9648 -2.5725 0.1431 0 8
13.2798 -11.8451 -2.5725 0.1431 0 8
13.4127 -11.7475 -2.5775 0.5251 0 8
13.6720 -11.7578 -2.6068 0.6085 0 8
13.9400 -11.7705 -2.6375 0.6014 0 8
14.2142 -11.7835 -2.6691 0.5943 0 8
14.4952 -11.7968 -2.7017 0.5871 0 8
14.6917 -11.7374 -2.7184 0.1526 0 8
14.8095 -11.6135 -2.7207 0.1525 0 8
14.9263 -11.4886 -2.7229 0.1523 0 8
15.0404 -11.3612 -2.7249 0.1431 0 7
15.1425 -11.2247 -2.7249 0.1431 0 7
15.2435 -11.0872 -2.7249 0.1431 0 7
15.3432 -10.9489 -2.7249 0.1431 0 7
15.4416 -10.8096 -2.7249 0.1431 0 7
15.5387 -10.6695 -2.7249 0.1431 0 7
15.6346 -10.5285 -2.7249 0.1431 0 7
15.7292 -10.3866 -2.7249 0.1431 0 7
15.8225 -10.2439 -2.7249 0.1431 0 7
15.9146 -10.1003 -2.7249 0.1431 0 7
16.0053 -9.9559 -2.7249 0.1431 0 7
16.0947 -9.8107 -2.7249 0.1431 0 7
16.1828 -9.6647 -2.7249 0.1431 0 7
16.2696 -9.5179 -2.7249 0.1431 0 6
16.3551 -9.3703 -2.7249 0.1431 0 7
16.4392 -9.2220 -2.7249 0.1431 0 7
16.5219 -9.0729 -2.7249 0.1431 0 7
16.6033 -8.9230 -2.7249 0.1431 0 7
16.6833 -8.7725 -2.7249 0.1431 0 7
16.7620 -8.6212 -2.7249 0.1431 0 7
16.8393 -8.4692 -2.7249 0.1431 0 7
16.9153 -8.3165 -2.7249 0.1431 0 7
16.9898 -8.1631 -2.7249 0.1431 0 7
17.0630 -8.0091 -2.7249 0.1431 0 7
17.1347 -7.8544 -2.7249 0.1431 0 7
17.2051 -7.6991 -2.7249 0.1431 0 7
17.2740 -7.5431 -2.7249 0.1431 0 7
17.3416 -7.3865 -2.7249 0.1431 0 7
17.4077 -7.2293 -2.7249 0.1431 0 7
17.4724 -7.0715 -2.7249 0.1431 0 7
17.5356 -6.9132 -2.7249 0.1431 0 7
17.5975 -6.7543 -2.7249 0.1431 0 7
17.6578 -6.5948 -2.7249 0.1431 0 7
17.7168 -6.4348 -2.7249 0.1431 0 7
17.7743 -6.2742 -2.7249 0.1431 0 7
17.8303 -6.1132 -2.7249 0.1431 0 7
17.8849 -5.9516 -2.7249 0.1431 0 7
17.9380 -5.7896 -2.7249 0.1431 0 7
17.9896 -5.6271 -2.7249 0.1431 0 7
18.0398 -5.4641 -2.7249 0.1431 0 7
18.0885 -5.3006 -2.7249 0.1431 0 7
18.1357 -5.1368 -2.7249 0.1431 0 7
18.1814 -4.9725 -2.7249 0.1431 0 7
18.2257 -4.8078 -2.7249 0.1431 0 7
18.2684 -4.6427 -2.7249 0.1431 0 7
18.3097 -4.4773 -2.7249 0.1431 0 7
18.3494 -4.3114 -2.7249 0.1431 0 7
18.3877 -4.1453 -2.7249 0.1431 0 7
18.4244 -3.9787 -2.7249 0.1431 0 7
18.4597 -3.8119 -2.7249 0.1431 0 7
18.4934 -3.6447 -2.7249 0.1431 0 7
18.5256 -3.4773 -2.7249 0.1431 0 7
18.5563 -3.3095 -2.7249 0.1431 0 7
18.5855 -3.1415 -2.7249 0.1431 0 7
18.6132 -2.9733 -2.7249 0.1431 0 7
18.6393 -2.8047 -2.7249 0.1431 0 7
18.6639 -2.6360 -2.7249 0.1431 0 7
18.6870 -2.4670 -2.7249 0.1431 0 6
18.7085 -2.2979 -2.7249 0.1431 0 7
18.7286 -2.1285 -2.7249 0.1431 0 7
18.7471 -1.9590 -2.7249 0.1431 0 7
18.7640 -1.7893 -2.7249 0.1431 0 7
18.7794 -1.6195 -2.7249 0.1431 0 7
18.7933 -1.4495 -2.7249 0.1431 0 7
18.8057 -1.2795 -2.7249 0.1431 0 7
18.8165 -1.1093 -2.7249 0.1431 0 7
18.8257 -0.9390 -2.7249 0.1431 0 7
18.8335 -0.7687 -2.7249 0.1431 0 7
18.8396 -0.5982 -2.7249 0.1431 0 7
18.8443 -0.4278 -2.7249 0.1431 0 7
18.8474 -0.2573 -2.7249 0.1431 0 7
18.8489 -0.0868 -2.7249 0.1431 0 7
18.8490 0.0838 -2.7249 0.1431 0 7
18.8474 0.2543 -2.7249 0.1431 0 7
18.8443 0.4248 -2.7249 0.1431 0 7
18.8398 0.5952 -2.7249 0.1431 0 7
18.8336 0.7657 -2.7249 0.1431 0 7
18.8259 0.9360 -2.7249 0.1431 0 6
18.8167 1.1063 -2.7249 0.1431 0 7
18.8059 1.2765 -2.7249 0.1431 0 7
18.7936 1.4466 -2.7249 0.1431 0 7
18.7797 1.6165 -2.7249 0.1431 0 7
18.7643 1.7864 -2.7249 0.1431 0 7
18.7474 1.9560 -2.7249 0.1431 0 7
18.7289 2.1256 -2.7249 0.1431 0 7
18.7089 2.2949 -2.7249 0.1431 0 7
18.6874 2.4641 -2.7249 0.1431 0 7
18.6644 2.6331 -2.7249 0.1431 0 7
18.6398 2.8018 -2.7249 0.1431 0 7
18.6136 2.9703 -2.7249 0.1431 0 7
18.5860 3.1386 -2.7249 0.1431 0 7
18.5568 3.3066 -2.7249 0.1431 0 7
18.5262 3.4743 -2.7249 0.1431 0 7
18.4940 3.6418 -2.7249 0.1431 0 7
18.4603 3.8090 -2.7249 0.1431 0 7
18.4251 3.9758 -2.7249 0.1431 0 7
18.3883 4.1423 -2.7249 0.1431 0 7
18.3501 4.3085 -2.7249 0.1431 0 7
18.3104 4.4744 -2.7249 0.1431 0 7
18.2691 4.6398 -2.7249 0.1431 0 7
18.2265 4.8049 -2.7249 0.1431 0 7
18.1822 4.9696 -2.7249 0.1431 0 7
18.1365 5.1339 -2.7249 0.1431 0 7
18.0893 5.2978 -2.7249 0.1431 0 7
18.0407 5.4612 -2.7249 0.1431 0 7
17.9905 5.6242 -2.7249 0.1431 0 7
17.9389 5.7867 -2.7249 0.1431 0 6
17.8858 5.9488 -2.7249 0.1431 0 7
17.8313 6.1103 -2.7249 0.1431 0 7
17.7753 6.2714 -2.7249 0.1431 0 7
17.7178 6.4320 -2.7249 0.1431 0 7
17.6589 6.5920 -2.7249 0.1431 0 7
17.5985 6.7515 -2.7249 0.1431 0 7
17.5367 6.9104 -2.7249 0.1431 0 7
17.4735 7.0688 -2.7249 0.1431 0 7
17.4088 7.2266 -2.7249 0.1431 0 7
17.3427 7.3838 -2.7249 0.1431 0 7
17.2752 7.5403 -2.7249 0.1431 0 7
17.2063 7.6963 -2.7249 0.1431 0 7
17.1360 7.8517 -2.7249 0.1431 0 7
17.0642 8.0064 -2.7249 0.1431 0 7
16.9911 8.1604 -2.7249 0.1431 0 7
16.9166 8.3138 -2.7249 0.1431 0 7
16.8407 8.4665 -2.7249 0.1431 0 7
16.7605 8.6171 -2.7244 0.1407 0 8
16.6641 8.7590 -2.7215 0.1408 0 8
16.5665 8.8999 -2.7186 0.1410 0 8
15.5992 8.5630 -2.5725 0.1431 0 8
15.5211 8.7038 -2.5725 0.1431 0 8
15.4417 8.8438 -2.5725 0.1431 0 8
15.3611 8.9831 -2.5725 0.1431 0 8
15.2792 9.1218 -2.5725 0.1431 0 8
15.1960 9.2596 -2.5725 0.1431 0 8
15.1117 9.3967 -2.5725 0.1431 0 8
15.0260 9.5330 -2.5725 0.1431 0 8
14.9391 9.6686 -2.5725 0.1431 0 8
14.8511 9.8033 -2.5725 0.1431 0 8
14.7618 9.9373 -2.5725 0.1431 0 8
14.6713 10.0704 -2.5725 0.1431 0 8
14.5796 10.2027 -2.5725 0.1431 0 8
14.4867 10.3342 -2.5725 0.1431 0 8
14.3926 10.4649 -2.5725 0.1431 0 8
14.2973 10.5946 -2.5725 0.1431 0 8
14.2009 10.7236 -2.5725 0.1431 0 8
14.1033 10.8516 -2.5725 0.1431 0 8
14.0045 10.9787 -2.5725 0.1431 0 8
13.9046 11.1050 -2.5725 0.1431 0 8
13.8036 11.2303 -2.5725 0.1431 0 8
13.7014 11.3547 -2.5725 0.1431 0 8
13.5982 11.4782 -2.5725 0.1431 0 8
13.4938 11.6007 -2.5725 0.1431 0 8
13.3883 11.7224 -2.5725 0.1431 0 8
13.2817 11.8430 -2.5725 0.1431 0 8
13.1740 11.9627 -2.5725 0.1431 0 8
13.0652 12.0814 -2.5725 0.1431 0 8
12.9554 12.1991 -2.5725 0.1431 0 8
12.8445 12.3158 -2.5725 0.1431 0 8
12.7325 12.4315 -2.5725 0.1431 0 8
12.6196 12.5462 -2.5725 0.1431 0 8
12.5055 12.6598 -2.5725 0.1431 0 8
12.3905 12.7724 -2.5725 0.1431 0 8
12.2744 12.8840 -2.5725 0.1431 0 8
12.1574 12.9945 -2.5725 0.1431 0 8
12.0393 13.1040 -2.5725 0.1431 0 8
8.3795 9.2878 -1.8084 0.4847 0 9
8.1906 9.2452 -1.7856 0.9145 0 9
8.0811 9.2896 -1.7799 0.9408 0 9
7.9877 9.3518 -1.7779 0.9632 0 9
7.9206 9.4449 -1.7819 0.8842 0 9
7.9136 9.6119 -1.7999 0.3491 0 9
13.9196 20.4193 -3.5725 0.1431 0 22
13.7343 20.5444 -3.5725 0.1431 0 22
13.5478 20.6678 -3.5725 0.1431 0 22
13.3603 20.7895 -3.5725 0.1431 0 22
13.1716 20.9095 -3.5725 0.1431 0 22
12.9820 21.0279 -3.5725 0.1431 0 22
8.0526 13.3114 -2.2490 0.9952 0 19
7.9554 13.4233 -2.2557 0.7644 0 19
12.4065 21.3724 -3.5725 0.1431 0 22
12.2127 21.4838 -3.5725 0.1431 0 22
12.0178 21.5934 -3.5725 0.1431 0 22
7.2897 13.3815 -2.2029 0.6816 0 19
7.1422 13.3978 -2.1948 0.9742 0 19
11.4274 21.9115 -3.5725 0.1431 0 22
11.2287 22.0140 -3.5725 0.1431 0 22
11.0291 22.1147 -3.5725 0.1431 0 22
10.8286 22.2136 -3.5725 0.1431 0 22
10.6272 22.3107 -3.5725 0.1431 0 22
10.4249 22.4059 -3.5725 0.1431 0 22
10.2218 22.4993 -3.5725 0.1431 0 22
10.0178 22.5908 -3.5725 0.1431 0 22
9.8130 22.6805 -3.5725 0.1431 0 22
9.6074 22.7684 -3.5725 0.1431 0 22
9.4011 22.8544 -3.5725 0.1431 0 22
9.1939 22.9385 -3.5725 0.1431 0 22
8.9860 23.0207 -3.5725 0.1431 0 22
5.1884 13.6554 -2.1117 0.9463 0 19
5.0509 13.6645 -2.1060 0.9489 0 19
4.9141 13.6735 -2.1004 0.9514 0 19
4.7780 13.6825 -2.0951 0.9538 0 19
7.9359 23.4035 -3.5725 0.1431 0 22
7.7238 23.4744 -3.5725 0.1431 0 22
7.5111 23.5432 -3.5725 0.1431 0 22
7.2978 23.6103 -3.5725 0.1431 0 22
7.0839 23.6753 -3.5725 0.1431 0 22
6.8694 23.7384 -3.5725 0.1431 0 22
6.6544 23.7996 -3.5725 0.1431 0 22
6.4388 23.8588 -3.5725 0.1431 0 22
6.2227 23.9161 -3.5725 0.1431 0 22
4.3249 17.2614 -2.5725 0.1431 0 8
4.1685 17.2998 -2.5725 0.1431 0 8
4.0119 17.3368 -2.5725 0.1431 0 8
3.8548 17.3724 -2.5725 0.1431 0 8
3.6975 17.4065 -2.5725 0.1431 0 8
3.5399 17.4393 -2.5725 0.1431 0 8
3.3820 17.4706 -2.5725 0.1431 0 8
2.5447 13.8142 -2.0306 0.7132 0 19
3.0653 17.5289 -2.5725 0.1431 0 8
2.9066 17.5559 -2.5725 0.1431 0 8
2.7477 17.5815 -2.5725 0.1431 0 8
2.5885 17.6056 -2.5725 0.1431 0 8
2.4291 17.6284 -2.5725 0.1431 0 8
1.1295 8.7841 -1.2803 0.8898 0 5
1.0512 8.8038 -1.2817 0.4273 0 5
1.9498 17.6878 -2.5725 0.1431 0 8
1.7897 17.7047 -2.5725 0.1431 0 8
1.6295 17.7202 -2.5725 0.1431 0 8
1.4691 17.7342 -2.5725 0.1431 0 8
1.3086 17.7467 -2.5725 0.1431 0 8
0.9002 13.9249 -2.0172 0.6328 0 19
0.9873 17.7675 -2.5725 0.1431 0 8
0.8266 17.7757 -2.5725 0.1431 0 8
0.6657 17.7825 -2.5725 0.1431 0 8
0.5048 17.7878 -2.5725 0.1431 0 8
0.3438 17.7916 -2.5725 0.1431 0 8
0.1829 17.7940 -2.5725 0.1431 0 8
0.0219 17.7949 -2.5725 0.1431 0 8
-0.1391 17.7944 -2.5725 0.1431 0 8
-0.3001 17.7924 -2.5725 0.1431 0 8
-0.4610 17.7890 -2.5725 0.1431 0 8
-0.6219 17.7841 -2.5725 0.1431 0 8
-0.7828 17.7777 -2.5725 0.1431 0 8
-0.9436 17.7699 -2.5725 0.1431 0 8
-1.1043 17.7606 -2.5725 0.1431 0 8
-1.2650 17.7499 -2.5725 0.1431 0 8
-1.4255 17.7377 -2.5725 0.1431 0 8
-1.5859 17.7241 -2.5725 0.1431 0 8
-1.7462 17.7090 -2.5725 0.1431 0 8
-1.9063 17.6925 -2.5725 0.1431 0 8
-2.0663 17.6745 -2.5725 0.1431 0 8
-2.2261 17.6551 -2.5725 0.1431 0 8
-1.9716 14.5732 -2.1259 0.1940 0 11
-2.0917 14.4740 -2.1141 0.9687 0 11
-2.2268 14.4825 -2.1182 0.9669 0 11
-2.3625 14.4911 -2.1225 0.9649 0 11
-2.5131 14.5825 -2.1391 0.9629 0 11
-2.6507 14.5911 -2.1438 0.9608 0 11
-1.9884 10.4086 -1.5319 0.2165 0 9
-2.0598 10.2773 -1.5153 0.6667 0 9
-2.1383 10.1897 -1.5051 0.9955 0 9
-2.2289 10.1629 -1.5041 0.9978 0 9
-2.3194 10.1367 -1.5032 0.9983 0 9
-2.4186 10.1472 -1.5080 0.6217 0 9
-2.5391 10.2408 -1.5253 0.6147 0 9
-3.7763 14.6619 -2.1887 0.9411 0 11
-3.9205 14.6709 -2.1953 0.9382 0 11
-3.9001 14.0823 -2.1124 0.3263 0 20
-3.9258 13.6923 -2.0591 0.3348 0 20
-3.9512 13.3247 -2.0091 0.9283 0 20
-4.1105 13.4153 -2.0283 0.3516 0 20
-4.1724 13.1901 -1.9999 0.9219 0 20
-4.3069 13.1990 -2.0071 0.9186 0 20
-4.4424 13.2079 -2.0145 0.9153 0 20
-4.5790 13.2169 -2.0221 0.9118 0 20
-4.7166 13.2260 -2.0299 0.9083 0 20
-4.8552 13.2351 -2.0380 0.9047 0 20
-4.9950 13.2443 -2.0463 0.9011 0 20
-5.1359 13.2536 -2.0548 0.8973 0 20
-5.2781 13.2630 -2.0636 0.8935 0 20
-5.4214 13.2725 -2.0726 0.8896 0 20
-5.5661 13.2820 -2.0819 0.8857 0 20
-5.7120 13.2916 -2.0914 0.8816 0 20
-5.8593 13.3013 -2.1012 0.8775 0 20
-6.0080 13.3111 -2.1112 0.8733 0 20
-6.1581 13.3210 -2.1215 0.8691 0 20
-6.3097 13.3310 -2.1321 0.8648 0 20
-6.4629 13.3411 -2.1430 0.8604 0 20
-6.6211 13.3584 -2.1553 0.2539 0 20
16.2551 0.0000 -2.7249 0.1653 0 7
16.2544 0.1471 -2.7249 0.1653 0 7
16.2524 0.2941 -2.7249 0.1653 0 7
16.2491 0.4411 -2.7249 0.1653 0 7
16.2444 0.5881 -2.7249 0.1653 0 7
16.2384 0.7350 -2.7249 0.1653 0 7
16.2311 0.8819 -2.7249 0.1653 0 7
16.2225 1.0287 -2.7249 0.1653 0 6
16.2125 1.1755 -2.7249 0.1653 0 7
16.2012 1.3221 -2.7249 0.1653 0 7
16.1886 1.4686 -2.7249 0.1653 0 7
16.1746 1.6150 -2.7249 0.1653 0 7
16.1594 1.7612 -2.7249 0.1653 0 7
16.1428 1.9074 -2.7249 0.1653 0 7
16.1249 2.0533 -2.7249 0.1653 0 7
16.1056 2.1991 -2.7249 0.1653 0 7
16.0851 2.3447 -2.7249 0.1653 0 7
16.0632 2.4902 -2.7249 0.1653 0 7
16.0400 2.6354 -2.7249 0.1653 0 7
16.0155 2.7804 -2.7249 0.1653 0 7
15.9897 2.9252 -2.7249 0.1653 0 7
15.9626 3.0697 -2.7249 0.1653 0 7
15.9342 3.2140 -2.7249 0.1653 0 7
15.9044 3.3580 -2.7249 0.1653 0 7
15.8734 3.5018 -2.7249 0.1653 0 7
15.8411 3.6452 -2.7249 0.1653 0 7
15.8074 3.7884 -2.7249 0.1653 0 7
15.7725 3.9312 -2.7249 0.1653 0 7
15.7363 4.0738 -2.7249 0.1653 0 7
15.6988 4.2160 -2.7249 0.1653 0 7
15.6600 4.3578 -2.7249 0.1653 0 7
15.6200 4.4993 -2.7249 0.1653 0 7
15.5786 4.6404 -2.7249 0.1653 0 7
15.5360 4.7812 -2.7249 0.1653 0 7
15.4921 4.9215 -2.7249 0.1653 0 7
15.4470 5.0615 -2.7249 0.1653 0 7
15.4005 5.2010 -2.7249 0.1653 0 7
15.3529 5.3401 -2.7249 0.1653 0 7
15.3039 5.4788 -2.7249 0.1653 0 7
15.2537 5.6170 -2.7249 0.1653 0 7
15.2023 5.7548 -2.7249 0.1653 0 7
15.1496 5.8921 -2.7249 0.1653 0 7
15.0957 6.0289 -2.7249 0.1653 0 7
15.0405 6.1652 -2.7249 0.1653 0 7
14.9841 6.3011 -2.7249 0.1653 0 7
14.9265 6.4364 -2.7249 0.1653 0 7
14.8677 6.5711 -2.7249 0.1653 0 7
14.8076 6.7054 -2.7249 0.1653 0 7
14.7463 6.8391 -2.7249 0.1653 0 7
14.6839 6.9722 -2.7249 0.1653 0 7
14.6202 7.1047 -2.7249 0.1653 0 7
14.5553 7.2367 -2.7249 0.1653 0 7
14.4893 7.3681 -2.7249 0.1653 0 7
14.4112 7.4933 -2.7228 0.1675 0 8
14.3300 7.6165 -2.7204 0.1677 0 8
14.2478 7.7390 -2.7180 0.1678 0 8
13.8205 7.6696 -2.6496 0.2457 0 8
13.3681 7.5775 -2.5759 0.3211 0 8
13.2813 7.6879 -2.5725 0.1653 0 8
13.2112 7.8077 -2.5725 0.1653 0 8
13.1401 7.9270 -2.5725 0.1653 0 8
13.0678 8.0455 -2.5725 0.1653 0 8
12.9945 8.1634 -2.5725 0.1653 0 8
12.9201 8.2806 -2.5725 0.1653 0 8
12.8447 8.3971 -2.5725 0.1653 0 8
12.7682 8.5130 -2.5725 0.1653 0 8
12.6906 8.6282 -2.5725 0.1653 0 8
12.6121 8.7427 -2.5725 0.1653 0 8
12.5325 8.8564 -2.5725 0.1653 0 8
12.4518 8.9694 -2.5725 0.1653 0 8
12.3702 9.0817 -2.5725 0.1653 0 8
12.2875 9.1932 -2.5725 0.1653 0 8
12.2038 9.3040 -2.5725 0.1653 0 8
12.1191 9.4140 -2.5725 0.1653 0 8
12.0335 9.5233 -2.5725 0.1653 0 8
11.9468 9.6317 -2.5725 0.1653 0 8
11.8592 9.7395 -2.5725 0.1653 0 8
11.7706 9.8463 -2.5725 0.1653 0 8
11.6811 9.9524 -2.5725 0.1653 0 8
11.5905 10.0577 -2.5725 0.1653 0 8
11.4991 10.1621 -2.5725 0.1653 0 8
11.4067 10.2658 -2.5725 0.1653 0 8
11.3133 10.3685 -2.5725 0.1653 0 8
11.2191 10.4705 -2.5725 0.1653 0 8
11.1239 10.5715 -2.5725 0.1653 0 8
11.0278 10.6717 -2.5725 0.1653 0 8
10.9308 10.7710 -2.5725 0.1653 0 8
10.8329 10.8695 -2.5725 0.1653 0 8
10.7341 10.9671 -2.5725 0.1653 0 8
10.6345 11.0637 -2.5725 0.1653 0 8
8.9228 9.4527 -2.1790 0.2805 0 9
10.4325 11.2543 -2.5725 0.1653 0 8
8.4468 9.2791 -2.1034 0.4882 0 9
8.2593 9.2398 -2.0775 0.9504 0 9
8.1537 9.2894 -2.0720 0.8823 0 9
8.0518 9.3424 -2.0675 0.8584 0 9
7.9963 9.4496 -2.0751 0.8553 0 9
7.9674 9.5900 -2.0900 0.6291 0 9
9.6994 11.8920 -2.5725 0.1653 0 8
9.5914 11.9793 -2.5725 0.1653 0 8
8.0429 10.2337 -2.1819 0.8146 0 9
9.3731 12.1508 -2.5725 0.1653 0 8
9.2628 12.2351 -2.5725 0.1653 0 8
9.1517 12.3184 -2.5725 0.1653 0 8
9.0399 12.4007 -2.5725 0.1653 0 8
8.9274 12.4820 -2.5725 0.1653 0 8
8.8141 12.5623 -2.5725 0.1653 0 8
8.7000 12.6415 -2.5725 0.1653 0 8
8.5853 12.7197 -2.5725 0.1653 0 8
8.4699 12.7968 -2.5725 0.1653 0 8
8.3538 12.8729 -2.5725 0.1653 0 8
8.2370 12.9480 -2.5725 0.1653 0 8
8.1195 13.0220 -2.5725 0.1653 0 8
8.0014 13.0949 -2.5725 0.1653 0 8
7.8826 13.1667 -2.5725 0.1653 0 8
7.7631 13.2375 -2.5725 0.1653 0 8
7.6431 13.3072 -2.5725 0.1653 0 8
7.5224 13.3758 -2.5725 0.1653 0 8
7.3607 13.3700 -2.5584 0.6781 0 19
7.2166 13.3937 -2.5504 0.9687 0 19
7.1566 13.5750 -2.5725 0.1653 0 8
7.0335 13.6392 -2.5725 0.1653 0 8
6.9098 13.7023 -2.5725 0.1653 0 8
6.7856 13.7642 -2.5725 0.1653 0 8
6.6608 13.8250 -2.5725 0.1653 0 8
6.5354 13.8847 -2.5725 0.1653 0 8
8.9012 19.3635 -3.5725 0.1653 0 22
8.7256 19.4432 -3.5725 0.1653 0 22
8.5494 19.5214 -3.5725 0.1653 0 22
8.3724 19.5979 -3.5725 0.1653 0 22
8.1948 19.6728 -3.5725 0.1653 0 22
8.0164 19.7462 -3.5725 0.1653 0 22
7.8375 19.8179 -3.5725 0.1653 0 22
5.2666 13.6777 -2.4569 0.9417 0 19
5.1284 13.6868 -2.4501 0.9443 0 19
4.9910 13.6958 -2.4436 0.9468 0 19
4.8543 13.7049 -2.4372 0.9493 0 19
4.7540 13.8178 -2.4496 0.2588 0 19
6.7507 20.2139 -3.5725 0.1653 0 22
6.5676 20.2742 -3.5725 0.1653 0 22
6.3839 20.3328 -3.5725 0.1653 0 22
6.1997 20.3897 -3.5725 0.1653 0 22
6.0150 20.4449 -3.5725 0.1653 0 22
5.8298 20.4985 -3.5725 0.1653 0 22
4.0642 14.7980 -2.5725 0.1653 0 8
3.9301 14.8341 -2.5725 0.1653 0 8
3.7958 14.8691 -2.5725 0.1653 0 8
3.6611 14.9028 -2.5725 0.1653 0 8
3.5261 14.9353 -2.5725 0.1653 0 8
3.3909 14.9666 -2.5725 0.1653 0 8
3.2551 14.9967 -2.5725 0.1653 0 8
3.1193 15.0255 -2.5725 0.1653 0 8
2.9833 15.0531 -2.5725 0.1653 0 8
2.8470 15.0795 -2.5725 0.1653 0 8
2.4851 13.8482 -2.3585 0.5276 0 19
2.3479 13.8001 -2.3466 0.9639 0 19
2.2270 13.8465 -2.3509 0.7175 0 19
2.1097 13.9193 -2.3600 0.7069 0 19
2.1622 15.1928 -2.5725 0.1653 0 8
2.0247 15.2118 -2.5725 0.1653 0 8
1.0876 8.7773 -1.4826 0.9321 0 5
1.7491 15.2459 -2.5725 0.1653 0 8
1.6111 15.2611 -2.5725 0.1653 0 8
1.4731 15.2751 -2.5725 0.1653 0 8
1.2153 13.9182 -2.3420 0.6722 0 19
1.0858 13.8830 -2.3343 0.9734 0 19
0.9639 13.9468 -2.3435 0.5713 0 19
0.9192 15.3184 -2.5725 0.1653 0 8
0.7808 15.3261 -2.5725 0.1653 0 8
0.6421 15.3325 -2.5725 0.1653 0 8
0.5034 15.3377 -2.5725 0.1653 0 8
0.3646 15.3416 -2.5725 0.1653 0 8
0.2257 15.3443 -2.5725 0.1653 0 8
0.0870 15.3457 -2.5725 0.1653 0 8
-0.0519 15.3459 -2.5725 0.1653 0 8
-0.1909 15.3448 -2.5725 0.1653 0 8
-0.3296 15.3424 -2.5725 0.1653 0 8
-0.4683 15.3388 -2.5725 0.1653 0 8
-0.6071 15.3339 -2.5725 0.1653 0 8
-0.7458 15.3278 -2.5725 0.1653 0 8
-0.8844 15.3204 -2.5725 0.1653 0 8
-1.0230 15.3118 -2.5725 0.1653 0 8
-1.1613 15.3019 -2.5725 0.1653 0 8
-1.2997 15.2908 -2.5725 0.1653 0 8
-1.4380 15.2784 -2.5725 0.1653 0 8
-1.5762 15.2648 -2.5725 0.1653 0 8
-1.7142 15.2499 -2.5725 0.1653 0 8
-1.8521 15.2338 -2.5725 0.1653 0 8
-1.9502 14.9136 -2.5213 0.1890 0 11
-2.0255 14.4699 -2.4493 0.9662 0 11
-2.1604 14.4784 -2.4539 0.9644 0 11
-2.2958 14.4869 -2.4588 0.9625 0 11
-2.4457 14.5782 -2.4779 0.9605 0 11
-2.5830 14.5869 -2.4833 0.9584 0 11
-2.7210 14.5955 -2.4888 0.9563 0 11
-2.0172 10.3018 -1.7597 0.6772 0 9
-2.0901 10.1851 -1.7429 0.6837 0 9
-2.1765 10.1389 -1.7383 0.9944 0 9
-2.2663 10.1108 -1.7370 0.9952 0 9
-2.3560 10.0827 -1.7357 0.9959 0 9
-2.4617 10.1209 -1.7461 0.6672 0 9
-2.5788 10.1999 -1.7636 0.6606 0 9
-3.8496 14.6665 -2.5418 0.9363 0 11
-3.9942 14.6756 -2.5496 0.9335 0 11
-4.1397 14.6847 -2.5576 0.9306 0 11
-4.0896 14.0197 -2.4481 0.3379 0 20
-4.1144 13.6442 -2.3889 0.3462 0 20
-4.1380 13.2864 -2.3327 0.3546 0 20
-4.2407 13.1946 -2.3233 0.9170 0 20
-4.3757 13.2035 -2.3317 0.9137 0 20
-4.5118 13.2125 -2.3404 0.9103 0 20
-4.6488 13.2215 -2.3494 0.9069 0 20
-4.7870 13.2306 -2.3586 0.9033 0 20
-4.9262 13.2398 -2.3681 0.8997 0 20
-5.0666 13.2491 -2.3778 0.8960 0 20
-5.2081 13.2584 -2.3879 0.8922 0 20
-5.3509 13.2678 -2.3982 0.8884 0 20
-5.4949 13.2773 -2.4088 0.8845 0 20
-5.6401 13.2869 -2.4197 0.8805 0 20
-5.7868 13.2965 -2.4309 0.8765 0 20
-5.9348 13.3063 -2.4424 0.8723 0 20
-6.0842 13.3162 -2.4542 0.8681 0 20
-6.2351 13.3261 -2.4663 0.8639 0 20
-6.3875 13.3362 -2.4788 0.8595 0 20
-6.5443 13.3522 -2.4926 0.4877 0 20
-6.8783 13.7181 -2.5725 0.1653 0 8
-7.0021 13.6553 -2.5725 0.1653 0 8
-7.1254 13.5914 -2.5725 0.1653 0 8
-7.2480 13.5264 -2.5725 0.1653 0 8
-7.3701 13.4603 -2.5725 0.1653 0 8
-7.4916 13.3931 -2.5725 0.1653 0 8
-7.6124 13.3247 -2.5725 0.1653 0 8
-7.7327 13.2553 -2.5725 0.1653 0 8
-7.8523 13.1848 -2.5725 0.1653 0 8
-7.9712 13.1133 -2.5725 0.1653 0 8
-8.0895 13.0406 -2.5725 0.1653 0 8
-8.2072 12.9669 -2.5725 0.1653 0 8
-8.3241 12.8921 -2.5725 0.1653 0 8
-8.4404 12.8163 -2.5725 0.1653 0 8
-8.5560 12.7394 -2.5725 0.1653 0 8
-8.6709 12.6615 -2.5725 0.1653 0 8
-8.7851 12.5825 -2.5725 0.1653 0 8
-8.8986 12.5025 -2.5725 0.1653 0 8
-9.0113 12.4215 -2.5725 0.1653 0 8
-9.1233 12.3395 -2.5725 0.1653 0 8
-9.2346 12.2564 -2.5725 0.1653 0 8
-9.3451 12.1724 -2.5725 0.1653 0 8
-9.4549 12.0873 -2.5725 0.1653 0 8
-9.5638 12.0013 -2.5725 0.1653 0 8
-8.2081 10.1109 -2.1831 0.9423 0 19
-8.1385 9.8419 -2.1408 0.7846 0 19
-8.2077 9.7447 -2.1357 0.9457 0 19
-8.3356 9.7169 -2.1461 0.3700 0 19
-10.0967 11.5566 -2.5725 0.1653 0 8
-10.2009 11.4647 -2.5725 0.1653 0 8
-10.3042 11.3720 -2.5725 0.1653 0 8
-10.4066 11.2783 -2.5725 0.1653 0 8
-10.5082 11.1837 -2.5725 0.1653 0 8
-10.6090 11.0882 -2.5725 0.1653 0 8
-10.7089 10.9917 -2.5725 0.1653 0 8
-10.8079 10.8944 -2.5725 0.1653 0 8
-10.9060 10.7962 -2.5725 0.1653 0 8
-11.0032 10.6971 -2.5725 0.1653 0 8
-11.0995 10.5971 -2.5725 0.1653 0 8
-11.1950 10.4962 -2.5725 0.1653 0 8
-11.2894 10.3945 -2.5725 0.1653 0 8
-11.3830 10.2920 -2.5725 0.1653 0 8
-11.4757 10.1886 -2.5725 0.1653 0 8
-11.5674 10.0843 -2.5725 0.1653 0 8
-11.6581 9.9793 -2.5725 0.1653 0 8
-11.7479 9.8734 -2.5725 0.1653 0 8
-11.8368 9.7667 -2.5725 0.1653 0 8
-11.9246 9.6592 -2.5725 0.1653 0 8
-12.0115 9.5510 -2.5725 0.1653 0 8
-12.0975 9.4419 -2.5725 0.1653 0 8
-12.1824 9.3321 -2.5725 0.1653 0 8
-12.2663 9.2215 -2.5725 0.1653 0 8
-12.3492 9.1101 -2.5725 0.1653 0 8
-12.4749 9.0297 -2.5815 0.5435 0 8
-12.7309 9.0407 -2.6175 0.5360 0 8
-12.9942 9.0519 -2.6546 0.5285 0 8
-13.2649 9.0633 -2.6931 0.5210 0 8
-13.4700 9.0258 -2.7180 0.1736 0 8
-13.5614 8.9103 -2.7201 0.1735 0 8
-13.6518 8.7940 -2.7222 0.1734 0 8
-13.7413 8.6767 -2.7243 0.1732 0 8
-13.8223 8.5540 -2.7249 0.1653 0 7
-13.8992 8.4286 -2.7249 0.1653 0 7
-13.9748 8.3025 -2.7249 0.1653 0 7
-14.0494 8.1757 -2.7249 0.1653 0 7
-14.1228 8.0483 -2.7249 0.1653 0 7
-14.1950 7.9202 -2.7249 0.1653 0 7
-14.2661 7.7914 -2.7249 0.1653 0 7
-14.3360 7.6620 -2.7249 0.1653 0 7
-14.4047 7.5320 -2.7249 0.1653 0 7
-14.4723 7.4014 -2.7249 0.1653 0 7
-14.5386 7.2702 -2.7249 0.1653 0 7
-14.6038 7.1384 -2.7249 0.1653 0 7
-14.6678 7.0060 -2.7249 0.1653 0 7
-14.7306 6.8730 -2.7249 0.1653 0 7
-14.7921 6.7394 -2.7249 0.1653 0 6
-14.8525 6.6053 -2.7249 0.1653 0 7
-14.9116 6.4707 -2.7249 0.1653 0 7
-14.9696 6.3355 -2.7249 0.1653 0 7
-15.0263 6.1998 -2.7249 0.1653 0 7
-15.0818 6.0636 -2.7249 0.1653 0 7
-15.1360 5.9269 -2.7249 0.1653 0 7
-15.1890 5.7898 -2.7249 0.1653 0 7
-15.2407 5.6521 -2.7249 0.1653 0 7
-15.2913 5.5140 -2.7249 0.1653 0 7
-15.3405 5.3755 -2.7249 0.1653 0 7
-15.3885 5.2365 -2.7249 0.1653 0 7
-15.4353 5.0970 -2.7249 0.1653 0 7
-15.4808 4.9572 -2.7249 0.1653 0 7
-15.5250 4.8169 -2.7249 0.1653 0 7
-15.5679 4.6763 -2.7249 0.1653 0 7
-15.6096 4.5352 -2.7249 0.1653 0 7
-15.6500 4.3938 -2.7249 0.1653 0 7
-15.6891 4.2521 -2.7249 0.1653 0 7
-15.7269 4.1100 -2.7249 0.1653 0 7
-15.7634 3.9675 -2.7249 0.1653 0 7
-15.7987 3.8248 -2.7249 0.1653 0 7
-15.8326 3.6817 -2.7249 0.1653 0 7
-15.8653 3.5383 -2.7249 0.1653 0 7
-15.8967 3.3946 -2.7249 0.1653 0 7
-15.9267 3.2506 -2.7249 0.1653 0 7
-15.9555 3.1064 -2.7249 0.1653 0 7
-15.9829 2.9619 -2.7249 0.1653 0 7
-16.0091 2.8172 -2.7249 0.1653 0 7
-16.0339 2.6723 -2.7249 0.1653 0 7
-16.0574 2.5271 -2.7249 0.1653 0 7
-16.0796 2.3817 -2.7249 0.1653 0 7
-16.1005 2.2362 -2.7249 0.1653 0 7
-16.1201 2.0904 -2.7249 0.1653 0 7
-16.1384 1.9445 -2.7249 0.1653 0 7
-16.1553 1.7984 -2.7249 0.1653 0 7
-16.1709 1.6522 -2.7249 0.1653 0 7
-16.1852 1.5058 -2.7249 0.1653 0 7
-16.1981 1.3593 -2.7249 0.1653 0 7
-16.2098 1.2127 -2.7249 0.1653 0 7
-16.2201 1.0661 -2.7249 0.1653 0 7
-16.2291 0.9193 -2.7249 0.1653 0 7
-16.2367 0.7724 -2.7249 0.1653 0 7
-16.2430 0.6255 -2.7249 0.1653 0 7
-16.2480 0.4785 -2.7249 0.1653 0 7
-16.2517 0.3315 -2.7249 0.1653 0 7
-16.2540 0.1845 -2.7249 0.1653 0 7
-16.2550 0.0374 -2.7249 0.1653 0 7
-16.2547 -0.1096 -2.7249 0.1653 0 6
-16.2530 -0.2567 -2.7249 0.1653 0 7
-16.2500 -0.4037 -2.7249 0.1653 0 7
-16.2457 -0.5507 -2.7249 0.1653 0 7
-16.2401 -0.6977 -2.7249 0.1653 0 7
-16.2331 -0.8445 -2.7249 0.1653 0 7
-16.2248 -0.9914 -2.7249 0.1653 0 7
-16.2152 -1.1381 -2.7249 0.1653 0 7
-16.2042 -1.2848 -2.7249 0.1653 0 7
-16.1919 -1.4313 -2.7249 0.1653 0 7
-16.1783 -1.5777 -2.7249 0.1653 0 7
-16.1634 -1.7241 -2.7249 0.1653 0 7
-16.1471 -1.8702 -2.7249 0.1653 0 7
-16.1296 -2.0162 -2.7249 0.1653 0 7
-16.1107 -2.1620 -2.7249 0.1653 0 7
-16.0904 -2.3077 -2.7249 0.1653 0 7
-16.0689 -2.4532 -2.7249 0.1653 0 7
-16.0460 -2.5984 -2.7249 0.1653 0 7
-16.0219 -2.7435 -2.7249 0.1653 0 7
-15.9964 -2.8883 -2.7249 0.1653 0 7
-15.9696 -3.0329 -2.7249 0.1653 0 7
-15.9415 -3.1773 -2.7249 0.1653 0 7
-15.9121 -3.3214 -2.7249 0.1653 0 7
-15.8814 -3.4652 -2.7249 0.1653 0 7
-15.8494 -3.6087 -2.7249 0.1653 0 7
-15.8161 -3.7520 -2.7249 0.1653 0 7
-15.7815 -3.8949 -2.7249 0.1653 0 7
-15.7457 -4.0375 -2.7249 0.1653 0 7
-15.7085 -4.1798 -2.7249 0.1653 0 7
-15.6700 -4.3217 -2.7249 0.1653 0 7
-15.6303 -4.4633 -2.7249 0.1653 0 7
-15.5893 -4.6045 -2.7249 0.1653 0 7
-15.5470 -4.7454 -2.7249 0.1653 0 7
-15.5034 -4.8858 -2.7249 0.1653 0 7
-15.4586 -5.0259 -2.7249 0.1653 0 7
-15.4125 -5.1655 -2.7249 0.1653 0 7
-15.3651 -5.3048 -2.7249 0.1653 0 7
-15.3165 -5.4436 -2.7249 0.1653 0 7
-15.2666 -5.5819 -2.7249 0.1653 0 7
-15.2155 -5.7198 -2.7249 0.1653 0 7
-15.1631 -5.8572 -2.7249 0.1653 0 7
-15.1095 -5.9941 -2.7249 0.1653 0 7
-15.0547 -6.1306 -2.7249 0.1653 0 7
-14.9986 -6.2665 -2.7249 0.1653 0 7
-14.9413 -6.4020 -2.7249 0.1653 0 7
-14.8828 -6.5369 -2.7249 0.1653 0 7
-14.8230 -6.6712 -2.7249 0.1653 0 7
-14.7621 -6.8051 -2.7249 0.1653 0 7
-14.6999 -6.9384 -2.7249 0.1653 0 7
-14.6365 -7.0711 -2.7249 0.1653 0 7
-14.5719 -7.2032 -2.7249 0.1653 0 7
-14.5062 -7.3347 -2.7249 0.1653 0 6
-14.4392 -7.4657 -2.7249 0.1653 0 7
-14.3711 -7.5960 -2.7249 0.1653 0 7
-14.3018 -7.7257 -2.7249 0.1653 0 7
-14.2313 -7.8548 -2.7249 0.1653 0 7
-14.1596 -7.9832 -2.7249 0.1653 0 7
-14.0869 -8.1110 -2.7249 0.1653 0 7
-14.0129 -8.2381 -2.7249 0.1653 0 7
-13.9378 -8.3645 -2.7249 0.1653 0 7
-13.8616 -8.4903 -2.7249 0.1653 0 7
-13.7842 -8.6153 -2.7249 0.1653 0 7
-13.7057 -8.7396 -2.7249 0.1653 0 7
-13.6261 -8.8633 -2.7249 0.1653 0 7
-13.5453 -8.9862 -2.7249 0.1653 0 7
-13.4635 -9.1084 -2.7249 0.1653 0 7
-13.3805 -9.2298 -2.7249 0.1653 0 7
-13.2965 -9.3505 -2.7249 0.1653 0 7
-13.2088 -9.4686 -2.7244 0.1759 0 8
-13.1140 -9.5814 -2.7226 0.1761 0 8
-13.0182 -9.6933 -2.7208 0.1762 0 8
-12.9216 -9.8043 -2.7190 0.1763 0 8
-12.8242 -9.9144 -2.7173 0.1764 0 8
-12.6128 -9.9346 -2.6914 0.6810 0 8
-12.4044 -9.9536 -2.6661 0.6875 0 8
-12.1999 -9.9723 -2.6414 0.6939 0 8
-11.9990 -9.9906 -2.6174 0.7003 0 8
-11.8018 -10.0085 -2.5940 0.7066 0 8
-11.6142 -10.0315 -2.5726 0.6079 0 8
-11.5224 -10.1356 -2.5725 0.1653 0 8
-11.4303 -10.2395 -2.5725 0.1653 0 8
-11.3372 -10.3424 -2.5725 0.1653 0 8
-11.2431 -10.4446 -2.5725 0.1653 0 8
-11.1482 -10.5459 -2.5725 0.1653 0 8
-11.0523 -10.6463 -2.5725 0.1653 0 8
-10.9556 -10.7459 -2.5725 0.1653 0 8
-10.8579 -10.8445 -2.5725 0.1653 0 8
-10.7593 -10.9423 -2.5725 0.1653 0 8
-10.6599 -11.0392 -2.5725 0.1653 0 8
-10.5596 -11.1352 -2.5725 0.1653 0 8
-10.4584 -11.2303 -2.5725 0.1653 0 8
-10.3564 -11.3244 -2.5725 0.1653 0 8
-10.2535 -11.4177 -2.5725 0.1653 0 8
-10.1498 -11.5100 -2.5725 0.1653 0 8
-10.0453 -11.6013 -2.5725 0.1653 0 8
-9.9399 -11.6917 -2.5725 0.1653 0 8
-9.8337 -11.7812 -2.5725 0.1653 0 8
-8.9183 -10.8831 -2.3587 0.8086 0 5
-8.7637 -10.8939 -2.3437 0.8137 0 5
-8.6645 -10.9725 -2.3437 0.5655 0 5
-9.4011 -12.1292 -2.5725 0.1653 0 8
-9.2909 -12.2138 -2.5725 0.1653 0 8
-9.1801 -12.2973 -2.5725 0.1653 0 8
-9.0684 -12.3799 -2.5725 0.1653 0 8
-8.9561 -12.4614 -2.5725 0.1653 0 8
-8.8430 -12.5419 -2.5725 0.1653 0 8
-8.7291 -12.6214 -2.5725 0.1653 0 8
-8.6146 -12.6999 -2.5725 0.1653 0 8
-8.4993 -12.7773 -2.5725 0.1653 0 8
-8.3834 -12.8536 -2.5725 0.1653 0 8
-8.2668 -12.9290 -2.5725 0.1653 0 8
-8.1495 -13.0032 -2.5725 0.1653 0 8
-8.0315 -13.0764 -2.5725 0.1653 0 8
-7.9129 -13.1485 -2.5725 0.1653 0 8
-7.7936 -13.2196 -2.5725 0.1653 0 8
-7.6396 -13.2305 -2.5610 0.8858 0 1
-7.4867 -13.2410 -2.5499 0.8897 0 1
-7.3352 -13.2514 -2.5390 0.8935 0 1
-7.1849 -13.2617 -2.5284 0.8973 0 1
-7.0359 -13.2719 -2.5181 0.9009 0 1
-6.8881 -13.2821 -2.5081 0.9045 0 1
-6.7414 -13.2921 -2.4984 0.9081 0 1
-6.5959 -13.3021 -2.4889 0.9115 0 1
-6.4514 -13.3121 -2.4798 0.9149 0 1
-6.3080 -13.3219 -2.4709 0.9182 0 1
-6.1656 -13.3317 -2.4622 0.9214 0 1
-6.0242 -13.3414 -2.4539 0.9245 0 1
-5.8837 -13.3510 -2.4457 0.9276 0 1
-5.7442 -13.3606 -2.4379 0.9306 0 1
-5.6055 -13.3701 -2.4303 0.9335 0 1
-5.4677 -13.3796 -2.4229 0.9364 0 1
-5.3307 -13.3890 -2.4158 0.9391 0 1
-5.1945 -13.3983 -2.4089 0.9418 0 1
-5.0590 -13.4076 -2.4022 0.9444 0 1
-4.9243 -13.4169 -2.3958 0.9469 0 1
-4.7903 -13.4261 -2.3896 0.9494 0 1
-4.6570 -13.4352 -2.3836 0.9518 0 1
-4.5243 -13.4443 -2.3779 0.9541 0 1
-4.3923 -13.4534 -2.3724 0.9563 0 1
-4.2609 -13.4624 -2.3671 0.9584 0 1
-4.1300 -13.4714 -2.3620 0.9605 0 1
-3.9997 -13.4803 -2.3571 0.9625 0 1
-3.8699 -13.4892 -2.3524 0.9644 0 1
-3.7406 -13.4981 -2.3480 0.9662 0 1
-3.6118 -13.5069 -2.3438 0.9680 0 1
-3.4835 -13.5158 -2.3397 0.9696 0 1
-3.3555 -13.5245 -2.3359 0.9712 0 1
-3.2280 -13.5333 -2.3323 0.9727 0 1
-3.1009 -13.5420 -2.3288 0.9742 0 1
-2.9741 -13.5507 -2.3256 0.9755 0 1
-2.8477 -13.5594 -2.3226 0.9768 0 1
-2.7216 -13.5680 -2.3197 0.9780 0 1
-2.5958 -13.5767 -2.3171 0.9791 0 1
-2.4703 -13.5853 -2.3147 0.9801 0 1
-2.3450 -13.5939 -2.3124 0.9811 0 1
-2.2199 -13.6025 -2.3104 0.9820 0 1
-2.0951 -13.6110 -2.3085 0.9827 0 1
-1.9704 -13.6196 -2.3069 0.9835 0 1
-1.8460 -13.6281 -2.3054 0.9841 0 1
-1.7216 -13.6367 -2.3041 0.9846 0 1
-1.5974 -13.6452 -2.3030 0.9851 0 1
-1.4733 -13.6537 -2.3021 0.9855 0 1
-1.3493 -13.6622 -2.3014 0.9858 0 1
-1.2254 -13.6707 -2.3008 0.9860 0 1
-1.1015 -13.6792 -2.3005 0.9862 0 1
-0.9777 -13.6877 -2.3003 0.9862 0 1
-0.8538 -13.6962 -2.3004 0.9862 0 1
-0.7299 -13.7047 -2.3006 0.9861 0 1
-0.6060 -13.7132 -2.3010 0.9859 0 1
-0.4821 -13.7217 -2.3016 0.9857 0 1
-0.3580 -13.7303 -2.3024 0.9854 0 1
-0.2357 -13.8464 -2.3214 0.0508 0 1
-0.1096 -13.7473 -2.3046 0.9844 0 1
0.0147 -13.7558 -2.3059 0.9839 0 1
0.1393 -13.7644 -2.3075 0.9832 0 1
0.2640 -13.7729 -2.3092 0.9824 0 1
0.3889 -13.7815 -2.3111 0.9816 0 1
0.5141 -13.7901 -2.3133 0.9807 0 1
0.6394 -13.7987 -2.3156 0.9797 0 1
0.7651 -13.8073 -2.3181 0.9787 0 1
0.8910 -13.8160 -2.3208 0.9775 0 1
1.0172 -13.8246 -2.3237 0.9763 0 1
1.1437 -13.8333 -2.3268 0.9750 0 1
1.2707 -13.8420 -2.3301 0.9736 0 1
1.3979 -13.8508 -2.3336 0.9722 0 1
1.5256 -13.8595 -2.3373 0.9706 0 1
1.6537 -13.8683 -2.3412 0.9690 0 1
1.7822 -13.8771 -2.3454 0.9673 0 1
1.9112 -13.8860 -2.3497 0.9655 0 1
2.0407 -13.8949 -2.3542 0.9637 0 1
2.1707 -13.9038 -2.3590 0.9617 0 1
2.3012 -13.9128 -2.3639 0.9597 0 1
2.4322 -13.9218 -2.3691 0.9576 0 1
2.5639 -13.9308 -2.3745 0.9554 0 1
2.6962 -13.9399 -2.3801 0.9532 0 1
2.8291 -13.9490 -2.3859 0.9509 0 1
2.9627 -13.9582 -2.3920 0.9485 0 1
3.0970 -13.9674 -2.3982 0.9460 0 1
3.2320 -13.9766 -2.4048 0.9434 0 1
3.3677 -13.9860 -2.4115 0.9408 0 1
3.5042 -13.9953 -2.4185 0.9381 0 1
3.6415 -14.0048 -2.4257 0.9353 0 1
3.7796 -14.0142 -2.4332 0.9324 0 1
3.9187 -14.0238 -2.4409 0.9295 0 1
4.0586 -14.0334 -2.4489 0.9264 0 1
4.1994 -14.0430 -2.4571 0.9233 0 1
4.3412 -14.0528 -2.4655 0.9202 0 1
4.4840 -14.0626 -2.4743 0.9169 0 1
4.6278 -14.0725 -2.4833 0.9136 0 1
4.7727 -14.0824 -2.4925 0.9102 0 1
4.9186 -14.0924 -2.5021 0.9067 0 1
5.0657 -14.1025 -2.5119 0.9032 0 1
5.2140 -14.1127 -2.5220 0.8995 0 1
5.3635 -14.1229 -2.5324 0.8959 0 1
5.5142 -14.1333 -2.5431 0.8921 0 1
5.6663 -14.1437 -2.5541 0.8882 0 1
5.8196 -14.1542 -2.5654 0.8843 0 1
5.9638 -14.1397 -2.5725 0.1653 0 8
6.0914 -14.0852 -2.5725 0.1653 0 8
6.2186 -14.0295 -2.5725 0.1653 0 8
6.3453 -13.9727 -2.5725 0.1653 0 8
6.4714 -13.9147 -2.5725 0.1653 0 8
6.5971 -13.8556 -2.5725 0.1653 0 8
6.7221 -13.7953 -2.5725 0.1653 0 8
