ply
format ascii 1.0
element vertex 1380
property float32 x
property float32 y
property float32 z
property float32 CosAngle
property uint32 ObjIdx
property uint32 ObjTag
end_header
11.2056 1.8408 -2.7026 0.2315 0 7
11.1885 1.9421 -2.7026 0.2315 0 7
11.1705 2.0432 -2.7026 0.2315 0 7
11.1515 2.1442 -2.7026 0.2315 0 7
11.1317 2.2449 -2.7026 0.2315 0 7
11.1109 2.3455 -2.7026 0.2315 0 7
11.0892 2.4459 -2.7026 0.2315 0 7
11.0667 2.5461 -2.7026 0.2315 0 7
11.0432 2.6461 -2.7026 0.2315 0 7
11.0188 2.7459 -2.7026 0.2315 0 7
10.9935 2.8455 -2.7026 0.2315 0 7
10.9673 2.9448 -2.7026 0.2315 0 7
10.9402 3.0439 -2.7026 0.2315 0 7
10.9123 3.1427 -2.7026 0.2315 0 7
10.8834 3.2413 -2.7026 0.2315 0 7
10.8536 3.3396 -2.7026 0.2315 0 7
10.8229 3.4376 -2.7026 0.2315 0 7
10.7914 3.5354 -2.7026 0.2315 0 7
10.7590 3.6329 -2.7026 0.2315 0 7
10.7257 3.7301 -2.7026 0.2315 0 7
10.6915 3.8269 -2.7026 0.2315 0 7
10.6565 3.9235 -2.7026 0.2315 0 7
10.6205 4.0197 -2.7026 0.2315 0 7
10.5837 4.1156 -2.7026 0.2315 0 7
10.5461 4.2112 -2.7026 0.2315 0 7
10.5076 4.3064 -2.7026 0.2315 0 7
10.4682 4.4013 -2.7026 0.2315 0 7
10.4279 4.4958 -2.7026 0.2315 0 7
10.3868 4.5899 -2.7026 0.2315 0 7
10.3449 4.6837 -2.7026 0.2315 0 7
10.3021 4.7771 -2.7026 0.2315 0 7
10.2585 4.8700 -2.7026 0.2315 0 7
10.2140 4.9626 -2.7026 0.2315 0 7
10.1687 5.0548 -2.7026 0.2315 0 7
10.1226 5.1466 -2.7026 0.2315 0 7
10.0756 5.2379 -2.7026 0.2315 0 7
10.0278 5.3289 -2.7026 0.2315 0 7
9.9792 5.4194 -2.7026 0.2315 0 7
9.9298 5.5094 -2.7026 0.2315 0 7
9.8795 5.5990 -2.7026 0.2315 0 7
9.8285 5.6881 -2.7026 0.2315 0 7
9.7766 5.7768 -2.7026 0.2315 0 7
9.7240 5.8650 -2.7026 0.2315 0 7
9.6705 5.9527 -2.7026 0.2315 0 7
9.6163 6.0399 -2.7026 0.2315 0 7
9.5612 6.1267 -2.7026 0.2315 0 7
9.5054 6.2129 -2.7026 0.2315 0 7
9.4489 6.2987 -2.7026 0.2315 0 7
9.3915 6.3839 -2.7026 0.2315 0 7
9.3334 6.4685 -2.7026 0.2315 0 7
9.2745 6.5527 -2.7026 0.2315 0 7
9.2148 6.6363 -2.7026 0.2315 0 7
9.1544 6.7194 -2.7026 0.2315 0 7
9.0933 6.8019 -2.7026 0.2315 0 7
9.0314 6.8839 -2.7026 0.2315 0 7
8.9687 6.9653 -2.7026 0.2315 0 7
8.9054 7.0462 -2.7026 0.2315 0 7
8.8413 7.1264 -2.7026 0.2315 0 7
8.7764 7.2061 -2.7026 0.2315 0 7
8.7109 7.2852 -2.7026 0.2315 0 7
8.6446 7.3637 -2.7026 0.2315 0 7
8.5777 7.4416 -2.7026 0.2315 0 7
8.5100 7.5189 -2.7026 0.2315 0 7
8.4417 7.5955 -2.7026 0.2315 0 7
8.3726 7.6716 -2.7026 0.2315 0 7
8.3029 7.7470 -2.7026 0.2315 0 7
8.2325 7.8218 -2.7026 0.2315 0 7
8.1614 7.8959 -2.7026 0.2315 0 7
8.0896 7.9694 -2.7026 0.2315 0 7
8.0172 8.0423 -2.7026 0.2315 0 7
7.9441 8.1145 -2.7026 0.2315 0 7
7.8704 8.1860 -2.7026 0.2315 0 7
7.7960 8.2569 -2.7026 0.2315 0 7
7.7210 8.3270 -2.7026 0.2315 0 7
7.6454 8.3965 -2.7026 0.2315 0 7
7.5691 8.4653 -2.7026 0.2315 0 7
7.4923 8.5335 -2.7026 0.2315 0 7
7.4148 8.6009 -2.7026 0.2315 0 7
7.3367 8.6676 -2.7026 0.2315 0 7
7.2579 8.7336 -2.7026 0.2315 0 7
7.1787 8.7989 -2.7026 0.2315 0 7
7.0988 8.8635 -2.7026 0.2315 0 7
7.0183 8.9273 -2.7026 0.2315 0 7
6.9373 8.9905 -2.7026 0.2315 0 7
6.8557 9.0528 -2.7026 0.2315 0 7
6.7735 9.1145 -2.7026 0.2315 0 7
6.6908 9.1754 -2.7026 0.2315 0 7
6.6075 9.2355 -2.7026 0.2315 0 7
6.5237 9.2949 -2.7026 0.2315 0 7
6.4393 9.3535 -2.7026 0.2315 0 7
6.3545 9.4114 -2.7026 0.2315 0 7
6.2691 9.4685 -2.7026 0.2315 0 7
6.1832 9.5248 -2.7026 0.2315 0 7
6.0968 9.5804 -2.7026 0.2315 0 7
6.0099 9.6351 -2.7026 0.2315 0 7
5.9225 9.6891 -2.7026 0.2315 0 7
5.8346 9.7422 -2.7026 0.2315 0 7
5.7462 9.7946 -2.7026 0.2315 0 7
5.6574 9.8462 -2.7026 0.2315 0 7
5.5681 9.8970 -2.7026 0.2315 0 7
5.4784 9.9470 -2.7026 0.2315 0 7
5.3881 9.9961 -2.7026 0.2315 0 7
5.2975 10.0444 -2.7026 0.2315 0 7
5.2064 10.0919 -2.7026 0.2315 0 7
5.1149 10.1386 -2.7026 0.2315 0 7
5.0170 10.1722 -2.6994 0.5829 0 8
4.8728 10.1094 -2.6709 0.6664 0 8
4.7381 10.0615 -2.6468 0.7356 0 8
4.6097 10.0231 -2.6256 0.7415 0 8
4.4884 9.9966 -2.6079 0.7973 0 8
4.3699 9.9731 -2.5914 0.8432 0 8
4.2558 9.9567 -2.5770 0.8479 0 8
4.1449 9.9454 -2.5643 0.7742 0 8
4.0446 9.9574 -2.5578 0.2315 0 8
3.9544 9.9935 -2.5578 0.2315 0 8
3.8638 10.0289 -2.5578 0.2315 0 8
3.7729 10.0634 -2.5578 0.2315 0 8
3.6845 10.1047 -2.5598 0.8322 0 8
3.5903 10.1300 -2.5578 0.2315 0 14
3.4985 10.1621 -2.5578 0.2315 0 14
3.4064 10.1933 -2.5578 0.2315 0 14
3.3141 10.2237 -2.5578 0.2315 0 14
3.2250 10.2645 -2.5607 0.8247 0 8
3.1286 10.2820 -2.5578 0.2315 0 8
3.0355 10.3100 -2.5579 0.2313 0 8
2.9424 10.3379 -2.5581 0.2476 0 8
2.8525 10.3778 -2.5615 0.7466 0 8
2.7736 10.4601 -2.5755 0.7861 0 8
2.6977 10.5583 -2.5935 0.7806 0 8
2.6239 10.6709 -2.6153 0.7101 0 8
2.5514 10.7967 -2.6403 0.6395 0 8
2.4807 10.9383 -2.6694 0.5709 0 8
2.4113 11.0968 -2.7026 0.2315 0 7
2.3108 11.1182 -2.7026 0.2315 0 7
2.2101 11.1386 -2.7026 0.2315 0 7
2.1093 11.1582 -2.7026 0.2315 0 7
2.0083 11.1768 -2.7026 0.2315 0 7
1.9071 11.1945 -2.7026 0.2315 0 6
1.8058 11.2113 -2.7026 0.2315 0 6
1.7043 11.2272 -2.7026 0.2315 0 6
1.6027 11.2421 -2.7026 0.2315 0 6
1.5009 11.2562 -2.7026 0.2315 0 6
1.3990 11.2693 -2.7026 0.2315 0 6
1.2970 11.2815 -2.7026 0.2315 0 6
1.1949 11.2928 -2.7026 0.2315 0 6
1.0927 11.3031 -2.7026 0.2315 0 6
0.9905 11.3125 -2.7026 0.2315 0 6
0.8881 11.3210 -2.7026 0.2315 0 7
0.7856 11.3286 -2.7026 0.2315 0 7
0.6831 11.3352 -2.7026 0.2315 0 7
0.5806 11.3409 -2.7026 0.2315 0 6
0.4780 11.3457 -2.7026 0.2315 0 6
0.3753 11.3496 -2.7026 0.2315 0 6
0.2727 11.3525 -2.7026 0.2315 0 6
0.1700 11.3545 -2.7026 0.2315 0 6
0.0672 11.3556 -2.7026 0.2315 0 7
-0.0355 11.3557 -2.7026 0.2315 0 7
-0.1382 11.3549 -2.7026 0.2315 0 7
-0.2409 11.3532 -2.7026 0.2315 0 7
-0.3436 11.3506 -2.7026 0.2315 0 7
-0.4462 11.3470 -2.7026 0.2315 0 7
-0.5489 11.3425 -2.7026 0.2315 0 6
-0.6514 11.3371 -2.7026 0.2315 0 6
-0.7540 11.3307 -2.7026 0.2315 0 6
-0.8564 11.3234 -2.7026 0.2315 0 6
-0.9588 11.3152 -2.7026 0.2315 0 6
-1.0611 11.3061 -2.7026 0.2315 0 7
-1.1633 11.2960 -2.7026 0.2315 0 7
-1.2655 11.2850 -2.7026 0.2315 0 7
-1.3675 11.2731 -2.7026 0.2315 0 7
-1.4694 11.2603 -2.7026 0.2315 0 7
-1.5712 11.2466 -2.7026 0.2315 0 6
-1.6729 11.2319 -2.7026 0.2315 0 6
-1.7744 11.2163 -2.7026 0.2315 0 6
-1.8758 11.1998 -2.7026 0.2315 0 6
-1.9770 11.1824 -2.7026 0.2315 0 6
-2.0781 11.1640 -2.7026 0.2315 0 7
-2.1790 11.1448 -2.7026 0.2315 0 7
-2.2797 11.1246 -2.7026 0.2315 0 7
-2.3802 11.1035 -2.7026 0.2315 0 7
-2.4806 11.0815 -2.7026 0.2315 0 7
-2.5807 11.0587 -2.7026 0.2315 0 6
-2.6806 11.0349 -2.7026 0.2315 0 6
-2.7803 11.0101 -2.7026 0.2315 0 6
-2.8798 10.9846 -2.7026 0.2315 0 6
-2.9791 10.9581 -2.7026 0.2315 0 6
-3.0781 10.9307 -2.7026 0.2315 0 7
-3.1768 10.9024 -2.7026 0.2315 0 7
-3.2753 10.8732 -2.7026 0.2315 0 7
-3.3735 10.8431 -2.7026 0.2315 0 7
-3.4715 10.8122 -2.7026 0.2315 0 7
-3.5691 10.7803 -2.7026 0.2315 0 6
-3.6665 10.7476 -2.7026 0.2315 0 6
-3.7635 10.7140 -2.7026 0.2315 0 6
-3.8603 10.6795 -2.7026 0.2315 0 6
-3.9567 10.6441 -2.7026 0.2315 0 6
-4.0529 10.6079 -2.7026 0.2315 0 7
-4.1486 10.5708 -2.7026 0.2315 0 7
-4.2441 10.5329 -2.7026 0.2315 0 7
-4.3392 10.4941 -2.7026 0.2315 0 7
-4.4339 10.4544 -2.7026 0.2315 0 7
-4.5283 10.4138 -2.7026 0.2315 0 6
-4.6223 10.3725 -2.7026 0.2315 0 6
-4.7160 10.3302 -2.7026 0.2315 0 6
-4.8092 10.2871 -2.7026 0.2315 0 6
-4.9021 10.2432 -2.7026 0.2315 0 6
-4.9945 10.1985 -2.7026 0.2315 0 7
-5.0866 10.1529 -2.7026 0.2315 0 7
-5.1782 10.1064 -2.7026 0.2315 0 7
-5.2694 10.0592 -2.7026 0.2315 0 7
-5.3602 10.0111 -2.7026 0.2315 0 7
-5.4505 9.9622 -2.7026 0.2315 0 6
-5.5404 9.9125 -2.7026 0.2315 0 6
-5.6298 9.8620 -2.7026 0.2315 0 6
-5.7188 9.8107 -2.7026 0.2315 0 6
-5.8073 9.7585 -2.7026 0.2315 0 6
-5.8954 9.7056 -2.7026 0.2315 0 6
-5.9829 9.6519 -2.7026 0.2315 0 6
-6.0700 9.5974 -2.7026 0.2315 0 6
-6.1565 9.5421 -2.7026 0.2315 0 6
-6.2426 9.4860 -2.7026 0.2315 0 6
-6.3281 9.4291 -2.7026 0.2315 0 6
-6.4132 9.3715 -2.7026 0.2315 0 7
-6.4977 9.3131 -2.7026 0.2315 0 7
-6.5816 9.2540 -2.7026 0.2315 0 7
-6.6651 9.1941 -2.7026 0.2315 0 7
-6.7480 9.1334 -2.7026 0.2315 0 7
-6.8303 9.0720 -2.7026 0.2315 0 7
-6.9121 9.0098 -2.7026 0.2315 0 7
-6.9933 8.9469 -2.7026 0.2315 0 7
-7.0739 8.8833 -2.7026 0.2315 0 7
-7.1540 8.8190 -2.7026 0.2315 0 7
-7.2335 8.7539 -2.7026 0.2315 0 7
-7.3124 8.6881 -2.7026 0.2315 0 7
-7.3907 8.6216 -2.7026 0.2315 0 7
-7.4683 8.5544 -2.7026 0.2315 0 7
-7.5454 8.4865 -2.7026 0.2315 0 7
-7.6219 8.4179 -2.7026 0.2315 0 7
-7.6977 8.3486 -2.7026 0.2315 0 7
-7.7729 8.2786 -2.7026 0.2315 0 7
-7.8475 8.2080 -2.7026 0.2315 0 7
-7.9214 8.1367 -2.7026 0.2315 0 7
-7.9947 8.0647 -2.7026 0.2315 0 7
-8.0673 7.9920 -2.7026 0.2315 0 7
-8.1393 7.9187 -2.7026 0.2315 0 7
-8.2106 7.8448 -2.7026 0.2315 0 7
-8.2812 7.7702 -2.7026 0.2315 0 7
-8.3500 7.6940 -2.7023 0.2465 0 8
-8.4172 7.6162 -2.7016 0.2466 0 8
-8.4837 7.5379 -2.7009 0.2466 0 8
-8.5495 7.4591 -2.7003 0.2467 0 8
-8.6146 7.3797 -2.6997 0.2467 0 8
-8.6790 7.2999 -2.6990 0.2468 0 8
-8.7427 7.2194 -2.6984 0.2469 0 8
-8.8057 7.1385 -2.6979 0.2469 0 8
-8.8682 7.0572 -2.6973 0.2473 0 8
-8.9301 6.9755 -2.6969 0.2473 0 8
-8.9913 6.8932 -2.6964 0.2474 0 8
-9.0519 6.8105 -2.6960 0.2474 0 8
-9.1117 6.7273 -2.6955 0.2474 0 8
-9.1709 6.6437 -2.6952 0.2477 0 8
-9.2227 6.5548 -2.6929 0.9811 0 8
-9.2663 6.4605 -2.6884 0.9827 0 8
-9.3098 6.3665 -2.6842 0.9843 0 8
-9.3532 6.2727 -2.6803 0.9857 0 8
-9.3996 6.1813 -2.6774 0.9933 0 8
-9.4468 6.0906 -2.6751 0.9942 0 8
-9.4938 6.0001 -2.6729 0.9950 0 8
-9.5407 5.9097 -2.6710 0.9957 0 8
-9.5877 5.8194 -2.6693 0.9985 0 8
-9.6385 5.7316 -2.6689 0.9987 0 8
-9.6893 5.6438 -2.6687 0.9987 0 8
-9.7401 5.5560 -2.6687 0.9987 0 8
-9.7909 5.4682 -2.6690 0.9986 0 8
-9.8423 5.3807 -2.6696 0.9973 0 8
-9.8972 5.2950 -2.6714 0.9934 0 8
-9.9542 5.2102 -2.6740 0.9925 0 8
-10.0113 5.1253 -2.6767 0.9914 0 8
-10.0685 5.0401 -2.6797 0.9903 0 8
-10.1257 4.9548 -2.6829 0.9891 0 8
-10.1831 4.8692 -2.6863 0.9879 0 8
-10.2406 4.7833 -2.6900 0.9865 0 8
-10.3027 4.6993 -2.6950 0.2475 0 8
-10.3463 4.6066 -2.6954 0.2475 0 8
-10.3892 4.5135 -2.6958 0.2474 0 8
-10.4312 4.4201 -2.6963 0.2474 0 8
-10.4725 4.3263 -2.6967 0.2473 0 8
-10.5130 4.2321 -2.6972 0.2473 0 8
-10.5528 4.1375 -2.6977 0.2473 0 8
-10.5920 4.0428 -2.6982 0.2468 0 8
-10.6306 3.9477 -2.6988 0.2467 0 8
-10.6684 3.8523 -2.6995 0.2466 0 8
-10.7054 3.7566 -2.7001 0.2466 0 8
-10.7416 3.6605 -2.7008 0.2465 0 8
-1.6199 0.5357 -0.4061 0.1185 632 10
-1.6141 0.5176 -0.4034 0.1193 632 10
-1.6081 0.4997 -0.4008 0.1201 632 10
-1.6020 0.4820 -0.3982 0.1209 632 10
-1.5957 0.4644 -0.3955 0.1217 632 10
-1.5892 0.4470 -0.3929 0.1225 632 10
-1.5837 0.4300 -0.3906 0.2049 632 10
-1.5796 0.4135 -0.3886 0.2060 632 10
-1.5753 0.3973 -0.3867 0.2070 632 10
-1.5710 0.3811 -0.3847 0.2080 632 10
-1.5665 0.3650 -0.3828 0.2091 632 10
-1.5620 0.3491 -0.3809 0.2101 632 10
-1.5574 0.3333 -0.3790 0.2112 632 10
-1.5527 0.3176 -0.3772 0.2122 632 10
-1.5478 0.3021 -0.3753 0.2132 632 10
-1.5472 0.2875 -0.3745 0.2334 632 10
-1.5485 0.2732 -0.3742 0.2326 632 10
-1.5498 0.2590 -0.3740 0.2327 632 10
-1.5510 0.2448 -0.3737 0.2329 632 10
-1.5520 0.2306 -0.3734 0.2331 632 10
-1.5529 0.2164 -0.3732 0.2332 632 10
-1.5537 0.2022 -0.3729 0.2334 632 10
-1.5543 0.1880 -0.3726 0.2336 632 10
-1.5549 0.1738 -0.3724 0.2337 632 10
-1.5552 0.1597 -0.3721 0.2339 632 10
-1.5555 0.1455 -0.3718 0.2341 632 10
-1.5557 0.1313 -0.3716 0.2342 632 10
-1.5557 0.1172 -0.3713 0.2344 632 10
-1.5556 0.1030 -0.3710 0.2346 632 10
-1.5553 0.0888 -0.3708 0.2347 632 10
-1.5550 0.0747 -0.3705 0.2349 632 10
-1.5545 0.0606 -0.3702 0.2351 632 10
-1.5539 0.0465 -0.3700 0.2352 632 10
-1.5532 0.0324 -0.3697 0.2354 632 10
-1.5523 0.0184 -0.3695 0.2356 632 10
-1.5513 0.0043 -0.3692 0.2357 632 10
-1.5517 -0.0097 -0.3693 0.2357 632 10
-1.5527 -0.0238 -0.3696 0.2355 632 10
-1.5535 -0.0378 -0.3698 0.2353 632 10
-1.5541 -0.0519 -0.3701 0.2352 632 10
-1.5547 -0.0660 -0.3703 0.2350 632 10
-1.5551 -0.0801 -0.3706 0.2348 632 10
-1.5554 -0.0943 -0.3709 0.2347 632 10
-1.5556 -0.1084 -0.3711 0.2345 632 10
-1.5557 -0.1225 -0.3714 0.2343 632 10
-1.5556 -0.1367 -0.3717 0.2342 632 10
-1.5554 -0.1509 -0.3719 0.2340 632 10
-1.5551 -0.1651 -0.3722 0.2338 632 10
-1.5547 -0.1793 -0.3725 0.2337 632 10
-1.5541 -0.1935 -0.3727 0.2335 632 10
-1.5534 -0.2077 -0.3730 0.2333 632 10
-1.5526 -0.2218 -0.3733 0.2332 632 10
-1.5516 -0.2361 -0.3735 0.2330 632 10
-1.5505 -0.2503 -0.3738 0.2328 632 10
-1.5493 -0.2645 -0.3741 0.2327 632 10
-1.5480 -0.2787 -0.3743 0.2325 632 10
-1.5467 -0.2929 -0.3747 0.2333 632 10
-1.5497 -0.3080 -0.3760 0.2128 632 10
-1.5545 -0.3236 -0.3779 0.2118 632 10
-1.5592 -0.3393 -0.3798 0.2108 632 10
-1.5637 -0.3552 -0.3816 0.2097 632 10
-1.5682 -0.3711 -0.3835 0.2087 632 10
-1.5726 -0.3872 -0.3855 0.2076 632 10
-1.5769 -0.4034 -0.3874 0.2066 632 10
-1.5811 -0.4198 -0.3893 0.2056 632 10
-1.5852 -0.4363 -0.3913 0.2045 632 10
-1.5917 -0.4536 -0.3939 0.1222 632 10
-1.5981 -0.4711 -0.3965 0.1214 632 10
-1.6044 -0.4888 -0.3992 0.1206 632 10
-1.6104 -0.5066 -0.4018 0.1198 632 10
-1.6163 -0.5245 -0.4044 0.1190 632 10
-1.6221 -0.5426 -0.4071 0.1182 632 10
-10.7361 -3.7000 -2.7026 0.2315 0 7
-10.7022 -3.7970 -2.7026 0.2315 0 7
-10.6674 -3.8937 -2.7026 0.2315 0 7
-10.6317 -3.9900 -2.7026 0.2315 0 7
-10.5952 -4.0860 -2.7026 0.2315 0 7
-10.5578 -4.1817 -2.7026 0.2315 0 7
-10.5196 -4.2770 -2.7026 0.2315 0 7
-10.4804 -4.3720 -2.7026 0.2315 0 7
-10.4405 -4.4666 -2.7026 0.2315 0 7
-10.3996 -4.5608 -2.7026 0.2315 0 7
-10.3580 -4.6547 -2.7026 0.2315 0 7
-10.3154 -4.7482 -2.7026 0.2315 0 7
-10.2721 -4.8413 -2.7026 0.2315 0 7
-10.2278 -4.9341 -2.7026 0.2315 0 7
-10.1828 -5.0264 -2.7026 0.2315 0 7
-10.1369 -5.1183 -2.7026 0.2315 0 7
-10.0902 -5.2097 -2.7026 0.2315 0 7
-10.0427 -5.3008 -2.7026 0.2315 0 7
-9.9943 -5.3914 -2.7026 0.2315 0 7
-9.9451 -5.4816 -2.7026 0.2315 0 7
-9.8951 -5.5714 -2.7026 0.2315 0 7
-9.8443 -5.6606 -2.7026 0.2315 0 7
-9.7927 -5.7494 -2.7026 0.2315 0 7
-9.7403 -5.8378 -2.7026 0.2315 0 7
-9.6871 -5.9256 -2.7026 0.2315 0 7
-9.6331 -6.0130 -2.7026 0.2315 0 7
-9.5784 -6.0999 -2.7026 0.2315 0 7
-9.5228 -6.1863 -2.7026 0.2315 0 7
-9.4664 -6.2722 -2.7026 0.2315 0 7
-9.4093 -6.3575 -2.7026 0.2315 0 7
-9.3514 -6.4424 -2.7026 0.2315 0 7
-9.2928 -6.5267 -2.7026 0.2315 0 7
-9.2333 -6.6105 -2.7026 0.2315 0 7
-9.1732 -6.6938 -2.7026 0.2315 0 7
-9.1123 -6.7765 -2.7026 0.2315 0 7
-9.0506 -6.8586 -2.7026 0.2315 0 7
-8.9882 -6.9402 -2.7026 0.2315 0 7
-8.9250 -7.0212 -2.7026 0.2315 0 7
-8.8611 -7.1017 -2.7026 0.2315 0 7
-8.7965 -7.1815 -2.7026 0.2315 0 7
-8.7312 -7.2608 -2.7026 0.2315 0 7
-8.6652 -7.3395 -2.7026 0.2315 0 7
-8.5985 -7.4176 -2.7026 0.2315 0 7
-8.5310 -7.4950 -2.7026 0.2315 0 7
-8.4629 -7.5719 -2.7026 0.2315 0 7
-8.3940 -7.6482 -2.7026 0.2315 0 7
-8.3245 -7.7237 -2.7026 0.2315 0 7
-8.2543 -7.7987 -2.7026 0.2315 0 7
-8.1834 -7.8731 -2.7026 0.2315 0 7
-8.1119 -7.9468 -2.7026 0.2315 0 7
-8.0397 -8.0198 -2.7026 0.2315 0 7
-7.9668 -8.0922 -2.7026 0.2315 0 7
-7.8932 -8.1640 -2.7026 0.2315 0 7
-7.8191 -8.2350 -2.7026 0.2315 0 7
-7.7443 -8.3054 -2.7026 0.2315 0 7
-7.6688 -8.3751 -2.7026 0.2315 0 7
-7.5928 -8.4441 -2.7026 0.2315 0 7
-7.5161 -8.5125 -2.7026 0.2315 0 7
-7.4388 -8.5801 -2.7026 0.2315 0 7
-7.3609 -8.6471 -2.7026 0.2315 0 7
-7.2823 -8.7133 -2.7026 0.2315 0 7
-7.2032 -8.7788 -2.7026 0.2315 0 7
-7.1235 -8.8436 -2.7026 0.2315 0 7
-7.0432 -8.9077 -2.7026 0.2315 0 7
-6.9624 -8.9710 -2.7026 0.2315 0 7
-6.8809 -9.0336 -2.7026 0.2315 0 7
-6.7989 -9.0955 -2.7026 0.2315 0 7
-6.7164 -9.1566 -2.7026 0.2315 0 7
-6.6333 -9.2170 -2.7026 0.2315 0 7
-6.5497 -9.2766 -2.7026 0.2315 0 7
-6.4655 -9.3355 -2.7026 0.2315 0 7
-6.3808 -9.3936 -2.7026 0.2315 0 7
-6.2955 -9.4509 -2.7026 0.2315 0 7
-6.2098 -9.5075 -2.7026 0.2315 0 7
-6.1235 -9.5633 -2.7026 0.2315 0 7
-6.0368 -9.6183 -2.7026 0.2315 0 7
-5.9495 -9.6725 -2.7026 0.2315 0 7
-5.8618 -9.7259 -2.7026 0.2315 0 7
-5.7736 -9.7785 -2.7026 0.2315 0 7
-5.6849 -9.8303 -2.7026 0.2315 0 7
-5.5958 -9.8813 -2.7026 0.2315 0 7
-5.5061 -9.9316 -2.7026 0.2315 0 7
-5.4161 -9.9810 -2.7026 0.2315 0 7
-5.3256 -10.0296 -2.7026 0.2315 0 7
-5.2346 -10.0773 -2.7026 0.2315 0 7
-5.1433 -10.1243 -2.7026 0.2315 0 7
-5.0515 -10.1704 -2.7026 0.2315 0 7
-4.9593 -10.2156 -2.7026 0.2315 0 7
-4.8667 -10.2601 -2.7026 0.2315 0 7
-4.7737 -10.3037 -2.7026 0.2315 0 7
-4.6803 -10.3464 -2.7026 0.2315 0 7
-4.5865 -10.3883 -2.7026 0.2315 0 7
-4.4923 -10.4294 -2.7026 0.2315 0 7
-4.3978 -10.4696 -2.7026 0.2315 0 7
-4.3029 -10.5090 -2.7026 0.2315 0 7
-4.2077 -10.5475 -2.7026 0.2315 0 7
-4.1121 -10.5851 -2.7026 0.2315 0 7
-4.0162 -10.6219 -2.7026 0.2315 0 7
-3.9200 -10.6577 -2.7026 0.2315 0 7
-3.8234 -10.6928 -2.7026 0.2315 0 7
-3.7265 -10.7269 -2.7026 0.2315 0 7
-3.6293 -10.7602 -2.7026 0.2315 0 7
-3.5319 -10.7926 -2.7026 0.2315 0 7
-3.4341 -10.8241 -2.7026 0.2315 0 7
-3.3360 -10.8547 -2.7026 0.2315 0 7
-3.2377 -10.8844 -2.7026 0.2315 0 7
-3.1391 -10.9133 -2.7026 0.2315 0 7
-3.0403 -10.9412 -2.7026 0.2315 0 7
-2.9412 -10.9683 -2.7026 0.2315 0 7
-2.8419 -10.9944 -2.7026 0.2315 0 7
-2.7423 -11.0197 -2.7026 0.2315 0 7
-2.6425 -11.0440 -2.7026 0.2315 0 7
-2.5425 -11.0675 -2.7026 0.2315 0 7
-2.4423 -11.0900 -2.7026 0.2315 0 7
-2.3419 -11.1117 -2.7026 0.2315 0 7
-2.2413 -11.1324 -2.7026 0.2315 0 7
-2.1405 -11.1522 -2.7026 0.2315 0 7
-2.0395 -11.1711 -2.7026 0.2315 0 7
-1.9384 -11.1891 -2.7026 0.2315 0 7
-1.8371 -11.2062 -2.7026 0.2315 0 7
-1.7356 -11.2224 -2.7026 0.2315 0 7
-1.6341 -11.2376 -2.7026 0.2315 0 7
-1.5324 -11.2519 -2.7026 0.2315 0 7
-1.4305 -11.2653 -2.7026 0.2315 0 7
-1.3286 -11.2778 -2.7026 0.2315 0 7
-1.2265 -11.2894 -2.7026 0.2315 0 7
-1.1243 -11.3000 -2.7026 0.2315 0 7
-1.0221 -11.3097 -2.7026 0.2315 0 7
-0.9197 -11.3185 -2.7026 0.2315 0 7
-0.8173 -11.3263 -2.7026 0.2315 0 7
-0.7148 -11.3333 -2.7026 0.2315 0 7
-0.6123 -11.3393 -2.7026 0.2315 0 7
-0.5097 -11.3443 -2.7026 0.2315 0 7
-0.4071 -11.3485 -2.7026 0.2315 0 7
-0.3044 -11.3517 -2.7026 0.2315 0 7
-0.2017 -11.3540 -2.7026 0.2315 0 7
-0.0990 -11.3553 -2.7026 0.2315 0 7
0.0037 -11.3558 -2.7026 0.2315 0 7
0.1065 -11.3553 -2.7026 0.2315 0 7
0.2092 -11.3538 -2.7026 0.2315 0 7
0.3119 -11.3515 -2.7026 0.2315 0 7
0.4145 -11.3482 -2.7026 0.2315 0 7
0.5172 -11.3440 -2.7026 0.2315 0 7
0.6197 -11.3388 -2.7026 0.2315 0 7
0.7223 -11.3328 -2.7026 0.2315 0 7
0.8248 -11.3258 -2.7026 0.2315 0 7
0.9272 -11.3179 -2.7026 0.2315 0 7
1.0295 -11.3090 -2.7026 0.2315 0 7
1.1318 -11.2992 -2.7026 0.2315 0 7
1.2339 -11.2885 -2.7026 0.2315 0 7
1.3360 -11.2769 -2.7026 0.2315 0 7
1.4379 -11.2644 -2.7026 0.2315 0 7
1.5398 -11.2509 -2.7026 0.2315 0 7
1.6415 -11.2365 -2.7026 0.2315 0 7
1.7430 -11.2212 -2.7026 0.2315 0 7
1.8445 -11.2050 -2.7026 0.2315 0 7
1.9457 -11.1878 -2.7026 0.2315 0 7
2.0469 -11.1698 -2.7026 0.2315 0 7
2.1478 -11.1508 -2.7026 0.2315 0 7
2.2486 -11.1309 -2.7026 0.2315 0 7
2.3492 -11.1101 -2.7026 0.2315 0 7
2.4496 -11.0884 -2.7026 0.2315 0 7
2.5498 -11.0658 -2.7026 0.2315 0 7
2.6498 -11.0423 -2.7026 0.2315 0 7
2.7495 -11.0179 -2.7026 0.2315 0 7
2.8491 -10.9926 -2.7026 0.2315 0 7
2.9484 -10.9663 -2.7026 0.2315 0 7
3.0475 -10.9392 -2.7026 0.2315 0 7
3.1463 -10.9112 -2.7026 0.2315 0 7
3.2449 -10.8823 -2.7026 0.2315 0 7
3.3432 -10.8525 -2.7026 0.2315 0 7
3.4412 -10.8218 -2.7026 0.2315 0 7
3.5390 -10.7902 -2.7026 0.2315 0 7
3.6364 -10.7578 -2.7026 0.2315 0 7
3.7336 -10.7245 -2.7026 0.2315 0 7
3.8304 -10.6903 -2.7026 0.2315 0 7
3.9270 -10.6552 -2.7026 0.2315 0 7
4.0232 -10.6192 -2.7026 0.2315 0 7
4.1191 -10.5824 -2.7026 0.2315 0 7
4.2146 -10.5447 -2.7026 0.2315 0 7
4.3098 -10.5061 -2.7026 0.2315 0 7
4.4047 -10.4667 -2.7026 0.2315 0 7
4.4992 -10.4265 -2.7026 0.2315 0 7
4.5933 -10.3853 -2.7026 0.2315 0 7
4.6871 -10.3434 -2.7026 0.2315 0 7
4.7804 -10.3005 -2.7026 0.2315 0 7
4.8734 -10.2569 -2.7026 0.2315 0 7
4.9660 -10.2124 -2.7026 0.2315 0 7
5.0582 -10.1670 -2.7026 0.2315 0 7
5.1499 -10.1209 -2.7026 0.2315 0 7
5.2413 -10.0739 -2.7026 0.2315 0 7
5.3322 -10.0260 -2.7026 0.2315 0 7
5.4226 -9.9774 -2.7026 0.2315 0 7
5.5127 -9.9279 -2.7026 0.2315 0 7
5.6022 -9.8777 -2.7026 0.2315 0 7
5.6914 -9.8266 -2.7026 0.2315 0 7
5.7800 -9.7747 -2.7026 0.2315 0 7
5.8682 -9.7220 -2.7026 0.2315 0 7
5.9559 -9.6686 -2.7026 0.2315 0 7
6.0431 -9.6143 -2.7026 0.2315 0 7
6.1298 -9.5592 -2.7026 0.2315 0 7
6.2160 -9.5034 -2.7026 0.2315 0 7
6.3018 -9.4468 -2.7026 0.2315 0 7
6.3869 -9.3894 -2.7026 0.2315 0 7
6.4716 -9.3312 -2.7026 0.2315 0 7
6.5557 -9.2723 -2.7026 0.2315 0 7
6.6394 -9.2126 -2.7026 0.2315 0 7
6.7224 -9.1522 -2.7026 0.2315 0 7
6.8049 -9.0910 -2.7026 0.2315 0 7
6.8869 -9.0291 -2.7026 0.2315 0 7
6.9683 -8.9664 -2.7026 0.2315 0 7
7.0491 -8.9030 -2.7026 0.2315 0 7
7.1293 -8.8389 -2.7026 0.2315 0 7
7.2090 -8.7741 -2.7026 0.2315 0 7
7.2881 -8.7085 -2.7026 0.2315 0 7
7.3665 -8.6422 -2.7026 0.2315 0 7
7.4444 -8.5752 -2.7026 0.2315 0 7
7.5217 -8.5075 -2.7026 0.2315 0 7
7.5983 -8.4392 -2.7026 0.2315 0 7
7.6743 -8.3701 -2.7026 0.2315 0 7
7.7497 -8.3003 -2.7026 0.2315 0 7
7.8245 -8.2299 -2.7026 0.2315 0 7
7.8986 -8.1588 -2.7026 0.2315 0 7
7.9721 -8.0870 -2.7026 0.2315 0 7
8.0449 -8.0145 -2.7026 0.2315 0 7
8.1171 -7.9414 -2.7026 0.2315 0 7
8.1886 -7.8677 -2.7026 0.2315 0 7
8.2594 -7.7933 -2.7026 0.2315 0 7
8.3296 -7.7183 -2.7026 0.2315 0 7
8.3990 -7.6426 -2.7026 0.2315 0 7
8.4678 -7.5663 -2.7026 0.2315 0 7
8.5359 -7.4894 -2.7026 0.2315 0 7
8.6033 -7.4119 -2.7026 0.2315 0 7
8.6700 -7.3338 -2.7026 0.2315 0 7
8.7360 -7.2551 -2.7026 0.2315 0 7
8.8013 -7.1758 -2.7026 0.2315 0 7
8.8658 -7.0958 -2.7026 0.2315 0 7
8.9296 -7.0154 -2.7026 0.2315 0 7
8.9927 -6.9343 -2.7026 0.2315 0 7
9.0551 -6.8527 -2.7026 0.2315 0 7
9.1167 -6.7705 -2.7026 0.2315 0 7
9.1776 -6.6877 -2.7026 0.2315 0 7
9.2377 -6.6045 -2.7026 0.2315 0 7
9.2971 -6.5206 -2.7026 0.2315 0 7
9.3556 -6.4363 -2.7026 0.2315 0 7
9.4135 -6.3514 -2.7026 0.2315 0 7
9.4706 -6.2660 -2.7026 0.2315 0 7
9.5268 -6.1800 -2.7026 0.2315 0 7
9.5823 -6.0936 -2.7026 0.2315 0 7
9.6371 -6.0067 -2.7026 0.2315 0 7
9.6910 -5.9193 -2.7026 0.2315 0 7
9.7442 -5.8314 -2.7026 0.2315 0 7
9.7965 -5.7430 -2.7026 0.2315 0 7
9.8481 -5.6542 -2.7026 0.2315 0 7
9.8988 -5.5648 -2.7026 0.2315 0 7
9.9487 -5.4751 -2.7026 0.2315 0 7
9.9979 -5.3849 -2.7026 0.2315 0 7
10.0461 -5.2942 -2.7026 0.2315 0 7
10.0936 -5.2031 -2.7026 0.2315 0 7
10.1403 -5.1116 -2.7026 0.2315 0 7
10.1861 -5.0197 -2.7026 0.2315 0 7
10.2311 -4.9273 -2.7026 0.2315 0 7
10.2752 -4.8346 -2.7026 0.2315 0 7
10.3185 -4.7414 -2.7026 0.2315 0 7
10.3610 -4.6479 -2.7026 0.2315 0 7
10.4026 -4.5540 -2.7026 0.2315 0 7
10.4434 -4.4597 -2.7026 0.2315 0 7
10.4833 -4.3651 -2.7026 0.2315 0 7
10.5224 -4.2701 -2.7026 0.2315 0 7
10.5606 -4.1747 -2.7026 0.2315 0 7
10.5979 -4.0790 -2.7026 0.2315 0 7
10.6344 -3.9830 -2.7026 0.2315 0 7
10.6699 -3.8866 -2.7026 0.2315 0 7
10.7047 -3.7900 -2.7026 0.2315 0 7
10.7385 -3.6930 -2.7026 0.2315 0 7
10.7715 -3.5957 -2.7026 0.2315 0 7
10.8035 -3.4981 -2.7026 0.2315 0 7
10.8348 -3.4002 -2.7026 0.2315 0 7
10.8651 -3.3021 -2.7026 0.2315 0 7
10.8945 -3.2037 -2.7026 0.2315 0 7
10.9230 -3.1050 -2.7026 0.2315 0 7
10.9507 -3.0061 -2.7026 0.2315 0 7
10.9774 -2.9069 -2.7026 0.2315 0 7
11.0033 -2.8075 -2.7026 0.2315 0 7
11.0282 -2.7078 -2.7026 0.2315 0 7
11.0523 -2.6080 -2.7026 0.2315 0 7
11.0754 -2.5079 -2.7026 0.2315 0 7
11.0976 -2.4076 -2.7026 0.2315 0 7
11.1189 -2.3071 -2.7026 0.2315 0 7
11.1393 -2.2065 -2.7026 0.2315 0 7
11.1589 -2.1056 -2.7026 0.2315 0 7
11.1774 -2.0046 -2.7026 0.2315 0 7
11.1951 -1.9034 -2.7026 0.2315 0 7
11.2119 -1.8021 -2.7026 0.2315 0 7
11.2277 -1.7006 -2.7026 0.2315 0 7
11.2427 -1.5989 -2.7026 0.2315 0 7
11.2566 -1.4972 -2.7026 0.2315 0 7
11.2697 -1.3953 -2.7026 0.2315 0 7
11.2819 -1.2933 -2.7026 0.2315 0 7
11.2931 -1.1912 -2.7026 0.2315 0 7
11.3034 -1.0890 -2.7026 0.2315 0 7
11.3128 -0.9867 -2.7026 0.2315 0 7
11.3213 -0.8844 -2.7026 0.2315 0 7
11.3288 -0.7819 -2.7026 0.2315 0 7
11.3354 -0.6794 -2.7026 0.2315 0 7
11.3411 -0.5768 -2.7026 0.2315 0 7
11.3459 -0.4742 -2.7026 0.2315 0 7
11.3497 -0.3716 -2.7026 0.2315 0 7
11.3526 -0.2689 -2.7026 0.2315 0 7
11.3546 -0.1662 -2.7026 0.2315 0 7
11.3556 -0.0635 -2.7026 0.2315 0 7
11.3557 0.0392 -2.7026 0.2315 0 7
11.3549 0.1419 -2.7026 0.2315 0 7
11.3531 0.2446 -2.7026 0.2315 0 7
11.3505 0.3473 -2.7026 0.2315 0 7
11.3469 0.4500 -2.7026 0.2315 0 7
11.3423 0.5526 -2.7026 0.2315 0 7
11.3369 0.6552 -2.7026 0.2315 0 7
11.3305 0.7577 -2.7026 0.2315 0 7
11.3232 0.8601 -2.7026 0.2315 0 7
11.3149 0.9625 -2.7026 0.2315 0 7
11.3057 1.0649 -2.7026 0.2315 0 7
11.2957 1.1671 -2.7026 0.2315 0 7
11.2846 1.2692 -2.7026 0.2315 0 7
11.2727 1.3712 -2.7026 0.2315 0 7
11.2598 1.4731 -2.7026 0.2315 0 7
11.2460 1.5749 -2.7026 0.2315 0 7
11.2313 1.6766 -2.7026 0.2315 0 7
11.2157 1.7781 -2.7026 0.2315 0 7
11.1992 1.8795 -2.7026 0.2315 0 7
11.1817 1.9807 -2.7026 0.2315 0 7
11.1633 2.0818 -2.7026 0.2315 0 7
11.1440 2.1827 -2.7026 0.2315 0 7
11.1239 2.2834 -2.7026 0.2315 0 7
11.1027 2.3839 -2.7026 0.2315 0 7
11.0807 2.4842 -2.7026 0.2315 0 7
11.0578 2.5844 -2.7026 0.2315 0 7
11.0340 2.6843 -2.7026 0.2315 0 7
11.0092 2.7840 -2.7026 0.2315 0 7
10.9836 2.8834 -2.7026 0.2315 0 7
10.9571 2.9827 -2.7026 0.2315 0 7
10.9297 3.0817 -2.7026 0.2315 0 7
10.9013 3.1804 -2.7026 0.2315 0 7
10.8721 3.2789 -2.7026 0.2315 0 7
10.8420 3.3771 -2.7026 0.2315 0 7
10.8110 3.4750 -2.7026 0.2315 0 7
10.7791 3.5727 -2.7026 0.2315 0 7
10.7464 3.6700 -2.7026 0.2315 0 7
10.7127 3.7671 -2.7026 0.2315 0 7
10.6782 3.8638 -2.7026 0.2315 0 7
10.6429 3.9603 -2.7026 0.2315 0 7
10.6066 4.0564 -2.7026 0.2315 0 7
10.5695 4.1521 -2.7026 0.2315 0 7
10.5315 4.2476 -2.7026 0.2315 0 7
10.4926 4.3426 -2.7026 0.2315 0 7
10.4529 4.4374 -2.7026 0.2315 0 7
10.4124 4.5318 -2.7026 0.2315 0 7
10.3709 4.6258 -2.7026 0.2315 0 7
10.3287 4.7194 -2.7026 0.2315 0 7
10.2855 4.8126 -2.7026 0.2315 0 7
10.2416 4.9054 -2.7026 0.2315 0 7
10.1968 4.9979 -2.7026 0.2315 0 7
10.1512 5.0899 -2.7026 0.2315 0 7
10.1047 5.1815 -2.7026 0.2315 0 7
10.0574 5.2727 -2.7026 0.2315 0 7
10.0093 5.3635 -2.7026 0.2315 0 7
9.9604 5.4538 -2.7026 0.2315 0 7
9.9107 5.5437 -2.7026 0.2315 0 7
9.8601 5.6331 -2.7026 0.2315 0 7
9.8088 5.7221 -2.7026 0.2315 0 7
9.7566 5.8105 -2.7026 0.2315 0 7
9.7037 5.8985 -2.7026 0.2315 0 7
9.6499 5.9861 -2.7026 0.2315 0 7
9.5954 6.0731 -2.7026 0.2315 0 7
9.5400 6.1597 -2.7026 0.2315 0 7
9.4839 6.2457 -2.7026 0.2315 0 7
9.4270 6.3312 -2.7026 0.2315 0 7
9.3694 6.4162 -2.7026 0.2315 0 7
9.3110 6.5007 -2.7026 0.2315 0 7
9.2518 6.5847 -2.7026 0.2315 0 7
9.1919 6.6681 -2.7026 0.2315 0 7
9.1312 6.7510 -2.7026 0.2315 0 7
9.0697 6.8333 -2.7026 0.2315 0 7
9.0075 6.9150 -2.7026 0.2315 0 7
8.9446 6.9963 -2.7026 0.2315 0 7
8.8810 7.0769 -2.7026 0.2315 0 7
8.8166 7.1569 -2.7026 0.2315 0 7
8.7515 7.2364 -2.7026 0.2315 0 7
8.6857 7.3153 -2.7026 0.2315 0 7
8.6192 7.3935 -2.7026 0.2315 0 7
8.5519 7.4712 -2.7026 0.2315 0 7
8.4840 7.5482 -2.7026 0.2315 0 7
8.4154 7.6246 -2.7026 0.2315 0 7
8.3461 7.7005 -2.7026 0.2315 0 7
8.2761 7.7756 -2.7026 0.2315 0 7
8.2054 7.8502 -2.7026 0.2315 0 7
8.1340 7.9241 -2.7026 0.2315 0 7
8.0620 7.9973 -2.7026 0.2315 0 7
7.9894 8.0699 -2.7026 0.2315 0 7
7.9160 8.1419 -2.7026 0.2315 0 7
7.8421 8.2131 -2.7026 0.2315 0 7
7.7675 8.2837 -2.7026 0.2315 0 7
7.6922 8.3537 -2.7026 0.2315 0 7
7.6163 8.4229 -2.7026 0.2315 0 7
7.5398 8.4914 -2.7026 0.2315 0 7
7.4627 8.5593 -2.7026 0.2315 0 7
7.3850 8.6264 -2.7026 0.2315 0 7
7.3067 8.6929 -2.7026 0.2315 0 7
7.2277 8.7586 -2.7026 0.2315 0 7
7.1482 8.8237 -2.7026 0.2315 0 7
7.0681 8.8879 -2.7026 0.2315 0 7
6.9874 8.9515 -2.7026 0.2315 0 7
6.9062 9.0144 -2.7026 0.2315 0 7
6.8244 9.0765 -2.7026 0.2315 0 7
6.7420 9.1378 -2.7026 0.2315 0 7
6.6590 9.1984 -2.7026 0.2315 0 7
6.5756 9.2583 -2.7026 0.2315 0 7
6.4915 9.3174 -2.7026 0.2315 0 7
6.4070 9.3757 -2.7026 0.2315 0 7
6.3219 9.4333 -2.7026 0.2315 0 7
6.2363 9.4901 -2.7026 0.2315 0 7
6.1502 9.5461 -2.7026 0.2315 0 7
6.0636 9.6014 -2.7026 0.2315 0 7
5.9766 9.6558 -2.7026 0.2315 0 7
5.8890 9.7095 -2.7026 0.2315 0 7
5.8009 9.7623 -2.7026 0.2315 0 7
5.7124 9.8144 -2.7026 0.2315 0 7
5.6234 9.8657 -2.7026 0.2315 0 7
5.5339 9.9162 -2.7026 0.2315 0 7
5.4440 9.9658 -2.7026 0.2315 0 7
5.3536 10.0146 -2.7026 0.2315 0 7
5.2628 10.0627 -2.7026 0.2315 0 7
5.1715 10.1098 -2.7026 0.2315 0 7
5.0799 10.1562 -2.7026 0.2315 0 7
4.9595 10.1438 -2.6873 0.6623 0 8
4.8198 10.0883 -2.6609 0.6689 0 8
4.6888 10.0468 -2.6387 0.7378 0 8
4.5631 10.0127 -2.6188 0.7940 0 8
4.4425 9.9867 -2.6013 0.7993 0 8
4.3262 9.9668 -2.5859 0.8450 0 8
4.2125 9.9505 -2.5717 0.8497 0 8
4.1047 9.9456 -2.5607 0.7755 0 8
4.0102 9.9713 -2.5578 0.2315 0 8
3.9198 10.0071 -2.5578 0.2315 0 8
3.8292 10.0422 -2.5578 0.2315 0 8
3.7382 10.0764 -2.5578 0.2315 0 8
3.6474 10.1114 -2.5583 0.8467 0 8
3.5553 10.1424 -2.5578 0.2315 0 14
3.4634 10.1741 -2.5578 0.2315 0 14
3.3712 10.2050 -2.5578 0.2315 0 14
3.2793 10.2367 -2.5582 0.8442 0 8
3.1860 10.2644 -2.5578 0.2315 0 8
3.0931 10.2928 -2.5578 0.2313 0 8
2.9999 10.3206 -2.5579 0.2538 0 8
2.9064 10.3470 -2.5578 0.2315 0 8
2.8215 10.4056 -2.5659 0.8503 0 8
2.7447 10.4974 -2.5823 0.7840 0 8
2.6691 10.5991 -2.6013 0.7140 0 8
2.5956 10.7157 -2.6240 0.7078 0 8
2.5243 10.8493 -2.6511 0.6369 0 8
2.4547 10.9999 -2.6823 0.5682 0 8
2.3729 11.1051 -2.7026 0.2315 0 7
2.2724 11.1261 -2.7026 0.2315 0 7
2.1717 11.1462 -2.7026 0.2315 0 7
2.0707 11.1654 -2.7026 0.2315 0 7
1.9697 11.1837 -2.7026 0.2315 0 6
1.8684 11.2010 -2.7026 0.2315 0 6
1.7670 11.2175 -2.7026 0.2315 0 6
1.6655 11.2330 -2.7026 0.2315 0 6
1.5638 11.2476 -2.7026 0.2315 0 6
1.4620 11.2613 -2.7026 0.2315 0 6
1.3601 11.2740 -2.7026 0.2315 0 6
1.2581 11.2859 -2.7026 0.2315 0 6
1.1559 11.2968 -2.7026 0.2315 0 6
1.0537 11.3068 -2.7026 0.2315 0 6
0.9514 11.3159 -2.7026 0.2315 0 7
0.8490 11.3240 -2.7026 0.2315 0 7
0.7465 11.3312 -2.7026 0.2315 0 7
0.6440 11.3375 -2.7026 0.2315 0 7
0.5414 11.3429 -2.7026 0.2315 0 6
0.4388 11.3473 -2.7026 0.2315 0 6
0.3361 11.3508 -2.7026 0.2315 0 6
0.2334 11.3534 -2.7026 0.2315 0 6
0.1307 11.3550 -2.7026 0.2315 0 6
0.0280 11.3557 -2.7026 0.2315 0 7
-0.0747 11.3555 -2.7026 0.2315 0 7
-0.1774 11.3544 -2.7026 0.2315 0 7
-0.2801 11.3523 -2.7026 0.2315 0 7
-0.3828 11.3493 -2.7026 0.2315 0 7
-0.4854 11.3454 -2.7026 0.2315 0 6
10.3184 0.0000 -2.7026 0.2534 0 7
10.3179 0.0933 -2.7026 0.2534 0 7
10.3167 0.1867 -2.7026 0.2534 0 7
10.3146 0.2800 -2.7026 0.2534 0 7
10.3116 0.3733 -2.7026 0.2534 0 7
10.3078 0.4665 -2.7026 0.2534 0 7
10.3032 0.5597 -2.7026 0.2534 0 7
10.2977 0.6529 -2.7026 0.2534 0 7
10.2914 0.7460 -2.7026 0.2534 0 7
10.2842 0.8391 -2.7026 0.2534 0 7
10.2762 0.9321 -2.7026 0.2534 0 7
10.2673 1.0250 -2.7026 0.2534 0 7
10.2576 1.1178 -2.7026 0.2534 0 7
10.2471 1.2105 -2.7026 0.2534 0 7
10.2357 1.3032 -2.7026 0.2534 0 7
10.2235 1.3957 -2.7026 0.2534 0 7
10.2105 1.4882 -2.7026 0.2534 0 7
10.1966 1.5805 -2.7026 0.2534 0 7
10.1819 1.6726 -2.7026 0.2534 0 7
10.1664 1.7646 -2.7026 0.2534 0 7
10.1500 1.8565 -2.7026 0.2534 0 7
10.1328 1.9483 -2.7026 0.2534 0 7
10.1147 2.0399 -2.7026 0.2534 0 7
10.0959 2.1313 -2.7026 0.2534 0 7
10.0762 2.2225 -2.7026 0.2534 0 7
10.0557 2.3135 -2.7026 0.2534 0 7
10.0343 2.4044 -2.7026 0.2534 0 7
10.0122 2.4951 -2.7026 0.2534 0 7
9.9892 2.5855 -2.7026 0.2534 0 7
9.9654 2.6758 -2.7026 0.2534 0 7
9.9408 2.7658 -2.7026 0.2534 0 7
9.9154 2.8556 -2.7026 0.2534 0 7
9.8891 2.9452 -2.7026 0.2534 0 7
9.8621 3.0345 -2.7026 0.2534 0 7
9.8342 3.1236 -2.7026 0.2534 0 7
9.8056 3.2124 -2.7026 0.2534 0 7
9.7761 3.3010 -2.7026 0.2534 0 7
9.7458 3.3893 -2.7026 0.2534 0 7
9.7148 3.4773 -2.7026 0.2534 0 7
9.6829 3.5650 -2.7026 0.2534 0 7
9.6503 3.6525 -2.7026 0.2534 0 7
9.6169 3.7396 -2.7026 0.2534 0 7
9.5826 3.8265 -2.7026 0.2534 0 7
9.5476 3.9130 -2.7026 0.2534 0 7
9.5119 3.9992 -2.7026 0.2534 0 7
9.4753 4.0850 -2.7026 0.2534 0 7
9.4380 4.1706 -2.7026 0.2534 0 7
9.3998 4.2558 -2.7026 0.2534 0 7
9.3610 4.3407 -2.7026 0.2534 0 7
9.3213 4.4251 -2.7026 0.2534 0 7
9.2809 4.5093 -2.7026 0.2534 0 7
9.2397 4.5930 -2.7026 0.2534 0 7
9.1978 4.6764 -2.7026 0.2534 0 7
9.1551 4.7594 -2.7026 0.2534 0 7
9.1117 4.8421 -2.7026 0.2534 0 7
9.0675 4.9243 -2.7026 0.2534 0 7
9.0226 5.0061 -2.7026 0.2534 0 7
8.9770 5.0875 -2.7026 0.2534 0 7
8.9306 5.1685 -2.7026 0.2534 0 7
8.8835 5.2491 -2.7026 0.2534 0 7
8.8356 5.3292 -2.7026 0.2534 0 7
8.7871 5.4089 -2.7026 0.2534 0 7
8.7378 5.4882 -2.7026 0.2534 0 7
8.6878 5.5670 -2.7026 0.2534 0 7
8.6371 5.6453 -2.7026 0.2534 0 7
8.5856 5.7232 -2.7026 0.2534 0 7
8.5335 5.8007 -2.7026 0.2534 0 7
8.4807 5.8776 -2.7026 0.2534 0 7
8.4272 5.9541 -2.7026 0.2534 0 7
8.3730 6.0301 -2.7026 0.2534 0 7
8.3181 6.1056 -2.7026 0.2534 0 7
8.2625 6.1805 -2.7026 0.2534 0 7
8.2063 6.2550 -2.7026 0.2534 0 7
8.1494 6.3290 -2.7026 0.2534 0 7
8.0918 6.4025 -2.7026 0.2534 0 7
8.0336 6.4754 -2.7026 0.2534 0 7
7.9747 6.5478 -2.7026 0.2534 0 7
7.9151 6.6197 -2.7026 0.2534 0 7
7.8549 6.6910 -2.7026 0.2534 0 7
7.7941 6.7618 -2.7026 0.2534 0 7
7.7326 6.8320 -2.7026 0.2534 0 7
7.6705 6.9017 -2.7026 0.2534 0 7
7.6077 6.9708 -2.7026 0.2534 0 7
7.5444 7.0393 -2.7026 0.2534 0 7
7.4804 7.1072 -2.7026 0.2534 0 7
7.4158 7.1746 -2.7026 0.2534 0 7
7.3506 7.2414 -2.7026 0.2534 0 7
7.2848 7.3076 -2.7026 0.2534 0 7
7.2184 7.3732 -2.7026 0.2534 0 7
7.1514 7.4382 -2.7026 0.2534 0 7
7.0838 7.5026 -2.7026 0.2534 0 7
7.0157 7.5663 -2.7026 0.2534 0 7
6.9469 7.6295 -2.7026 0.2534 0 7
6.8776 7.6920 -2.7026 0.2534 0 7
6.8078 7.7539 -2.7026 0.2534 0 7
6.7374 7.8151 -2.7026 0.2534 0 7
6.6664 7.8758 -2.7026 0.2534 0 7
6.5949 7.9357 -2.7026 0.2534 0 7
6.5228 7.9951 -2.7026 0.2534 0 7
6.4503 8.0538 -2.7026 0.2534 0 7
6.3771 8.1118 -2.7026 0.2534 0 7
6.3035 8.1691 -2.7026 0.2534 0 7
6.2294 8.2258 -2.7026 0.2534 0 7
6.1547 8.2818 -2.7026 0.2534 0 7
6.0795 8.3372 -2.7026 0.2534 0 7
6.0039 8.3918 -2.7026 0.2534 0 7
5.9277 8.4458 -2.7026 0.2534 0 7
5.8511 8.4990 -2.7026 0.2534 0 7
5.7740 8.5516 -2.7026 0.2534 0 7
5.6964 8.6035 -2.7026 0.2534 0 7
5.6183 8.6547 -2.7026 0.2534 0 7
5.5398 8.7051 -2.7026 0.2534 0 7
5.4608 8.7549 -2.7026 0.2534 0 7
5.3814 8.8039 -2.7026 0.2534 0 7
5.3016 8.8522 -2.7026 0.2534 0 7
5.2213 8.8998 -2.7026 0.2534 0 7
5.1406 8.9467 -2.7026 0.2534 0 7
5.0594 8.9928 -2.7026 0.2534 0 7
4.9779 9.0382 -2.7026 0.2534 0 7
4.8959 9.0829 -2.7026 0.2534 0 7
4.8136 9.1268 -2.7026 0.2534 0 7
4.7308 9.1700 -2.7026 0.2534 0 7
4.6477 9.2124 -2.7026 0.2534 0 7
4.5641 9.2541 -2.7026 0.2534 0 7
4.4802 9.2950 -2.7026 0.2534 0 7
4.3960 9.3351 -2.7026 0.2534 0 7
4.3114 9.3745 -2.7026 0.2534 0 7
4.2264 9.4131 -2.7026 0.2534 0 7
4.1411 9.4509 -2.7026 0.2534 0 7
4.0554 9.4880 -2.7026 0.2534 0 7
3.9694 9.5243 -2.7026 0.2534 0 7
3.8831 9.5598 -2.7026 0.2534 0 7
3.7965 9.5945 -2.7026 0.2534 0 7
3.7096 9.6285 -2.7026 0.2534 0 7
3.6223 9.6617 -2.7026 0.2534 0 7
3.5348 9.6940 -2.7026 0.2534 0 7
3.4469 9.7256 -2.7026 0.2534 0 7
3.3588 9.7564 -2.7026 0.2534 0 7
3.2704 9.7864 -2.7026 0.2534 0 7
3.1818 9.8155 -2.7026 0.2534 0 7
3.0929 9.8439 -2.7026 0.2534 0 7
3.0037 9.8715 -2.7026 0.2534 0 7
2.9143 9.8983 -2.7026 0.2534 0 7
2.8246 9.9242 -2.7026 0.2534 0 7
2.7347 9.9494 -2.7026 0.2534 0 7
2.6446 9.9737 -2.7026 0.2534 0 7
2.5543 9.9972 -2.7026 0.2534 0 7
2.4638 10.0199 -2.7026 0.2534 0 7
2.3730 10.0418 -2.7026 0.2534 0 7
2.2821 10.0628 -2.7026 0.2534 0 7
2.1910 10.0831 -2.7026 0.2534 0 7
2.0997 10.1025 -2.7026 0.2534 0 7
2.0082 10.1210 -2.7026 0.2534 0 7
1.9166 10.1388 -2.7026 0.2534 0 7
1.8248 10.1557 -2.7026 0.2534 0 7
1.7329 10.1718 -2.7026 0.2534 0 7
1.6408 10.1871 -2.7026 0.2534 0 7
1.5486 10.2015 -2.7026 0.2534 0 7
1.4562 10.2151 -2.7026 0.2534 0 7
1.3638 10.2278 -2.7026 0.2534 0 7
1.2712 10.2398 -2.7026 0.2534 0 7
1.1785 10.2508 -2.7026 0.2534 0 7
1.0858 10.2611 -2.7026 0.2534 0 7
0.9929 10.2705 -2.7026 0.2534 0 7
0.9000 10.2790 -2.7026 0.2534 0 7
0.8070 10.2868 -2.7026 0.2534 0 7
0.7139 10.2936 -2.7026 0.2534 0 7
0.6207 10.2997 -2.7026 0.2534 0 7
0.5275 10.3049 -2.7026 0.2534 0 7
0.4343 10.3092 -2.7026 0.2534 0 7
0.3410 10.3127 -2.7026 0.2534 0 7
0.2477 10.3154 -2.7026 0.2534 0 7
0.1544 10.3172 -2.7026 0.2534 0 7
0.0611 10.3182 -2.7026 0.2534 0 7
-0.0322 10.3183 -2.7026 0.2534 0 7
-0.1256 10.3176 -2.7026 0.2534 0 7
-0.2189 10.3160 -2.7026 0.2534 0 7
-0.3122 10.3136 -2.7026 0.2534 0 7
-0.4055 10.3104 -2.7026 0.2534 0 7
-0.4987 10.3063 -2.7026 0.2534 0 7
-0.5919 10.3014 -2.7026 0.2534 0 7
-0.6851 10.2956 -2.7026 0.2534 0 7
-0.7782 10.2890 -2.7026 0.2534 0 7
-0.8712 10.2815 -2.7026 0.2534 0 7
-0.9642 10.2732 -2.7026 0.2534 0 7
-1.0571 10.2641 -2.7026 0.2534 0 7
-1.1499 10.2541 -2.7026 0.2534 0 7
-1.2426 10.2433 -2.7026 0.2534 0 7
-1.3352 10.2316 -2.7026 0.2534 0 7
-1.4277 10.2191 -2.7026 0.2534 0 7
-1.5201 10.2058 -2.7026 0.2534 0 7
-1.6123 10.1916 -2.7026 0.2534 0 7
-1.7044 10.1766 -2.7026 0.2534 0 7
-1.7964 10.1608 -2.7026 0.2534 0 7
-1.8882 10.1441 -2.7026 0.2534 0 7
-1.9799 10.1266 -2.7026 0.2534 0 7
-2.0714 10.1083 -2.7026 0.2534 0 7
-2.1628 10.0892 -2.7026 0.2534 0 7
-2.2540 10.0692 -2.7026 0.2534 0 7
-2.3450 10.0484 -2.7026 0.2534 0 7
-2.4357 10.0268 -2.7026 0.2534 0 7
-2.5263 10.0043 -2.7026 0.2534 0 7
-2.6167 9.9811 -2.7026 0.2534 0 7
-2.7069 9.9570 -2.7026 0.2534 0 7
-2.7969 9.9321 -2.7026 0.2534 0 7
-2.8866 9.9064 -2.7026 0.2534 0 7
-2.9761 9.8799 -2.7026 0.2534 0 7
-3.0653 9.8525 -2.7026 0.2534 0 7
-3.1543 9.8244 -2.7026 0.2534 0 7
-3.2430 9.7955 -2.7026 0.2534 0 7
-3.3315 9.7657 -2.7026 0.2534 0 7
-3.4197 9.7352 -2.7026 0.2534 0 7
-3.5076 9.7039 -2.7026 0.2534 0 7
-3.5953 9.6717 -2.7026 0.2534 0 7
-3.6826 9.6388 -2.7026 0.2534 0 7
-3.7696 9.6051 -2.7026 0.2534 0 7
-3.8564 9.5706 -2.7026 0.2534 0 7
-3.9428 9.5354 -2.7026 0.2534 0 7
-4.0289 9.4993 -2.7026 0.2534 0 7
-4.1146 9.4625 -2.7026 0.2534 0 7
-4.2001 9.4249 -2.7026 0.2534 0 7
-4.2851 9.3865 -2.7026 0.2534 0 7
-4.3699 9.3473 -2.7026 0.2534 0 7
-4.4543 9.3074 -2.7026 0.2534 0 7
-4.5382 9.2668 -2.7026 0.2534 0 7
-4.6219 9.2253 -2.7026 0.2534 0 7
-4.7051 9.1832 -2.7026 0.2534 0 7
-4.7880 9.1402 -2.7026 0.2534 0 7
-4.8705 9.0965 -2.7026 0.2534 0 7
-4.9526 9.0521 -2.7026 0.2534 0 7
-5.0343 9.0069 -2.7026 0.2534 0 7
-5.1155 8.9610 -2.7026 0.2534 0 7
-5.1964 8.9144 -2.7026 0.2534 0 7
-5.2768 8.8670 -2.7026 0.2534 0 7
-5.3568 8.8189 -2.7026 0.2534 0 7
-5.4363 8.7701 -2.7026 0.2534 0 7
-5.5154 8.7206 -2.7026 0.2534 0 7
-5.5941 8.6703 -2.7026 0.2534 0 7
-5.6723 8.6194 -2.7026 0.2534 0 7
-5.7500 8.5677 -2.7026 0.2534 0 7
-5.8273 8.5154 -2.7026 0.2534 0 7
-5.9041 8.4623 -2.7026 0.2534 0 7
-5.9804 8.4086 -2.7026 0.2534 0 7
-6.0562 8.3541 -2.7026 0.2534 0 7
-6.1315 8.2990 -2.7026 0.2534 0 7
-6.2063 8.2432 -2.7026 0.2534 0 7
-6.2806 8.1867 -2.7026 0.2534 0 7
-6.3544 8.1296 -2.7026 0.2534 0 7
-6.4277 8.0718 -2.7026 0.2534 0 7
-6.5005 8.0133 -2.7026 0.2534 0 7
-6.5727 7.9542 -2.7026 0.2534 0 7
-6.6444 7.8944 -2.7026 0.2534 0 7
-6.7155 7.8340 -2.7026 0.2534 0 7
-6.7861 7.7729 -2.7026 0.2534 0 7
-6.8561 7.7112 -2.7026 0.2534 0 7
-6.9256 7.6489 -2.7026 0.2534 0 7
-6.9945 7.5859 -2.7026 0.2534 0 7
-7.0628 7.5223 -2.7026 0.2534 0 7
-7.1306 7.4581 -2.7026 0.2534 0 7
-7.1977 7.3933 -2.7026 0.2534 0 7
-7.2643 7.3279 -2.7026 0.2534 0 7
-7.3303 7.2619 -2.7026 0.2534 0 7
-7.3957 7.1953 -2.7026 0.2534 0 7
-7.4605 7.1281 -2.7026 0.2534 0 7
-7.5247 7.0603 -2.7026 0.2534 0 7
-7.5882 6.9920 -2.7026 0.2534 0 7
-7.6511 6.9231 -2.7026 0.2534 0 7
-7.7134 6.8536 -2.7026 0.2534 0 7
-7.7751 6.7835 -2.7026 0.2534 0 7
-7.8362 6.7129 -2.7026 0.2534 0 7
-7.8966 6.6418 -2.7026 0.2534 0 7
-7.9563 6.5700 -2.7026 0.2534 0 7
-8.0154 6.4978 -2.7026 0.2534 0 7
-8.0739 6.4250 -2.7026 0.2534 0 7
-8.1317 6.3518 -2.7026 0.2534 0 7
-8.1888 6.2779 -2.7026 0.2534 0 7
-8.2452 6.2036 -2.7026 0.2534 0 7
-8.3010 6.1288 -2.7026 0.2534 0 7
-8.3561 6.0534 -2.7026 0.2534 0 7
-8.4105 5.9776 -2.7026 0.2534 0 7
-8.4642 5.9013 -2.7026 0.2534 0 7
-8.5173 5.8245 -2.7026 0.2534 0 7
-8.5696 5.7472 -2.7026 0.2534 0 7
-8.6213 5.6695 -2.7026 0.2534 0 7
-8.6722 5.5912 -2.7026 0.2534 0 7
-8.7224 5.5126 -2.7026 0.2534 0 7
-8.7719 5.4334 -2.7026 0.2534 0 7
-8.8207 5.3539 -2.7026 0.2534 0 7
-8.8688 5.2739 -2.7026 0.2534 0 7
-8.9161 5.1934 -2.7026 0.2534 0 7
-8.9627 5.1126 -2.7026 0.2534 0 7
-9.0086 5.0313 -2.7026 0.2534 0 7
-9.0537 4.9496 -2.7026 0.2534 0 7
-9.0981 4.8675 -2.7026 0.2534 0 7
-9.1418 4.7850 -2.7026 0.2534 0 7
-9.1847 4.7021 -2.7026 0.2534 0 7
-9.2269 4.6188 -2.7026 0.2534 0 7
-9.2683 4.5352 -2.7026 0.2534 0 7
-9.3089 4.4512 -2.7026 0.2534 0 7
-9.3488 4.3668 -2.7026 0.2534 0 7
-9.3879 4.2821 -2.7026 0.2534 0 7
-9.4262 4.1970 -2.7026 0.2534 0 7
-9.4638 4.1115 -2.7026 0.2534 0 7
-9.5006 4.0258 -2.7026 0.2534 0 7
-9.5367 3.9396 -2.7026 0.2534 0 7
-9.5719 3.8532 -2.7026 0.2534 0 7
-9.6064 3.7665 -2.7026 0.2534 0 7
-1.4719 0.5618 -0.4126 0.0115 632 10
-1.4472 0.5374 -0.4044 0.2166 632 10
-1.4453 0.5219 -0.4025 0.2176 632 10
-1.4433 0.5065 -0.4006 0.2186 632 10
-1.4412 0.4911 -0.3988 0.2196 632 10
-1.4389 0.4759 -0.3970 0.2206 632 10
-1.4366 0.4607 -0.3952 0.2217 632 10
-1.4341 0.4457 -0.3934 0.2227 632 10
-1.4316 0.4307 -0.3916 0.2237 632 10
-1.4289 0.4158 -0.3898 0.2247 632 10
-1.4261 0.4011 -0.3880 0.2257 632 10
-1.4232 0.3864 -0.3863 0.2268 632 10
-1.4202 0.3718 -0.3845 0.2278 632 10
-1.4171 0.3574 -0.3828 0.2288 632 10
-1.4139 0.3430 -0.3811 0.2299 632 10
-1.4106 0.3287 -0.3794 0.2309 632 10
-1.4072 0.3145 -0.3777 0.2319 632 10
-1.4037 0.3004 -0.3760 0.2330 632 10
-1.4042 0.2873 -0.3754 0.2548 632 10
-1.4056 0.2743 -0.3751 0.2550 632 10
-1.4069 0.2614 -0.3748 0.2552 632 10
-1.4081 0.2485 -0.3745 0.2554 632 10
-1.4092 0.2355 -0.3742 0.2556 632 10
-1.4102 0.2226 -0.3739 0.2558 632 10
-1.4111 0.2097 -0.3737 0.2549 632 10
-1.4120 0.1968 -0.3734 0.2551 632 10
-1.4128 0.1839 -0.3732 0.2552 632 10
-1.4135 0.1710 -0.3729 0.2554 632 10
-1.4140 0.1581 -0.3727 0.2556 632 10
-1.4145 0.1452 -0.3724 0.2557 632 10
-1.4148 0.1323 -0.3722 0.2559 632 10
-1.4151 0.1194 -0.3720 0.2561 632 10
-1.4152 0.1066 -0.3717 0.2562 632 10
-1.4152 0.0937 -0.3715 0.2564 632 10
-1.4150 0.0808 -0.3712 0.2566 632 10
-1.4148 0.0680 -0.3710 0.2567 632 10
-1.4145 0.0552 -0.3708 0.2569 632 10
-1.4140 0.0423 -0.3705 0.2571 632 10
-1.4134 0.0295 -0.3703 0.2572 632 10
-1.4127 0.0167 -0.3701 0.2574 632 10
-1.4119 0.0040 -0.3698 0.2575 632 10
-1.4123 -0.0088 -0.3699 0.2575 632 10
-1.4130 -0.0216 -0.3701 0.2573 632 10
-1.4137 -0.0344 -0.3704 0.2572 632 10
-1.4142 -0.0472 -0.3706 0.2570 632 10
-1.4146 -0.0601 -0.3709 0.2568 632 10
-1.4149 -0.0729 -0.3711 0.2567 632 10
-1.4151 -0.0858 -0.3713 0.2565 632 10
-1.4152 -0.0986 -0.3716 0.2563 632 10
-1.4151 -0.1115 -0.3718 0.2562 632 10
-1.4150 -0.1244 -0.3720 0.2560 632 10
-1.4147 -0.1372 -0.3723 0.2558 632 10
-1.4143 -0.1501 -0.3725 0.2557 632 10
-1.4138 -0.1630 -0.3728 0.2555 632 10
-1.4132 -0.1759 -0.3730 0.2553 632 10
-1.4125 -0.1888 -0.3733 0.2552 632 10
-1.4117 -0.2017 -0.3735 0.2550 632 10
-1.4107 -0.2146 -0.3738 0.2560 632 10
-1.4098 -0.2275 -0.3740 0.2558 632 10
-1.4088 -0.2405 -0.3743 0.2556 632 10
-1.4077 -0.2534 -0.3746 0.2554 632 10
-1.4065 -0.2663 -0.3749 0.2552 632 10
-1.4051 -0.2793 -0.3752 0.2550 632 10
-1.4036 -0.2922 -0.3755 0.2548 632 10
-1.4051 -0.3058 -0.3766 0.2326 632 10
-1.4085 -0.3199 -0.3783 0.2315 632 10
-1.4119 -0.3341 -0.3800 0.2305 632 10
-1.4151 -0.3485 -0.3817 0.2295 632 10
-1.4183 -0.3629 -0.3834 0.2284 632 10
-1.4214 -0.3774 -0.3852 0.2274 632 10
-1.4243 -0.3920 -0.3869 0.2264 632 10
-1.4272 -0.4067 -0.3887 0.2253 632 10
-1.4299 -0.4215 -0.3905 0.2243 632 10
-1.4325 -0.4364 -0.3922 0.2233 632 10
-1.4351 -0.4514 -0.3940 0.2223 632 10
-1.4375 -0.4665 -0.3958 0.2213 632 10
-1.4398 -0.4817 -0.3977 0.2203 632 10
-1.4420 -0.4970 -0.3995 0.2193 632 10
-1.4441 -0.5123 -0.4013 0.2182 632 10
-1.4461 -0.5278 -0.4032 0.2172 632 10
-1.4479 -0.5434 -0.4051 0.2162 632 10
-9.6273 -3.7127 -2.7026 0.2534 0 7
-9.5933 -3.7996 -2.7026 0.2534 0 7
-9.5585 -3.8863 -2.7026 0.2534 0 7
-9.5230 -3.9726 -2.7026 0.2534 0 7
-9.4867 -4.0585 -2.7026 0.2534 0 7
-9.4496 -4.1442 -2.7026 0.2534 0 7
-9.4117 -4.2295 -2.7026 0.2534 0 7
-9.3731 -4.3144 -2.7026 0.2534 0 7
-9.3336 -4.3991 -2.7026 0.2534 0 7
-9.2935 -4.4833 -2.7026 0.2534 0 7
-9.2525 -4.5672 -2.7026 0.2534 0 7
-9.2108 -4.6507 -2.7026 0.2534 0 7
-9.1684 -4.7338 -2.7026 0.2534 0 7
-9.1252 -4.8166 -2.7026 0.2534 0 7
-9.0813 -4.8989 -2.7026 0.2534 0 7
-9.0366 -4.9808 -2.7026 0.2534 0 7
-8.9912 -5.0624 -2.7026 0.2534 0 7
-8.9450 -5.1435 -2.7026 0.2534 0 7
-8.8981 -5.2242 -2.7026 0.2534 0 7
-8.8505 -5.3045 -2.7026 0.2534 0 7
-8.8022 -5.3843 -2.7026 0.2534 0 7
-8.7531 -5.4637 -2.7026 0.2534 0 7
-8.7033 -5.5427 -2.7026 0.2534 0 7
-8.6528 -5.6211 -2.7026 0.2534 0 7
-8.6016 -5.6992 -2.7026 0.2534 0 7
-8.5497 -5.7768 -2.7026 0.2534 0 7
-8.4971 -5.8539 -2.7026 0.2534 0 7
-8.4438 -5.9305 -2.7026 0.2534 0 7
-8.3898 -6.0066 -2.7026 0.2534 0 7
-8.3352 -6.0823 -2.7026 0.2534 0 7
-8.2798 -6.1574 -2.7026 0.2534 0 7
-8.2238 -6.2321 -2.7026 0.2534 0 7
-8.1671 -6.3062 -2.7026 0.2534 0 7
-8.1097 -6.3798 -2.7026 0.2534 0 7
-8.0516 -6.4529 -2.7026 0.2534 0 7
-7.9929 -6.5255 -2.7026 0.2534 0 7
-7.9336 -6.5975 -2.7026 0.2534 0 7
-7.8736 -6.6690 -2.7026 0.2534 0 7
-7.8129 -6.7399 -2.7026 0.2534 0 7
-7.7516 -6.8103 -2.7026 0.2534 0 7
-7.6897 -6.8802 -2.7026 0.2534 0 7
-7.6272 -6.9494 -2.7026 0.2534 0 7
-7.5640 -7.0182 -2.7026 0.2534 0 7
-7.5002 -7.0863 -2.7026 0.2534 0 7
-7.4358 -7.1538 -2.7026 0.2534 0 7
-7.3708 -7.2208 -2.7026 0.2534 0 7
-7.3052 -7.2872 -2.7026 0.2534 0 7
-7.2390 -7.3530 -2.7026 0.2534 0 7
-7.1722 -7.4181 -2.7026 0.2534 0 7
-7.1048 -7.4827 -2.7026 0.2534 0 7
-7.0368 -7.5467 -2.7026 0.2534 0 7
-6.9682 -7.6100 -2.7026 0.2534 0 7
-6.8991 -7.6727 -2.7026 0.2534 0 7
-6.8294 -7.7348 -2.7026 0.2534 0 7
-6.7592 -7.7963 -2.7026 0.2534 0 7
-6.6884 -7.8571 -2.7026 0.2534 0 7
-6.6171 -7.9173 -2.7026 0.2534 0 7
-6.5452 -7.9768 -2.7026 0.2534 0 7
-6.4727 -8.0357 -2.7026 0.2534 0 7
-6.3998 -8.0939 -2.7026 0.2534 0 7
-6.3263 -8.1515 -2.7026 0.2534 0 7
-6.2523 -8.2083 -2.7026 0.2534 0 7
-6.1778 -8.2646 -2.7026 0.2534 0 7
-6.1028 -8.3201 -2.7026 0.2534 0 7
-6.0273 -8.3750 -2.7026 0.2534 0 7
-5.9513 -8.4292 -2.7026 0.2534 0 7
-5.8748 -8.4826 -2.7026 0.2534 0 7
-5.7979 -8.5354 -2.7026 0.2534 0 7
-5.7204 -8.5875 -2.7026 0.2534 0 7
-5.6425 -8.6389 -2.7026 0.2534 0 7
-5.5641 -8.6896 -2.7026 0.2534 0 7
-5.4853 -8.7396 -2.7026 0.2534 0 7
-5.4060 -8.7888 -2.7026 0.2534 0 7
-5.3263 -8.8374 -2.7026 0.2534 0 7
-5.2461 -8.8852 -2.7026 0.2534 0 7
-5.1656 -8.9323 -2.7026 0.2534 0 7
-5.0846 -8.9786 -2.7026 0.2534 0 7
-5.0031 -9.0243 -2.7026 0.2534 0 7
-4.9213 -9.0691 -2.7026 0.2534 0 7
-4.8390 -9.1133 -2.7026 0.2534 0 7
-4.7564 -9.1567 -2.7026 0.2534 0 7
-4.6734 -9.1993 -2.7026 0.2534 0 7
-4.5900 -9.2413 -2.7026 0.2534 0 7
-4.5062 -9.2824 -2.7026 0.2534 0 7
-4.4221 -9.3228 -2.7026 0.2534 0 7
-4.3376 -9.3624 -2.7026 0.2534 0 7
-4.2527 -9.4012 -2.7026 0.2534 0 7
-4.1675 -9.4393 -2.7026 0.2534 0 7
-4.0819 -9.4766 -2.7026 0.2534 0 7
-3.9960 -9.5132 -2.7026 0.2534 0 7
-3.9098 -9.5489 -2.7026 0.2534 0 7
-3.8233 -9.5839 -2.7026 0.2534 0 7
-3.7365 -9.6181 -2.7026 0.2534 0 7
-3.6493 -9.6515 -2.7026 0.2534 0 7
-3.5619 -9.6841 -2.7026 0.2534 0 7
-3.4741 -9.7159 -2.7026 0.2534 0 7
-3.3861 -9.7470 -2.7026 0.2534 0 7
-3.2978 -9.7772 -2.7026 0.2534 0 7
-3.2092 -9.8066 -2.7026 0.2534 0 7
-3.1204 -9.8352 -2.7026 0.2534 0 7
-3.0313 -9.8631 -2.7026 0.2534 0 7
-2.9419 -9.8901 -2.7026 0.2534 0 7
-2.8523 -9.9163 -2.7026 0.2534 0 7
-2.7625 -9.9417 -2.7026 0.2534 0 7
-2.6725 -9.9663 -2.7026 0.2534 0 7
-2.5822 -9.9900 -2.7026 0.2534 0 7
-2.4918 -10.0130 -2.7026 0.2534 0 7
-2.4011 -10.0351 -2.7026 0.2534 0 7
-2.3102 -10.0564 -2.7026 0.2534 0 7
-2.2192 -10.0769 -2.7026 0.2534 0 7
-2.1279 -10.0966 -2.7026 0.2534 0 7
-2.0365 -10.1154 -2.7026 0.2534 0 7
-1.9449 -10.1334 -2.7026 0.2534 0 7
-1.8532 -10.1506 -2.7026 0.2534 0 7
-1.7613 -10.1669 -2.7026 0.2534 0 7
-1.6693 -10.1825 -2.7026 0.2534 0 7
-1.5771 -10.1971 -2.7026 0.2534 0 7
-1.4848 -10.2110 -2.7026 0.2534 0 7
-1.3924 -10.2240 -2.7026 0.2534 0 7
-1.2998 -10.2362 -2.7026 0.2534 0 7
-1.2072 -10.2475 -2.7026 0.2534 0 7
-1.1144 -10.2580 -2.7026 0.2534 0 7
-1.0216 -10.2677 -2.7026 0.2534 0 7
-0.9287 -10.2765 -2.7026 0.2534 0 7
-0.8357 -10.2845 -2.7026 0.2534 0 7
-0.7427 -10.2916 -2.7026 0.2534 0 7
-0.6495 -10.2979 -2.7026 0.2534 0 7
-0.5564 -10.3033 -2.7026 0.2534 0 7
-0.4631 -10.3080 -2.7026 0.2534 0 7
-0.3699 -10.3117 -2.7026 0.2534 0 7
-0.2766 -10.3147 -2.7026 0.2534 0 7
-0.1833 -10.3167 -2.7026 0.2534 0 7
-0.0899 -10.3180 -2.7026 0.2534 0 7
0.0034 -10.3184 -2.7026 0.2534 0 7
0.0967 -10.3179 -2.7026 0.2534 0 7
0.1901 -10.3166 -2.7026 0.2534 0 7
