ply
format ascii 1.0
element vertex 1370
property float32 x
property float32 y
property float32 z
property float32 CosAngle
property uint32 ObjIdx
property uint32 ObjTag
end_header
-6.7985 11.9128 -2.6181 0.1875 0 8
-6.9060 11.8508 -2.6181 0.1875 0 8
-7.0129 11.7879 -2.6181 0.1875 0 8
-7.1192 11.7239 -2.6181 0.1875 0 8
-7.2250 11.6591 -2.6181 0.1875 0 8
-7.3301 11.5932 -2.6181 0.1875 0 8
-7.4347 11.5265 -2.6181 0.1875 0 8
-7.5386 11.4587 -2.6181 0.1875 0 8
-7.6420 11.3901 -2.6181 0.1875 0 8
-7.7447 11.3205 -2.6181 0.1875 0 8
-7.8468 11.2500 -2.6181 0.1875 0 8
-7.9482 11.1786 -2.6181 0.1875 0 8
-8.0490 11.1062 -2.6181 0.1875 0 8
-8.1491 11.0329 -2.6181 0.1875 0 8
-8.2486 10.9588 -2.6181 0.1875 0 8
-8.3474 10.8837 -2.6181 0.1875 0 8
-8.4455 10.8078 -2.6181 0.1875 0 8
-8.5429 10.7310 -2.6181 0.1875 0 8
-8.6396 10.6533 -2.6181 0.1875 0 8
-8.7356 10.5747 -2.6181 0.1875 0 8
-8.8309 10.4952 -2.6181 0.1875 0 8
-8.9254 10.4149 -2.6181 0.1875 0 8
-9.0193 10.3338 -2.6181 0.1875 0 8
-9.1124 10.2518 -2.6181 0.1875 0 8
-9.2047 10.1689 -2.6181 0.1875 0 8
-9.2963 10.0853 -2.6181 0.1875 0 8
-9.3872 10.0008 -2.6181 0.1875 0 8
-9.4772 9.9155 -2.6181 0.1875 0 8
-9.5080 9.7692 -2.6021 0.6237 0 9
-9.4919 9.5778 -2.5739 0.6306 0 9
-9.4762 9.3905 -2.5465 0.6374 0 9
-9.4636 9.2099 -2.5206 0.5880 0 9
-9.5027 9.0821 -2.5090 0.6508 0 9
-9.4708 8.8890 -2.4793 0.6574 0 9
-9.6166 8.8637 -2.4964 0.7239 0 9
-9.7602 8.8341 -2.5128 0.1875 0 9
-9.8780 8.7794 -2.5226 0.6358 0 9
-10.0430 8.7648 -2.5444 0.7056 0 9
-10.2118 8.7507 -2.5670 0.6994 0 9
-10.3835 8.7362 -2.5902 0.6931 0 9
-10.5585 8.7215 -2.6140 0.6868 0 9
-10.6536 8.6392 -2.6181 0.1875 0 8
-10.7313 8.5425 -2.6181 0.1875 0 8
-10.8081 8.4450 -2.6181 0.1875 0 8
-10.8841 8.3469 -2.6181 0.1875 0 8
-10.9591 8.2482 -2.6181 0.1875 0 8
-11.0333 8.1487 -2.6181 0.1875 0 8
-11.1065 8.0486 -2.6181 0.1875 0 8
-11.1789 7.9478 -2.6181 0.1875 0 8
-11.2503 7.8463 -2.6181 0.1875 0 8
-11.3208 7.7443 -2.6181 0.1875 0 8
-11.3904 7.6416 -2.6181 0.1875 0 8
-11.4735 7.5477 -2.6214 0.5608 0 8
-11.5268 7.4343 -2.6181 0.1875 0 8
-11.6625 7.3733 -2.6337 0.6157 0 8
-11.8636 7.3511 -2.6640 0.6087 0 8
-12.0693 7.3283 -2.6952 0.6017 0 8
-12.2798 7.3049 -2.7273 0.5946 0 8
-12.4953 7.2810 -2.7604 0.5875 0 8
-12.5791 7.1782 -2.7645 0.1969 0 8
-12.6516 7.0686 -2.7662 0.1968 0 8
-12.7231 6.9583 -2.7680 0.1966 0 8
-12.7937 6.8473 -2.7698 0.1965 0 8
-12.8585 6.7331 -2.7705 0.1875 0 7
-12.9188 6.6165 -2.7705 0.1875 0 7
-12.9781 6.4994 -2.7705 0.1875 0 7
-13.0364 6.3817 -2.7705 0.1875 0 7
-13.0936 6.2636 -2.7705 0.1875 0 7
-13.1497 6.1449 -2.7705 0.1875 0 7
-13.2047 6.0257 -2.7705 0.1875 0 7
-13.2587 5.9060 -2.7705 0.1875 0 7
-13.3116 5.7858 -2.7705 0.1875 0 7
-13.3634 5.6652 -2.7705 0.1875 0 7
-13.4141 5.5441 -2.7705 0.1875 0 7
-13.4637 5.4225 -2.7705 0.1875 0 7
-13.5122 5.3005 -2.7705 0.1875 0 7
-13.5595 5.1781 -2.7705 0.1875 0 7
-13.6058 5.0552 -2.7705 0.1875 0 7
-13.6510 4.9320 -2.7705 0.1875 0 7
-13.6950 4.8083 -2.7705 0.1875 0 7
-13.7380 4.6842 -2.7705 0.1875 0 6
-13.7798 4.5598 -2.7705 0.1875 0 7
-13.8205 4.4350 -2.7705 0.1875 0 7
-13.8600 4.3098 -2.7705 0.1875 0 7
-13.8984 4.1842 -2.7705 0.1875 0 7
-13.9357 4.0584 -2.7705 0.1875 0 7
-13.9718 3.9321 -2.7705 0.1875 0 7
-14.0068 3.8056 -2.7705 0.1875 0 7
-14.0407 3.6788 -2.7705 0.1875 0 7
-14.0734 3.5516 -2.7705 0.1875 0 7
-14.1049 3.4242 -2.7705 0.1875 0 7
-14.1353 3.2965 -2.7705 0.1875 0 7
-14.1646 3.1685 -2.7705 0.1875 0 7
-14.1926 3.0402 -2.7705 0.1875 0 7
-14.2196 2.9118 -2.7705 0.1875 0 7
-14.2453 2.7830 -2.7705 0.1875 0 7
-14.2699 2.6541 -2.7705 0.1875 0 7
-14.2933 2.5249 -2.7705 0.1875 0 7
-14.3156 2.3955 -2.7705 0.1875 0 7
-14.3367 2.2659 -2.7705 0.1875 0 7
-14.3566 2.1362 -2.7705 0.1875 0 7
-14.3753 2.0062 -2.7705 0.1875 0 7
-14.3928 1.8761 -2.7705 0.1875 0 7
-14.4092 1.7458 -2.7705 0.1875 0 7
-14.4244 1.6154 -2.7705 0.1875 0 7
-14.4385 1.4849 -2.7705 0.1875 0 7
-14.4513 1.3543 -2.7705 0.1875 0 7
-14.4630 1.2235 -2.7705 0.1875 0 7
-14.4734 1.0926 -2.7705 0.1875 0 7
-14.4827 0.9617 -2.7705 0.1875 0 7
-14.4908 0.8306 -2.7705 0.1875 0 7
-14.4977 0.6995 -2.7705 0.1875 0 7
-14.5035 0.5684 -2.7705 0.1875 0 7
-14.5080 0.4372 -2.7705 0.1875 0 7
-14.5114 0.3059 -2.7705 0.1875 0 7
-14.5136 0.1747 -2.7705 0.1875 0 7
-14.5145 0.0434 -2.7705 0.1875 0 7
-14.5143 -0.0879 -2.7705 0.1875 0 7
-14.5130 -0.2192 -2.7705 0.1875 0 7
-14.5104 -0.3504 -2.7705 0.1875 0 7
-14.5066 -0.4817 -2.7705 0.1875 0 7
-14.5017 -0.6129 -2.7705 0.1875 0 7
-14.4955 -0.7440 -2.7705 0.1875 0 7
-14.4882 -0.8751 -2.7705 0.1875 0 7
-14.4797 -1.0061 -2.7705 0.1875 0 7
-14.4700 -1.1370 -2.7705 0.1875 0 7
-14.4591 -1.2678 -2.7705 0.1875 0 7
-14.4471 -1.3986 -2.7705 0.1875 0 7
-14.4338 -1.5292 -2.7705 0.1875 0 7
-14.4194 -1.6597 -2.7705 0.1875 0 7
-14.4038 -1.7900 -2.7705 0.1875 0 7
-14.3870 -1.9202 -2.7705 0.1875 0 7
-14.3691 -2.0503 -2.7705 0.1875 0 7
-14.3499 -2.1802 -2.7705 0.1875 0 6
-14.3297 -2.3099 -2.7705 0.1875 0 7
-14.3082 -2.4394 -2.7705 0.1875 0 6
-14.2855 -2.5687 -2.7705 0.1875 0 7
-14.2617 -2.6978 -2.7705 0.1875 0 7
-14.2367 -2.8267 -2.7705 0.1875 0 7
-14.2106 -2.9553 -2.7705 0.1875 0 7
-14.1832 -3.0837 -2.7705 0.1875 0 7
-14.1548 -3.2119 -2.7705 0.1875 0 7
-14.1252 -3.3398 -2.7705 0.1875 0 7
-14.0943 -3.4674 -2.7705 0.1875 0 7
-14.0624 -3.5948 -2.7705 0.1875 0 7
-14.0293 -3.7218 -2.7705 0.1875 0 7
-13.9951 -3.8485 -2.7705 0.1875 0 7
-13.9597 -3.9750 -2.7705 0.1875 0 7
-13.9232 -4.1011 -2.7705 0.1875 0 7
-13.8855 -4.2268 -2.7705 0.1875 0 7
-13.8467 -4.3523 -2.7705 0.1875 0 7
-13.8068 -4.4773 -2.7705 0.1875 0 7
-13.7657 -4.6020 -2.7705 0.1875 0 7
-13.7235 -4.7263 -2.7705 0.1875 0 7
-13.6802 -4.8503 -2.7705 0.1875 0 7
-13.6358 -4.9738 -2.7705 0.1875 0 7
-13.5902 -5.0969 -2.7705 0.1875 0 7
-13.5436 -5.2197 -2.7705 0.1875 0 7
-13.4958 -5.3419 -2.7705 0.1875 0 7
-13.4470 -5.4638 -2.7705 0.1875 0 7
-13.3970 -5.5852 -2.7705 0.1875 0 7
-13.3459 -5.7062 -2.7705 0.1875 0 7
-13.2938 -5.8266 -2.7705 0.1875 0 7
-13.2405 -5.9466 -2.7705 0.1875 0 7
-13.1862 -6.0661 -2.7705 0.1875 0 7
-13.1308 -6.1852 -2.7705 0.1875 0 7
-13.0743 -6.3037 -2.7705 0.1875 0 7
-13.0168 -6.4217 -2.7705 0.1875 0 7
-12.9581 -6.5391 -2.7705 0.1875 0 7
-12.8985 -6.6561 -2.7705 0.1875 0 7
-12.8377 -6.7725 -2.7705 0.1875 0 7
-12.7760 -6.8883 -2.7705 0.1875 0 7
-12.7131 -7.0036 -2.7705 0.1875 0 7
-12.6493 -7.1183 -2.7705 0.1875 0 7
-12.5844 -7.2324 -2.7705 0.1875 0 7
-12.5184 -7.3459 -2.7705 0.1875 0 7
-12.4515 -7.4589 -2.7705 0.1875 0 7
-12.3835 -7.5712 -2.7705 0.1875 0 7
-12.3145 -7.6829 -2.7705 0.1875 0 7
-12.2445 -7.7939 -2.7705 0.1875 0 7
-12.1735 -7.9044 -2.7705 0.1875 0 7
-12.1015 -8.0142 -2.7705 0.1875 0 7
-12.0285 -8.1233 -2.7705 0.1875 0 7
-11.9546 -8.2318 -2.7705 0.1875 0 7
-11.8796 -8.3395 -2.7705 0.1875 0 7
-11.8037 -8.4466 -2.7705 0.1875 0 7
-11.7269 -8.5531 -2.7705 0.1875 0 7
-11.6490 -8.6588 -2.7705 0.1875 0 7
-11.5702 -8.7638 -2.7705 0.1875 0 7
-11.4905 -8.8681 -2.7705 0.1875 0 7
-11.4098 -8.9717 -2.7705 0.1875 0 7
-11.3282 -9.0745 -2.7705 0.1875 0 6
-11.2456 -9.1766 -2.7705 0.1875 0 6
-11.1622 -9.2779 -2.7705 0.1875 0 7
-11.0778 -9.3785 -2.7705 0.1875 0 7
-10.9925 -9.4783 -2.7705 0.1875 0 7
-10.9063 -9.5773 -2.7705 0.1875 0 7
-10.8193 -9.6756 -2.7705 0.1875 0 7
-10.7313 -9.7731 -2.7705 0.1875 0 7
-10.6425 -9.8697 -2.7705 0.1875 0 7
-10.5528 -9.9656 -2.7705 0.1875 0 7
-10.4622 -10.0606 -2.7705 0.1875 0 7
-10.3708 -10.1548 -2.7705 0.1875 0 7
-10.2785 -10.2482 -2.7705 0.1875 0 7
-10.1854 -10.3408 -2.7705 0.1875 0 7
-10.0914 -10.4325 -2.7705 0.1875 0 7
-9.9967 -10.5233 -2.7705 0.1875 0 7
-9.9011 -10.6133 -2.7705 0.1875 0 7
-9.8047 -10.7024 -2.7705 0.1875 0 7
-9.7075 -10.7907 -2.7705 0.1875 0 7
-9.6095 -10.8780 -2.7705 0.1875 0 7
-9.5107 -10.9645 -2.7705 0.1875 0 7
-9.4072 -11.0455 -2.7693 0.1992 0 8
-9.3019 -11.1242 -2.7679 0.1993 0 8
-9.1961 -11.2019 -2.7664 0.1994 0 8
-9.0896 -11.2787 -2.7650 0.1995 0 8
-8.9826 -11.3546 -2.7635 0.1996 0 8
-8.8390 -11.3832 -2.7509 0.7456 0 8
-8.6673 -11.3730 -2.7294 0.7515 0 8
-8.4983 -11.3629 -2.7084 0.7573 0 8
-8.3318 -11.3530 -2.6880 0.7631 0 8
-8.1677 -11.3431 -2.6680 0.7688 0 8
-8.0061 -11.3334 -2.6486 0.7744 0 8
-7.8467 -11.3237 -2.6297 0.7800 0 8
-7.7099 -11.3442 -2.6181 0.1875 0 8
-7.6070 -11.4135 -2.6181 0.1875 0 8
-7.5035 -11.4818 -2.6181 0.1875 0 8
-7.3993 -11.5492 -2.6181 0.1875 0 8
-7.2946 -11.6157 -2.6181 0.1875 0 8
-7.1892 -11.6812 -2.6181 0.1875 0 8
-7.0832 -11.7457 -2.6181 0.1875 0 8
-6.9767 -11.8093 -2.6181 0.1875 0 8
-6.8696 -11.8719 -2.6181 0.1875 0 8
-6.7620 -11.9336 -2.6181 0.1875 0 8
-6.6537 -11.9942 -2.6181 0.1875 0 8
-6.5450 -12.0539 -2.6181 0.1875 0 8
-6.4357 -12.1126 -2.6181 0.1875 0 8
-6.3259 -12.1704 -2.6181 0.1875 0 8
-6.2155 -12.2271 -2.6181 0.1875 0 8
-6.1047 -12.2828 -2.6181 0.1875 0 8
-5.9933 -12.3375 -2.6181 0.1875 0 8
-5.8815 -12.3912 -2.6181 0.1875 0 8
-5.7692 -12.4439 -2.6181 0.1875 0 8
-5.6564 -12.4956 -2.6181 0.1875 0 8
-5.5431 -12.5462 -2.6181 0.1875 0 8
-5.4294 -12.5958 -2.6181 0.1875 0 8
-5.3153 -12.6444 -2.6181 0.1875 0 8
-5.2007 -12.6920 -2.6181 0.1875 0 8
-5.0857 -12.7385 -2.6181 0.1875 0 8
-4.9703 -12.7840 -2.6181 0.1875 0 8
-4.8544 -12.8284 -2.6181 0.1875 0 8
-4.7382 -12.8718 -2.6181 0.1875 0 8
-4.1656 -11.6401 -2.3598 0.9004 0 5
-4.0438 -11.6301 -2.3503 0.9041 0 5
-3.9347 -11.6552 -2.3481 0.3999 0 5
-4.2695 -13.0348 -2.6181 0.1875 0 8
-4.1514 -13.0729 -2.6181 0.1875 0 8
-4.0330 -13.1099 -2.6181 0.1875 0 8
-3.9143 -13.1458 -2.6181 0.1875 0 8
-3.7952 -13.1807 -2.6181 0.1875 0 8
-3.6758 -13.2145 -2.6181 0.1875 0 8
-3.5562 -13.2472 -2.6181 0.1875 0 8
-3.4362 -13.2788 -2.6181 0.1875 0 8
-3.3160 -13.3093 -2.6181 0.1875 0 8
-3.1954 -13.3388 -2.6181 0.1875 0 8
-3.0747 -13.3671 -2.6181 0.1875 0 8
-2.9536 -13.3944 -2.6181 0.1875 0 8
-2.8324 -13.4206 -2.6181 0.1875 0 8
-2.7109 -13.4456 -2.6181 0.1875 0 8
-2.5891 -13.4696 -2.6181 0.1875 0 8
-2.4672 -13.4925 -2.6181 0.1875 0 8
-2.3451 -13.5142 -2.6181 0.1875 0 8
-2.2227 -13.5349 -2.6181 0.1875 0 8
-2.1002 -13.5545 -2.6181 0.1875 0 8
-1.9775 -13.5729 -2.6181 0.1875 0 8
-1.8547 -13.5902 -2.6181 0.1875 0 8
-1.7317 -13.6064 -2.6181 0.1875 0 8
-1.6086 -13.6216 -2.6181 0.1875 0 8
-1.4853 -13.6355 -2.6181 0.1875 0 8
-1.3619 -13.6484 -2.6181 0.1875 0 8
-1.2384 -13.6602 -2.6181 0.1875 0 8
-1.1148 -13.6708 -2.6181 0.1875 0 8
-0.9911 -13.6803 -2.6181 0.1875 0 8
-0.8669 -13.6812 -2.6167 0.9718 0 1
-0.7421 -13.6708 -2.6133 0.9731 0 1
-0.6177 -13.6605 -2.6101 0.9743 0 1
-0.4936 -13.6503 -2.6072 0.9754 0 1
-0.3697 -13.6400 -2.6045 0.9764 0 1
-0.2461 -13.6298 -2.6020 0.9773 0 1
-0.1227 -13.6196 -2.5998 0.9781 0 1
0.0005 -13.6094 -2.5977 0.9789 0 1
0.1235 -13.5992 -2.5959 0.9796 0 1
0.2464 -13.5890 -2.5943 0.9802 0 1
0.3727 -13.7111 -2.6181 0.1875 0 8
0.4967 -13.7072 -2.6181 0.1875 0 8
0.6206 -13.7022 -2.6181 0.1875 0 8
0.7446 -13.6960 -2.6181 0.1875 0 8
0.8684 -13.6887 -2.6181 0.1875 0 8
0.9875 -13.6161 -2.6058 0.1875 0 3
1.1107 -13.6066 -2.6058 0.1875 0 3
1.2337 -13.5960 -2.6058 0.1875 0 3
1.3566 -13.5843 -2.6058 0.1875 0 3
1.4794 -13.5715 -2.6058 0.1875 0 3
1.6021 -13.5575 -2.6058 0.1875 0 3
1.7247 -13.5425 -2.6058 0.1875 0 3
1.8471 -13.5264 -2.6058 0.1875 0 3
1.9693 -13.5091 -2.6058 0.1875 0 3
2.0915 -13.4907 -2.6058 0.1875 0 3
2.2134 -13.4713 -2.6058 0.1875 0 3
2.3352 -13.4507 -2.6058 0.1875 0 3
2.4567 -13.4290 -2.6058 0.1875 0 3
2.5781 -13.4062 -2.6058 0.1875 0 3
2.6992 -13.3824 -2.6058 0.1875 0 3
2.8202 -13.3574 -2.6058 0.1875 0 3
2.9409 -13.3314 -2.6058 0.1875 0 3
3.0613 -13.3042 -2.6058 0.1875 0 3
3.1815 -13.2760 -2.6058 0.1875 0 3
3.3015 -13.2467 -2.6058 0.1875 0 3
3.4212 -13.2163 -2.6058 0.1875 0 3
3.5406 -13.1848 -2.6058 0.1875 0 3
3.6597 -13.1522 -2.6058 0.1875 0 3
3.7785 -13.1186 -2.6058 0.1875 0 3
3.8970 -13.0839 -2.6058 0.1875 0 3
4.0152 -13.0481 -2.6058 0.1875 0 3
4.1330 -13.0112 -2.6058 0.1875 0 3
4.2505 -12.9733 -2.6058 0.1875 0 3
4.3677 -12.9343 -2.6058 0.1875 0 3
4.4845 -12.8943 -2.6058 0.1875 0 3
4.6010 -12.8532 -2.6058 0.1875 0 3
4.7170 -12.8111 -2.6058 0.1875 0 3
4.8327 -12.7679 -2.6058 0.1875 0 3
4.9480 -12.7237 -2.6058 0.1875 0 3
5.0719 -12.7010 -2.6105 0.9399 0 3
5.2011 -12.6900 -2.6178 0.9373 0 3
5.3163 -12.6440 -2.6181 0.1875 0 8
5.4305 -12.5954 -2.6181 0.1875 0 8
5.5441 -12.5458 -2.6181 0.1875 0 8
5.6574 -12.4951 -2.6181 0.1875 0 8
5.7702 -12.4434 -2.6181 0.1875 0 8
5.8825 -12.3907 -2.6181 0.1875 0 8
5.9943 -12.3370 -2.6181 0.1875 0 8
6.1057 -12.2823 -2.6181 0.1875 0 8
6.2165 -12.2266 -2.6181 0.1875 0 8
6.3268 -12.1699 -2.6181 0.1875 0 8
6.4366 -12.1121 -2.6181 0.1875 0 8
6.5459 -12.0534 -2.6181 0.1875 0 8
6.6547 -11.9937 -2.6181 0.1875 0 8
6.7629 -11.9330 -2.6181 0.1875 0 8
6.8706 -11.8714 -2.6181 0.1875 0 8
6.9776 -11.8088 -2.6181 0.1875 0 8
7.0842 -11.7452 -2.6181 0.1875 0 8
7.1901 -11.6806 -2.6181 0.1875 0 8
7.2955 -11.6151 -2.6181 0.1875 0 8
7.4002 -11.5486 -2.6181 0.1875 0 8
7.5044 -11.4812 -2.6181 0.1875 0 8
7.6079 -11.4129 -2.6181 0.1875 0 8
7.7108 -11.3436 -2.6181 0.1875 0 8
7.8131 -11.2734 -2.6181 0.1875 0 8
7.9148 -11.2023 -2.6181 0.1875 0 8
8.0158 -11.1302 -2.6181 0.1875 0 8
8.1161 -11.0573 -2.6181 0.1875 0 8
8.2158 -10.9834 -2.6181 0.1875 0 8
8.3148 -10.9086 -2.6181 0.1875 0 8
8.4131 -10.8330 -2.6181 0.1875 0 8
8.5108 -10.7564 -2.6181 0.1875 0 8
8.6077 -10.6790 -2.6181 0.1875 0 8
8.7040 -10.6007 -2.6181 0.1875 0 8
8.7995 -10.5216 -2.6181 0.1875 0 8
8.8943 -10.4415 -2.6181 0.1875 0 8
8.9884 -10.3607 -2.6181 0.1875 0 8
9.0817 -10.2790 -2.6181 0.1875 0 8
9.1743 -10.1964 -2.6181 0.1875 0 8
9.2662 -10.1130 -2.6181 0.1875 0 8
9.3572 -10.0288 -2.6181 0.1875 0 8
9.4476 -9.9437 -2.6181 0.1875 0 8
9.5642 -9.8859 -2.6255 0.7812 0 8
9.7225 -9.8693 -2.6444 0.7757 0 8
9.8831 -9.8524 -2.6637 0.7700 0 8
10.0460 -9.8353 -2.6835 0.7644 0 8
10.2113 -9.8178 -2.7039 0.7586 0 8
10.3792 -9.8001 -2.7247 0.7528 0 8
10.5496 -9.7820 -2.7461 0.7469 0 8
10.7039 -9.7465 -2.7632 0.1996 0 8
10.7972 -9.6543 -2.7646 0.1995 0 8
10.8897 -9.5612 -2.7661 0.1994 0 8
10.9815 -9.4673 -2.7675 0.1993 0 8
11.0726 -9.3726 -2.7690 0.1992 0 8
11.1629 -9.2770 -2.7705 0.1875 0 7
11.2464 -9.1757 -2.7705 0.1875 0 7
11.3289 -9.0736 -2.7705 0.1875 0 7
11.4105 -8.9708 -2.7705 0.1875 0 7
11.4912 -8.8672 -2.7705 0.1875 0 7
11.5709 -8.7629 -2.7705 0.1875 0 7
11.6497 -8.6579 -2.7705 0.1875 0 7
11.7275 -8.5522 -2.7705 0.1875 0 7
11.8044 -8.4457 -2.7705 0.1875 0 7
11.8803 -8.3386 -2.7705 0.1875 0 7
11.9553 -8.2308 -2.7705 0.1875 0 7
12.0292 -8.1223 -2.7705 0.1875 0 7
12.1022 -8.0132 -2.7705 0.1875 0 7
12.1742 -7.9034 -2.7705 0.1875 0 7
12.2452 -7.7930 -2.7705 0.1875 0 7
12.3151 -7.6819 -2.7705 0.1875 0 7
12.3841 -7.5702 -2.7705 0.1875 0 7
12.4521 -7.4579 -2.7705 0.1875 0 7
12.5190 -7.3450 -2.7705 0.1875 0 7
12.5850 -7.2314 -2.7705 0.1875 0 7
12.6498 -7.1173 -2.7705 0.1875 0 6
12.7137 -7.0026 -2.7705 0.1875 0 7
12.7765 -6.8873 -2.7705 0.1875 0 7
12.8383 -6.7715 -2.7705 0.1875 0 7
12.8990 -6.6551 -2.7705 0.1875 0 7
12.9587 -6.5381 -2.7705 0.1875 0 7
13.0173 -6.4206 -2.7705 0.1875 0 7
13.0748 -6.3026 -2.7705 0.1875 0 7
13.1313 -6.1841 -2.7705 0.1875 0 7
13.1867 -6.0651 -2.7705 0.1875 0 7
13.2410 -5.9456 -2.7705 0.1875 0 7
13.2943 -5.8256 -2.7705 0.1875 0 7
13.3464 -5.7051 -2.7705 0.1875 0 7
13.3975 -5.5841 -2.7705 0.1875 0 7
13.4474 -5.4627 -2.7705 0.1875 0 7
13.4963 -5.3409 -2.7705 0.1875 0 7
13.5440 -5.2186 -2.7705 0.1875 0 7
13.5907 -5.0959 -2.7705 0.1875 0 7
13.6362 -4.9727 -2.7705 0.1875 0 7
13.6806 -4.8492 -2.7705 0.1875 0 7
13.7239 -4.7253 -2.7705 0.1875 0 7
13.7661 -4.6009 -2.7705 0.1875 0 7
13.8072 -4.4762 -2.7705 0.1875 0 7
13.8471 -4.3512 -2.7705 0.1875 0 7
13.8859 -4.2258 -2.7705 0.1875 0 7
13.9235 -4.1000 -2.7705 0.1875 0 7
13.9600 -3.9739 -2.7705 0.1875 0 7
13.9954 -3.8475 -2.7705 0.1875 0 7
14.0297 -3.7207 -2.7705 0.1875 0 7
14.0627 -3.5937 -2.7705 0.1875 0 7
14.0947 -3.4663 -2.7705 0.1875 0 6
14.1254 -3.3387 -2.7705 0.1875 0 7
14.1550 -3.2108 -2.7705 0.1875 0 7
14.1835 -3.0826 -2.7705 0.1875 0 7
14.2108 -2.9542 -2.7705 0.1875 0 7
14.2370 -2.8256 -2.7705 0.1875 0 7
14.2619 -2.6967 -2.7705 0.1875 0 7
14.2857 -2.5676 -2.7705 0.1875 0 7
14.3084 -2.4383 -2.7705 0.1875 0 7
14.3298 -2.3088 -2.7705 0.1875 0 7
14.3501 -2.1790 -2.7705 0.1875 0 7
14.3693 -2.0492 -2.7705 0.1875 0 7
14.3872 -1.9191 -2.7705 0.1875 0 7
14.4040 -1.7889 -2.7705 0.1875 0 7
14.4196 -1.6585 -2.7705 0.1875 0 7
14.4340 -1.5281 -2.7705 0.1875 0 7
14.4472 -1.3974 -2.7705 0.1875 0 7
14.4593 -1.2667 -2.7705 0.1875 0 7
14.4701 -1.1359 -2.7705 0.1875 0 7
14.4798 -1.0049 -2.7705 0.1875 0 7
14.4883 -0.8739 -2.7705 0.1875 0 7
14.4956 -0.7429 -2.7705 0.1875 0 7
14.5017 -0.6117 -2.7705 0.1875 0 7
14.5067 -0.4805 -2.7705 0.1875 0 7
14.5104 -0.3493 -2.7705 0.1875 0 7
14.5130 -0.2180 -2.7705 0.1875 0 7
14.5144 -0.0868 -2.7705 0.1875 0 6
14.5146 0.0445 -2.7705 0.1875 0 7
14.5136 0.1758 -2.7705 0.1875 0 6
14.5114 0.3071 -2.7705 0.1875 0 7
14.5080 0.4383 -2.7705 0.1875 0 7
14.5035 0.5695 -2.7705 0.1875 0 7
14.4977 0.7007 -2.7705 0.1875 0 7
14.4568 0.8298 -2.7640 0.2774 0 20
14.4827 0.9628 -2.7705 0.1875 0 7
14.4734 1.0938 -2.7705 0.1875 0 7
14.4629 1.2246 -2.7705 0.1875 0 7
14.4512 1.3554 -2.7705 0.1875 0 7
14.4384 1.4861 -2.7705 0.1875 0 7
14.4243 1.6166 -2.7705 0.1875 0 7
14.4091 1.7470 -2.7705 0.1875 0 7
14.3927 1.8772 -2.7705 0.1875 0 7
14.3752 2.0073 -2.7705 0.1875 0 7
14.3564 2.1373 -2.7705 0.1875 0 7
14.3365 2.2670 -2.7705 0.1875 0 7
14.3154 2.3966 -2.7705 0.1875 0 7
14.2931 2.5260 -2.7705 0.1875 0 7
14.2697 2.6552 -2.7705 0.1875 0 7
14.2451 2.7841 -2.7705 0.1875 0 7
14.2193 2.9129 -2.7705 0.1875 0 7
14.1924 3.0414 -2.7705 0.1875 0 7
14.1643 3.1696 -2.7705 0.1875 0 7
14.1351 3.2976 -2.7705 0.1875 0 7
14.1047 3.4253 -2.7705 0.1875 0 7
14.0731 3.5527 -2.7705 0.1875 0 6
14.0404 3.6799 -2.7705 0.1875 0 7
14.0065 3.8067 -2.7705 0.1875 0 7
13.9715 3.9333 -2.7705 0.1875 0 7
13.9354 4.0595 -2.7705 0.1875 0 7
13.8981 4.1853 -2.7705 0.1875 0 7
13.8597 4.3109 -2.7705 0.1875 0 7
13.8201 4.4361 -2.7705 0.1875 0 7
13.7794 4.5609 -2.7705 0.1875 0 7
13.7376 4.6853 -2.7705 0.1875 0 7
13.6947 4.8094 -2.7705 0.1875 0 7
13.6506 4.9331 -2.7705 0.1875 0 7
13.6054 5.0563 -2.7705 0.1875 0 7
13.5592 5.1792 -2.7705 0.1875 0 7
13.5118 5.3016 -2.7705 0.1875 0 7
13.4633 5.4236 -2.7705 0.1875 0 7
13.4136 5.5452 -2.7705 0.1875 0 7
13.3629 5.6662 -2.7705 0.1875 0 7
13.3111 5.7869 -2.7705 0.1875 0 7
13.2583 5.9070 -2.7705 0.1875 0 7
13.2043 6.0267 -2.7705 0.1875 0 7
13.1492 6.1459 -2.7705 0.1875 0 7
13.0931 6.2646 -2.7705 0.1875 0 7
13.0359 6.3828 -2.7705 0.1875 0 7
12.9777 6.5004 -2.7705 0.1875 0 7
12.9183 6.6175 -2.7705 0.1875 0 7
12.8579 6.7341 -2.7705 0.1875 0 7
12.7965 6.8501 -2.7705 0.1875 0 7
12.7340 6.9656 -2.7705 0.1875 0 7
12.6705 7.0805 -2.7705 0.1875 0 7
12.6059 7.1948 -2.7705 0.1875 0 7
12.5403 7.3085 -2.7705 0.1875 0 7
12.4737 7.4216 -2.7705 0.1875 0 7
12.4061 7.5341 -2.7705 0.1875 0 7
12.3375 7.6460 -2.7705 0.1875 0 7
12.2678 7.7573 -2.7705 0.1875 0 7
12.1971 7.8680 -2.7705 0.1875 0 7
12.1255 7.9780 -2.7705 0.1875 0 7
12.0528 8.0873 -2.7705 0.1875 0 7
11.9792 8.1960 -2.7705 0.1875 0 7
11.9045 8.3040 -2.7705 0.1875 0 7
11.8289 8.4113 -2.7705 0.1875 0 7
11.7524 8.5180 -2.7705 0.1875 0 7
11.6748 8.6240 -2.7705 0.1875 0 7
11.5964 8.7292 -2.7705 0.1875 0 7
11.5169 8.8337 -2.7705 0.1875 0 7
11.4366 8.9375 -2.7705 0.1875 0 7
11.3553 9.0406 -2.7705 0.1875 0 7
11.2730 9.1429 -2.7705 0.1875 0 7
11.1899 9.2445 -2.7705 0.1875 0 7
11.1058 9.3454 -2.7705 0.1875 0 7
11.0208 9.4454 -2.7705 0.1875 0 7
10.9349 9.5447 -2.7705 0.1875 0 7
10.8482 9.6432 -2.7705 0.1875 0 7
10.7605 9.7410 -2.7705 0.1875 0 7
10.6719 9.8379 -2.7705 0.1875 0 7
10.5825 9.9340 -2.7705 0.1875 0 7
10.4922 10.0293 -2.7705 0.1875 0 7
10.4011 10.1238 -2.7705 0.1875 0 7
10.3091 10.2175 -2.7705 0.1875 0 7
10.2163 10.3103 -2.7705 0.1875 0 7
10.1226 10.4023 -2.7705 0.1875 0 7
10.0281 10.4934 -2.7705 0.1875 0 7
9.9328 10.5837 -2.7705 0.1875 0 7
9.8366 10.6731 -2.7705 0.1875 0 7
9.7397 10.7616 -2.7705 0.1875 0 7
9.6420 10.8493 -2.7705 0.1875 0 7
9.5434 10.9361 -2.7705 0.1875 0 7
9.4441 11.0219 -2.7705 0.1875 0 7
9.3441 11.1069 -2.7705 0.1875 0 7
9.2432 11.1910 -2.7705 0.1875 0 7
9.1416 11.2741 -2.7705 0.1875 0 7
9.0393 11.3563 -2.7705 0.1875 0 7
8.9362 11.4376 -2.7705 0.1875 0 7
8.8324 11.5180 -2.7705 0.1875 0 7
8.7278 11.5974 -2.7705 0.1875 0 7
8.6226 11.6759 -2.7705 0.1875 0 7
8.5166 11.7534 -2.7705 0.1875 0 7
8.4100 11.8299 -2.7705 0.1875 0 7
8.3026 11.9055 -2.7705 0.1875 0 7
8.1946 11.9801 -2.7705 0.1875 0 7
8.0859 12.0538 -2.7705 0.1875 0 7
7.9765 12.1264 -2.7705 0.1875 0 7
7.8665 12.1980 -2.7705 0.1875 0 7
7.7559 12.2687 -2.7705 0.1875 0 7
7.6446 12.3383 -2.7705 0.1875 0 7
7.5327 12.4070 -2.7705 0.1875 0 7
7.4202 12.4746 -2.7705 0.1875 0 7
7.3070 12.5412 -2.7705 0.1875 0 7
7.1933 12.6068 -2.7705 0.1875 0 7
7.0790 12.6713 -2.7705 0.1875 0 7
6.9641 12.7348 -2.7705 0.1875 0 7
6.8486 12.7973 -2.7705 0.1875 0 7
6.7326 12.8587 -2.7705 0.1875 0 7
6.6160 12.9191 -2.7705 0.1875 0 7
6.4989 12.9784 -2.7705 0.1875 0 7
6.3812 13.0367 -2.7705 0.1875 0 7
6.2630 13.0938 -2.7705 0.1875 0 7
6.1444 13.1500 -2.7705 0.1875 0 7
6.0252 13.2050 -2.7705 0.1875 0 7
5.9055 13.2590 -2.7705 0.1875 0 7
5.7853 13.3118 -2.7705 0.1875 0 7
5.6647 13.3636 -2.7705 0.1875 0 7
5.5436 13.4143 -2.7705 0.1875 0 7
5.4220 13.4639 -2.7705 0.1875 0 7
5.3000 13.5124 -2.7705 0.1875 0 7
5.1776 13.5598 -2.7705 0.1875 0 7
5.0547 13.6060 -2.7705 0.1875 0 7
4.9314 13.6512 -2.7705 0.1875 0 7
4.8078 13.6952 -2.7705 0.1875 0 7
4.6837 13.7382 -2.7705 0.1875 0 7
4.5593 13.7800 -2.7705 0.1875 0 7
4.4344 13.8206 -2.7705 0.1875 0 7
4.3093 13.8602 -2.7705 0.1875 0 7
4.1837 13.8986 -2.7705 0.1875 0 7
4.0578 13.9359 -2.7705 0.1875 0 7
3.9316 13.9720 -2.7705 0.1875 0 7
3.8051 14.0070 -2.7705 0.1875 0 7
3.6782 14.0408 -2.7705 0.1875 0 6
3.5511 14.0735 -2.7705 0.1875 0 6
3.4236 14.1051 -2.7705 0.1875 0 6
3.2959 14.1355 -2.7705 0.1875 0 6
3.1679 14.1647 -2.7705 0.1875 0 6
3.0397 14.1928 -2.7705 0.1875 0 6
2.9112 14.2197 -2.7705 0.1875 0 6
2.7825 14.2454 -2.7705 0.1875 0 6
2.6535 14.2700 -2.7705 0.1875 0 6
2.5243 14.2934 -2.7705 0.1875 0 6
2.3949 14.3157 -2.7705 0.1875 0 7
2.2654 14.3368 -2.7705 0.1875 0 7
2.1356 14.3567 -2.7705 0.1875 0 6
2.0056 14.3754 -2.7705 0.1875 0 6
1.8756 14.3929 -2.7705 0.1875 0 6
1.7453 14.4093 -2.7705 0.1875 0 6
1.6149 14.4245 -2.7705 0.1875 0 7
1.4844 14.4385 -2.7705 0.1875 0 7
1.3537 14.4514 -2.7705 0.1875 0 7
1.2229 14.4630 -2.7705 0.1875 0 7
1.0921 14.4735 -2.7705 0.1875 0 7
0.9611 14.4828 -2.7705 0.1875 0 7
0.8301 14.4909 -2.7705 0.1875 0 7
0.6986 14.4912 -2.7692 0.1897 0 8
0.5671 14.4855 -2.7671 0.1898 0 8
0.4357 14.4787 -2.7649 0.1900 0 8
0.3035 14.4238 -2.7538 0.1888 0 8
0.1665 13.8784 -2.6493 0.2539 0 8
0.0405 13.7161 -2.6181 0.1875 0 8
-0.0836 13.7160 -2.6181 0.1875 0 8
-0.2076 13.7146 -2.6181 0.1875 0 8
-0.3317 13.7122 -2.6181 0.1875 0 8
-0.4557 13.7086 -2.6181 0.1875 0 8
-0.5797 13.7040 -2.6181 0.1875 0 8
-0.7036 13.6982 -2.6181 0.1875 0 8
-0.8275 13.6912 -2.6181 0.1875 0 8
-0.9513 13.6832 -2.6181 0.1875 0 8
-1.0750 13.6740 -2.6181 0.1875 0 8
-1.1986 13.6637 -2.6181 0.1875 0 8
12.9268 0.0000 -2.7705 0.2096 0 6
12.9263 0.1169 -2.7705 0.2096 0 7
12.9247 0.2338 -2.7705 0.2096 0 7
12.9221 0.3507 -2.7705 0.2096 0 7
12.9184 0.4676 -2.7705 0.2096 0 7
12.9136 0.5844 -2.7705 0.2096 0 7
12.9078 0.7012 -2.7705 0.2096 0 7
12.9009 0.8179 -2.7705 0.2096 0 7
12.8930 0.9346 -2.7705 0.2096 0 7
12.8840 1.0512 -2.7705 0.2096 0 7
12.8740 1.1676 -2.7705 0.2096 0 7
12.8629 1.2840 -2.7705 0.2096 0 7
12.8507 1.4003 -2.7705 0.2096 0 7
12.8375 1.5165 -2.7705 0.2096 0 7
12.8233 1.6326 -2.7705 0.2096 0 7
12.8080 1.7485 -2.7705 0.2096 0 7
12.7917 1.8642 -2.7705 0.2096 0 7
12.7743 1.9799 -2.7705 0.2096 0 7
12.7559 2.0953 -2.7705 0.2096 0 7
12.7364 2.2106 -2.7705 0.2096 0 7
12.7159 2.3257 -2.7705 0.2096 0 7
12.6943 2.4406 -2.7705 0.2096 0 7
12.6717 2.5554 -2.7705 0.2096 0 7
12.6481 2.6699 -2.7705 0.2096 0 7
12.6234 2.7842 -2.7705 0.2096 0 7
12.5977 2.8982 -2.7705 0.2096 0 7
12.5710 3.0120 -2.7705 0.2096 0 7
12.5432 3.1256 -2.7705 0.2096 0 7
12.5145 3.2390 -2.7705 0.2096 0 7
12.4847 3.3520 -2.7705 0.2096 0 6
12.4538 3.4648 -2.7705 0.2096 0 7
12.4220 3.5773 -2.7705 0.2096 0 7
12.3891 3.6895 -2.7705 0.2096 0 7
12.3552 3.8014 -2.7705 0.2096 0 7
12.3204 3.9130 -2.7705 0.2096 0 7
12.2845 4.0243 -2.7705 0.2096 0 7
12.2475 4.1352 -2.7705 0.2096 0 7
12.2096 4.2458 -2.7705 0.2096 0 7
12.1708 4.3561 -2.7705 0.2096 0 7
12.1308 4.4660 -2.7705 0.2096 0 7
12.0900 4.5755 -2.7705 0.2096 0 7
12.0481 4.6847 -2.7705 0.2096 0 7
12.0052 4.7935 -2.7705 0.2096 0 7
11.9614 4.9019 -2.7705 0.2096 0 7
11.9165 5.0099 -2.7705 0.2096 0 7
11.8707 5.1174 -2.7705 0.2096 0 7
11.8240 5.2246 -2.7705 0.2096 0 7
11.7762 5.3313 -2.7705 0.2096 0 7
11.7275 5.4376 -2.7705 0.2096 0 7
11.6779 5.5435 -2.7705 0.2096 0 7
11.6272 5.6489 -2.7705 0.2096 0 7
11.5757 5.7538 -2.7705 0.2096 0 7
11.5232 5.8583 -2.7705 0.2096 0 7
11.4697 5.9623 -2.7705 0.2096 0 7
11.4153 6.0658 -2.7705 0.2096 0 7
11.3600 6.1688 -2.7705 0.2096 0 7
11.3037 6.2713 -2.7705 0.2096 0 7
11.2465 6.3732 -2.7705 0.2096 0 7
11.1884 6.4747 -2.7705 0.2096 0 7
11.1294 6.5756 -2.7705 0.2096 0 7
11.0695 6.6760 -2.7705 0.2096 0 7
11.0086 6.7759 -2.7705 0.2096 0 7
10.9469 6.8752 -2.7705 0.2096 0 7
10.8843 6.9739 -2.7705 0.2096 0 7
10.8208 7.0721 -2.7705 0.2096 0 7
10.7563 7.1697 -2.7705 0.2096 0 7
10.6910 7.2667 -2.7705 0.2096 0 7
10.6249 7.3630 -2.7705 0.2096 0 7
10.5578 7.4588 -2.7705 0.2096 0 7
10.4900 7.5540 -2.7705 0.2096 0 7
10.4212 7.6486 -2.7705 0.2096 0 7
10.3516 7.7426 -2.7705 0.2096 0 7
10.2811 7.8359 -2.7705 0.2096 0 7
10.2098 7.9285 -2.7705 0.2096 0 7
10.1377 8.0206 -2.7705 0.2096 0 7
10.0648 8.1119 -2.7705 0.2096 0 7
9.9910 8.2026 -2.7705 0.2096 0 7
9.9164 8.2927 -2.7705 0.2096 0 7
9.8410 8.3820 -2.7705 0.2096 0 7
9.7648 8.4707 -2.7705 0.2096 0 7
9.6877 8.5587 -2.7705 0.2096 0 7
9.6099 8.6459 -2.7705 0.2096 0 7
9.5313 8.7325 -2.7705 0.2096 0 7
9.4519 8.8183 -2.7705 0.2096 0 7
9.3718 8.9035 -2.7705 0.2096 0 7
9.2909 8.9879 -2.7705 0.2096 0 7
9.2092 9.0715 -2.7705 0.2096 0 7
9.1268 9.1545 -2.7705 0.2096 0 7
9.0436 9.2366 -2.7705 0.2096 0 7
8.9597 9.3181 -2.7705 0.2096 0 7
8.8751 9.3987 -2.7705 0.2096 0 7
8.7897 9.4786 -2.7705 0.2096 0 7
8.7036 9.5577 -2.7705 0.2096 0 7
8.6168 9.6361 -2.7705 0.2096 0 7
8.5293 9.7136 -2.7705 0.2096 0 7
8.4411 9.7903 -2.7705 0.2096 0 7
8.3522 9.8663 -2.7705 0.2096 0 7
8.2626 9.9414 -2.7705 0.2096 0 7
8.1723 10.0158 -2.7705 0.2096 0 7
8.0814 10.0893 -2.7705 0.2096 0 7
7.9898 10.1620 -2.7705 0.2096 0 7
7.8976 10.2338 -2.7705 0.2096 0 7
7.8047 10.3048 -2.7705 0.2096 0 7
7.7112 10.3750 -2.7705 0.2096 0 7
7.6170 10.4443 -2.7705 0.2096 0 7
7.5222 10.5128 -2.7705 0.2096 0 7
7.4269 10.5804 -2.7705 0.2096 0 7
7.3308 10.6471 -2.7705 0.2096 0 7
7.2343 10.7130 -2.7705 0.2096 0 7
7.1370 10.7780 -2.7705 0.2096 0 7
7.0393 10.8421 -2.7705 0.2096 0 7
6.9409 10.9053 -2.7705 0.2096 0 7
6.8420 10.9677 -2.7705 0.2096 0 7
6.7425 11.0291 -2.7705 0.2096 0 7
6.6425 11.0896 -2.7705 0.2096 0 7
6.5419 11.1493 -2.7705 0.2096 0 7
6.4408 11.2080 -2.7705 0.2096 0 7
6.3392 11.2658 -2.7705 0.2096 0 7
6.2370 11.3226 -2.7705 0.2096 0 7
6.1343 11.3786 -2.7705 0.2096 0 7
6.0312 11.4336 -2.7705 0.2096 0 7
5.9275 11.4877 -2.7705 0.2096 0 7
5.8234 11.5408 -2.7705 0.2096 0 7
5.7187 11.5930 -2.7705 0.2096 0 7
5.6136 11.6443 -2.7705 0.2096 0 7
5.5081 11.6946 -2.7705 0.2096 0 7
5.4021 11.7439 -2.7705 0.2096 0 7
5.2957 11.7923 -2.7705 0.2096 0 7
5.1888 11.8397 -2.7705 0.2096 0 7
5.0815 11.8862 -2.7705 0.2096 0 7
4.9738 11.9316 -2.7705 0.2096 0 7
4.8656 11.9761 -2.7705 0.2096 0 7
4.7571 12.0197 -2.7705 0.2096 0 7
4.6482 12.0622 -2.7705 0.2096 0 7
4.5389 12.1037 -2.7705 0.2096 0 7
4.4292 12.1443 -2.7705 0.2096 0 7
4.3192 12.1839 -2.7705 0.2096 0 7
4.2088 12.2224 -2.7705 0.2096 0 7
4.0981 12.2600 -2.7705 0.2096 0 7
3.9871 12.2966 -2.7705 0.2096 0 7
3.8757 12.3321 -2.7705 0.2096 0 7
3.7640 12.3667 -2.7705 0.2096 0 7
3.6520 12.4002 -2.7705 0.2096 0 7
3.5397 12.4328 -2.7705 0.2096 0 7
3.4271 12.4643 -2.7705 0.2096 0 7
3.3142 12.4947 -2.7705 0.2096 0 7
3.2010 12.5242 -2.7705 0.2096 0 6
3.0876 12.5526 -2.7705 0.2096 0 7
2.9740 12.5801 -2.7705 0.2096 0 7
2.8601 12.6064 -2.7705 0.2096 0 7
2.7459 12.6318 -2.7705 0.2096 0 7
2.6316 12.6561 -2.7705 0.2096 0 7
2.5170 12.6794 -2.7705 0.2096 0 7
2.4022 12.7016 -2.7705 0.2096 0 7
2.2872 12.7229 -2.7705 0.2096 0 7
2.1721 12.7430 -2.7705 0.2096 0 7
2.0567 12.7621 -2.7705 0.2096 0 7
1.9412 12.7802 -2.7705 0.2096 0 7
1.8255 12.7973 -2.7705 0.2096 0 7
1.7097 12.8133 -2.7705 0.2096 0 7
1.5937 12.8282 -2.7705 0.2096 0 7
1.4776 12.8421 -2.7705 0.2096 0 7
1.3614 12.8549 -2.7705 0.2096 0 7
1.2451 12.8667 -2.7705 0.2096 0 7
1.1287 12.8774 -2.7705 0.2096 0 7
1.0121 12.8871 -2.7705 0.2096 0 7
0.8955 12.8958 -2.7705 0.2096 0 7
0.7788 12.9033 -2.7705 0.2096 0 7
0.6621 12.9098 -2.7705 0.2096 0 7
0.5453 12.9153 -2.7705 0.2096 0 7
0.4285 12.9197 -2.7705 0.2096 0 7
0.3115 12.9193 -2.7697 0.2150 0 8
0.1945 12.9131 -2.7679 0.2152 0 8
0.0777 12.9058 -2.7661 0.2153 0 8
-0.0390 12.8976 -2.7643 0.2154 0 8
-0.1549 12.8272 -2.7494 0.3884 0 8
-0.2659 12.5914 -2.6992 0.4453 0 8
-0.3733 12.3742 -2.6533 0.4970 0 8
-0.4788 12.2063 -2.6181 0.2096 0 8
-0.5892 12.2015 -2.6181 0.2096 0 8
-0.6996 12.1957 -2.6181 0.2096 0 8
-0.8098 12.1889 -2.6181 0.2096 0 8
-0.9200 12.1810 -2.6181 0.2096 0 8
-1.0302 12.1722 -2.6181 0.2096 0 8
-1.1402 12.1624 -2.6181 0.2096 0 8
-1.2502 12.1516 -2.6181 0.2096 0 8
-1.3601 12.1398 -2.6181 0.2096 0 8
-1.4698 12.1270 -2.6181 0.2096 0 8
-1.5794 12.1132 -2.6181 0.2096 0 8
-1.6889 12.0984 -2.6181 0.2096 0 8
-1.7983 12.0826 -2.6181 0.2096 0 8
-1.9075 12.0659 -2.6181 0.2096 0 8
-2.0166 12.0482 -2.6181 0.2096 0 8
-2.1254 12.0294 -2.6181 0.2096 0 8
-2.2341 12.0097 -2.6181 0.2096 0 8
-2.3427 11.9890 -2.6181 0.2096 0 8
-2.4510 11.9673 -2.6181 0.2096 0 8
-2.5592 11.9446 -2.6181 0.2096 0 8
-2.6671 11.9210 -2.6181 0.2096 0 8
-2.7748 11.8964 -2.6181 0.2096 0 8
-2.8823 11.8708 -2.6181 0.2096 0 8
-2.9896 11.8443 -2.6181 0.2096 0 8
-3.0966 11.8167 -2.6181 0.2096 0 8
-3.2033 11.7883 -2.6181 0.2096 0 8
-3.3098 11.7588 -2.6181 0.2096 0 8
-3.4161 11.7284 -2.6181 0.2096 0 8
-3.5220 11.6970 -2.6181 0.2096 0 8
-3.6276 11.6647 -2.6181 0.2096 0 8
-3.7330 11.6314 -2.6181 0.2096 0 8
-3.8380 11.5971 -2.6181 0.2096 0 8
-3.9428 11.5619 -2.6181 0.2096 0 8
-4.0472 11.5258 -2.6181 0.2096 0 8
-4.1513 11.4887 -2.6181 0.2096 0 8
-4.2550 11.4507 -2.6181 0.2096 0 8
-4.3584 11.4118 -2.6181 0.2096 0 8
-4.4614 11.3719 -2.6181 0.2096 0 8
-4.5641 11.3311 -2.6181 0.2096 0 8
-4.6664 11.2893 -2.6181 0.2096 0 8
-4.7683 11.2466 -2.6181 0.2096 0 8
-4.8699 11.2031 -2.6181 0.2096 0 8
-4.9710 11.1585 -2.6181 0.2096 0 8
-5.0717 11.1131 -2.6181 0.2096 0 8
-5.1720 11.0668 -2.6181 0.2096 0 8
-5.2719 11.0196 -2.6181 0.2096 0 8
-5.3714 10.9714 -2.6181 0.2096 0 8
-5.4704 10.9224 -2.6181 0.2096 0 8
-5.5690 10.8725 -2.6181 0.2096 0 8
-5.6671 10.8217 -2.6181 0.2096 0 8
-5.7647 10.7700 -2.6181 0.2096 0 8
-5.8619 10.7174 -2.6181 0.2096 0 8
-5.9586 10.6639 -2.6181 0.2096 0 8
-6.0548 10.6096 -2.6181 0.2096 0 8
-6.1505 10.5544 -2.6181 0.2096 0 8
-6.2457 10.4983 -2.6181 0.2096 0 8
-6.3404 10.4414 -2.6181 0.2096 0 8
-6.4346 10.3836 -2.6181 0.2096 0 8
-6.5283 10.3250 -2.6181 0.2096 0 8
-6.6214 10.2655 -2.6181 0.2096 0 8
-6.7140 10.2052 -2.6181 0.2096 0 8
-6.8060 10.1441 -2.6181 0.2096 0 8
-6.8975 10.0821 -2.6181 0.2096 0 8
-6.9884 10.0193 -2.6181 0.2096 0 8
-7.0787 9.9557 -2.6181 0.2096 0 8
-7.1685 9.8913 -2.6181 0.2096 0 8
-7.2576 9.8260 -2.6181 0.2096 0 8
-7.3462 9.7600 -2.6181 0.2096 0 8
-7.4342 9.6931 -2.6181 0.2096 0 8
-7.5216 9.6255 -2.6181 0.2096 0 8
-7.6083 9.5571 -2.6181 0.2096 0 8
-7.6944 9.4879 -2.6181 0.2096 0 8
-7.7800 9.4179 -2.6181 0.2096 0 8
-7.8648 9.3471 -2.6181 0.2096 0 8
-7.9490 9.2756 -2.6181 0.2096 0 8
-8.0326 9.2033 -2.6181 0.2096 0 8
-8.1155 9.1303 -2.6181 0.2096 0 8
-8.1978 9.0565 -2.6181 0.2096 0 8
-8.2794 8.9820 -2.6181 0.2096 0 8
-8.3603 8.9067 -2.6181 0.2096 0 8
-8.4405 8.8308 -2.6181 0.2096 0 8
-8.5200 8.7541 -2.6181 0.2096 0 8
-8.5988 8.6766 -2.6181 0.2096 0 8
-8.6770 8.5985 -2.6181 0.2096 0 8
-8.7544 8.5197 -2.6181 0.2096 0 8
-8.8311 8.4401 -2.6181 0.2096 0 8
-8.9071 8.3599 -2.6181 0.2096 0 8
-8.9823 8.2790 -2.6181 0.2096 0 8
-9.0568 8.1974 -2.6181 0.2096 0 8
-9.1306 8.1152 -2.6181 0.2096 0 8
-9.2036 8.0323 -2.6181 0.2096 0 8
-9.2759 7.9487 -2.6181 0.2096 0 8
-9.3474 7.8645 -2.6181 0.2096 0 8
-9.4182 7.7796 -2.6181 0.2096 0 8
-9.4881 7.6941 -2.6181 0.2096 0 8
-9.5573 7.6080 -2.6181 0.2096 0 8
-9.6518 7.5415 -2.6252 0.6174 0 8
-9.8102 7.5234 -2.6497 0.6841 0 8
-9.9721 7.5053 -2.6749 0.6776 0 8
-10.1372 7.4869 -2.7009 0.6711 0 8
-10.3054 7.4680 -2.7276 0.6645 0 8
-10.4769 7.4487 -2.7551 0.6579 0 8
-10.5777 7.3772 -2.7639 0.2201 0 8
-10.6495 7.2851 -2.7654 0.2200 0 8
-10.7207 7.1923 -2.7669 0.2199 0 8
-10.7911 7.0988 -2.7683 0.2197 0 8
-10.8607 7.0047 -2.7698 0.2196 0 8
-10.9263 6.9079 -2.7705 0.2096 0 7
-10.9883 6.8087 -2.7705 0.2096 0 7
-11.0495 6.7091 -2.7705 0.2096 0 7
-11.1097 6.6089 -2.7705 0.2096 0 7
-11.1690 6.5081 -2.7705 0.2096 0 7
-11.2274 6.4068 -2.7705 0.2096 0 7
-11.2849 6.3050 -2.7705 0.2096 0 7
-11.3414 6.2027 -2.7705 0.2096 0 7
-11.3971 6.0999 -2.7705 0.2096 0 7
-11.4518 5.9965 -2.7705 0.2096 0 7
-11.5056 5.8927 -2.7705 0.2096 0 7
-11.5584 5.7884 -2.7705 0.2096 0 7
-11.6103 5.6836 -2.7705 0.2096 0 7
-11.6612 5.5784 -2.7705 0.2096 0 7
-11.7112 5.4726 -2.7705 0.2096 0 7
-11.7602 5.3665 -2.7705 0.2096 0 7
-11.8083 5.2599 -2.7705 0.2096 0 7
-11.8554 5.1529 -2.7705 0.2096 0 7
-11.9015 5.0454 -2.7705 0.2096 0 7
-11.9466 4.9376 -2.7705 0.2096 0 7
-11.9908 4.8293 -2.7705 0.2096 0 6
-12.0340 4.7207 -2.7705 0.2096 0 7
-12.0762 4.6116 -2.7705 0.2096 0 7
-12.1174 4.5022 -2.7705 0.2096 0 7
-12.1577 4.3924 -2.7705 0.2096 0 7
-12.1969 4.2823 -2.7705 0.2096 0 7
-12.2351 4.1718 -2.7705 0.2096 0 7
-12.2723 4.0610 -2.7705 0.2096 0 7
-12.3086 3.9498 -2.7705 0.2096 0 7
-12.3438 3.8383 -2.7705 0.2096 0 7
-12.3780 3.7265 -2.7705 0.2096 0 7
-12.4112 3.6144 -2.7705 0.2096 0 7
-12.4434 3.5020 -2.7705 0.2096 0 7
-12.4746 3.3893 -2.7705 0.2096 0 7
-12.5047 3.2763 -2.7705 0.2096 0 7
-12.5338 3.1631 -2.7705 0.2096 0 7
-12.5619 3.0496 -2.7705 0.2096 0 7
-12.5890 2.9359 -2.7705 0.2096 0 7
-12.6150 2.8219 -2.7705 0.2096 0 7
-12.6401 2.7077 -2.7705 0.2096 0 7
-12.6640 2.5932 -2.7705 0.2096 0 7
-12.6869 2.4786 -2.7705 0.2096 0 7
-12.7089 2.3637 -2.7705 0.2096 0 7
-12.7297 2.2487 -2.7705 0.2096 0 7
-12.7495 2.1334 -2.7705 0.2096 0 7
-12.7683 2.0180 -2.7705 0.2096 0 7
-12.7860 1.9025 -2.7705 0.2096 0 7
-12.8027 1.7867 -2.7705 0.2096 0 7
-12.8183 1.6709 -2.7705 0.2096 0 7
-12.8330 1.5549 -2.7705 0.2096 0 7
-12.8465 1.4387 -2.7705 0.2096 0 7
-12.8590 1.3225 -2.7705 0.2096 0 7
-12.8704 1.2061 -2.7705 0.2096 0 7
-12.8808 1.0897 -2.7705 0.2096 0 7
-12.8901 0.9731 -2.7705 0.2096 0 7
-12.8984 0.8565 -2.7705 0.2096 0 7
-12.9056 0.7398 -2.7705 0.2096 0 7
-12.9118 0.6230 -2.7705 0.2096 0 7
-12.9169 0.5062 -2.7705 0.2096 0 7
-12.9209 0.3894 -2.7705 0.2096 0 7
-12.9239 0.2725 -2.7705 0.2096 0 7
-12.9259 0.1556 -2.7705 0.2096 0 7
-12.9267 0.0386 -2.7705 0.2096 0 7
-12.9266 -0.0783 -2.7705 0.2096 0 7
-12.9253 -0.1952 -2.7705 0.2096 0 7
-12.9230 -0.3121 -2.7705 0.2096 0 7
-12.9197 -0.4290 -2.7705 0.2096 0 7
-12.9153 -0.5458 -2.7705 0.2096 0 7
-12.9098 -0.6626 -2.7705 0.2096 0 7
-12.9033 -0.7793 -2.7705 0.2096 0 7
-12.8957 -0.8960 -2.7705 0.2096 0 7
-12.8871 -1.0126 -2.7705 0.2096 0 7
-12.8774 -1.1291 -2.7705 0.2096 0 7
-12.8667 -1.2456 -2.7705 0.2096 0 7
-12.8549 -1.3619 -2.7705 0.2096 0 7
-12.8420 -1.4781 -2.7705 0.2096 0 7
-12.8281 -1.5942 -2.7705 0.2096 0 7
-12.8132 -1.7102 -2.7705 0.2096 0 7
-12.7972 -1.8260 -2.7705 0.2096 0 7
-12.7801 -1.9417 -2.7705 0.2096 0 7
-12.7621 -2.0572 -2.7705 0.2096 0 6
-12.7429 -2.1725 -2.7705 0.2096 0 7
-12.7228 -2.2877 -2.7705 0.2096 0 6
-12.7015 -2.4027 -2.7705 0.2096 0 6
-12.6793 -2.5175 -2.7705 0.2096 0 7
-12.6560 -2.6321 -2.7705 0.2096 0 7
-12.6317 -2.7464 -2.7705 0.2096 0 7
-12.6063 -2.8605 -2.7705 0.2096 0 7
-12.5799 -2.9745 -2.7705 0.2096 0 7
-12.5525 -3.0881 -2.7705 0.2096 0 7
-12.5241 -3.2015 -2.7705 0.2096 0 7
-12.4946 -3.3147 -2.7705 0.2096 0 7
-12.4641 -3.4275 -2.7705 0.2096 0 7
-12.4326 -3.5401 -2.7705 0.2096 0 7
-12.4001 -3.6524 -2.7705 0.2096 0 7
-12.3665 -3.7645 -2.7705 0.2096 0 7
-12.3320 -3.8762 -2.7705 0.2096 0 7
-12.2964 -3.9875 -2.7705 0.2096 0 7
-12.2598 -4.0986 -2.7705 0.2096 0 7
-12.2223 -4.2093 -2.7705 0.2096 0 7
-12.1837 -4.3197 -2.7705 0.2096 0 7
-12.1441 -4.4297 -2.7705 0.2096 0 7
-12.1036 -4.5394 -2.7705 0.2096 0 7
-12.0620 -4.6487 -2.7705 0.2096 0 7
-12.0195 -4.7576 -2.7705 0.2096 0 7
-11.9760 -4.8661 -2.7705 0.2096 0 7
-11.9314 -4.9742 -2.7705 0.2096 0 7
-11.8860 -5.0819 -2.7705 0.2096 0 7
-11.8395 -5.1892 -2.7705 0.2096 0 7
-11.7921 -5.2961 -2.7705 0.2096 0 7
-11.7437 -5.4025 -2.7705 0.2096 0 7
-11.6944 -5.5085 -2.7705 0.2096 0 7
-11.6441 -5.6141 -2.7705 0.2096 0 7
-11.5928 -5.7192 -2.7705 0.2096 0 7
-11.5406 -5.8238 -2.7705 0.2096 0 7
-11.4874 -5.9279 -2.7705 0.2096 0 7
-11.4334 -6.0316 -2.7705 0.2096 0 7
-11.3783 -6.1348 -2.7705 0.2096 0 7
-11.3224 -6.2374 -2.7705 0.2096 0 7
-11.2655 -6.3396 -2.7705 0.2096 0 7
-11.2077 -6.4412 -2.7705 0.2096 0 7
-11.1490 -6.5423 -2.7705 0.2096 0 7
-11.0894 -6.6429 -2.7705 0.2096 0 7
-11.0288 -6.7429 -2.7705 0.2096 0 7
-10.9674 -6.8424 -2.7705 0.2096 0 7
-10.9050 -6.9413 -2.7705 0.2096 0 7
-10.8418 -7.0397 -2.7705 0.2096 0 7
-10.7777 -7.1375 -2.7705 0.2096 0 7
-10.7127 -7.2347 -2.7705 0.2096 0 7
-10.6468 -7.3312 -2.7705 0.2096 0 7
-10.5801 -7.4272 -2.7705 0.2096 0 7
-10.5125 -7.5226 -2.7705 0.2096 0 7
-10.4440 -7.6174 -2.7705 0.2096 0 7
-10.3747 -7.7116 -2.7705 0.2096 0 7
-10.3045 -7.8051 -2.7705 0.2096 0 7
-10.2335 -7.8980 -2.7705 0.2096 0 7
-10.1616 -7.9902 -2.7705 0.2096 0 7
-10.0889 -8.0818 -2.7705 0.2096 0 7
-10.0154 -8.1727 -2.7705 0.2096 0 7
-9.9411 -8.2630 -2.7705 0.2096 0 7
-9.8660 -8.3526 -2.7705 0.2096 0 7
-9.7900 -8.4414 -2.7705 0.2096 0 7
-9.7133 -8.5296 -2.7705 0.2096 0 7
-9.6357 -8.6171 -2.7705 0.2096 0 7
-9.5574 -8.7039 -2.7705 0.2096 0 7
-9.4783 -8.7900 -2.7705 0.2096 0 7
-9.3984 -8.8754 -2.7705 0.2096 0 7
-9.3177 -8.9600 -2.7705 0.2096 0 6
-9.2363 -9.0440 -2.7705 0.2096 0 7
-9.1541 -9.1271 -2.7705 0.2096 0 7
-9.0712 -9.2096 -2.7705 0.2096 0 7
-8.9875 -9.2912 -2.7705 0.2096 0 7
-8.9031 -9.3721 -2.7705 0.2096 0 7
-8.8180 -9.4523 -2.7705 0.2096 0 7
-8.7321 -9.5317 -2.7705 0.2096 0 7
-8.6455 -9.6102 -2.7705 0.2096 0 7
-8.5582 -9.6880 -2.7705 0.2096 0 7
-8.4703 -9.7651 -2.7705 0.2096 0 7
-8.3816 -9.8413 -2.7705 0.2096 0 7
-8.2923 -9.9167 -2.7705 0.2096 0 7
-8.2022 -9.9913 -2.7705 0.2096 0 7
-8.1115 -10.0651 -2.7705 0.2096 0 7
-8.0201 -10.1380 -2.7705 0.2096 0 7
-7.9281 -10.2101 -2.7705 0.2096 0 7
-7.8355 -10.2814 -2.7705 0.2096 0 7
-7.7421 -10.3519 -2.7705 0.2096 0 7
-7.6482 -10.4215 -2.7705 0.2096 0 7
-7.5536 -10.4902 -2.7705 0.2096 0 7
-7.4584 -10.5581 -2.7705 0.2096 0 7
-7.3626 -10.6252 -2.7705 0.2096 0 7
-7.2662 -10.6913 -2.7705 0.2096 0 7
-7.1692 -10.7566 -2.7705 0.2096 0 7
-7.0701 -10.8187 -2.7699 0.2226 0 8
-6.9691 -10.8777 -2.7688 0.2227 0 8
-6.8677 -10.9359 -2.7677 0.2228 0 8
-6.7657 -10.9931 -2.7665 0.2229 0 8
-6.6634 -11.0495 -2.7654 0.2230 0 8
-6.5606 -11.1050 -2.7644 0.2231 0 8
-6.4574 -11.1596 -2.7633 0.2231 0 8
-6.3325 -11.1757 -2.7530 0.8328 0 8
-6.1950 -11.1673 -2.7370 0.8376 0 8
-6.0590 -11.1590 -2.7214 0.8424 0 8
-5.9246 -11.1507 -2.7062 0.8472 0 8
-5.7916 -11.1424 -2.6914 0.8518 0 8
-5.6600 -11.1343 -2.6770 0.8564 0 8
-5.5298 -11.1261 -2.6629 0.8610 0 8
-5.4009 -11.1180 -2.6491 0.8654 0 8
-5.2734 -11.1100 -2.6357 0.8698 0 8
-5.1480 -11.1040 -2.6232 0.7495 0 8
-5.0376 -11.1286 -2.6181 0.2096 0 8
-4.9368 -11.1737 -2.6181 0.2096 0 8
-4.8355 -11.2179 -2.6181 0.2096 0 8
-4.7338 -11.2612 -2.6181 0.2096 0 8
-4.6318 -11.3036 -2.6181 0.2096 0 8
-4.5293 -11.3450 -2.6181 0.2096 0 8
-4.4265 -11.3855 -2.6181 0.2096 0 8
-4.3234 -11.4251 -2.6181 0.2096 0 8
-4.2199 -11.4637 -2.6181 0.2096 0 8
-4.1160 -11.5014 -2.6181 0.2096 0 8
-4.0118 -11.5382 -2.6181 0.2096 0 8
-3.9073 -11.5740 -2.6181 0.2096 0 8
-3.8024 -11.6088 -2.6181 0.2096 0 8
-3.6973 -11.6428 -2.6181 0.2096 0 8
-3.5918 -11.6757 -2.6181 0.2096 0 8
-3.4861 -11.7077 -2.6181 0.2096 0 8
-3.3800 -11.7388 -2.6181 0.2096 0 8
-3.2737 -11.7689 -2.6181 0.2096 0 8
-3.1671 -11.7980 -2.6181 0.2096 0 8
-3.0603 -11.8262 -2.6181 0.2096 0 8
-2.9532 -11.8534 -2.6181 0.2096 0 8
-2.8459 -11.8796 -2.6181 0.2096 0 8
-2.7383 -11.9048 -2.6181 0.2096 0 8
-2.6305 -11.9291 -2.6181 0.2096 0 8
-2.5225 -11.9524 -2.6181 0.2096 0 8
-2.4143 -11.9748 -2.6181 0.2096 0 8
-2.3059 -11.9961 -2.6181 0.2096 0 8
-2.1973 -12.0165 -2.6181 0.2096 0 8
-2.0885 -12.0359 -2.6181 0.2096 0 8
-1.9796 -12.0543 -2.6181 0.2096 0 8
-1.8705 -12.0717 -2.6181 0.2096 0 8
-1.7612 -12.0881 -2.6181 0.2096 0 8
-1.6518 -12.1035 -2.6181 0.2096 0 8
-1.5422 -12.1180 -2.6181 0.2096 0 8
-1.4326 -12.1314 -2.6181 0.2096 0 8
-1.3228 -12.1439 -2.6181 0.2096 0 8
-1.2129 -12.1554 -2.6181 0.2096 0 8
-1.1029 -12.1658 -2.6181 0.2096 0 8
-0.9928 -12.1753 -2.6181 0.2096 0 8
-0.8827 -12.1838 -2.6181 0.2096 0 8
-0.7724 -12.1913 -2.6181 0.2096 0 8
-0.6621 -12.1978 -2.6181 0.2096 0 8
-0.5518 -12.2032 -2.6181 0.2096 0 8
-0.4414 -12.2077 -2.6181 0.2096 0 8
-0.3309 -12.2112 -2.6181 0.2096 0 8
-0.2205 -12.2137 -2.6181 0.2096 0 8
-0.1100 -12.2152 -2.6181 0.2096 0 8
0.0005 -12.2157 -2.6181 0.2096 0 8
0.1110 -12.2152 -2.6181 0.2096 0 8
0.2215 -12.2137 -2.6181 0.2096 0 8
0.3319 -12.2112 -2.6181 0.2096 0 8
0.4424 -12.2077 -2.6181 0.2096 0 8
0.5528 -12.2032 -2.6181 0.2096 0 8
0.6631 -12.1977 -2.6181 0.2096 0 8
0.7734 -12.1912 -2.6181 0.2096 0 8
0.8836 -12.1837 -2.6181 0.2096 0 8
0.9938 -12.1752 -2.6181 0.2096 0 8
1.1039 -12.1657 -2.6181 0.2096 0 8
1.2139 -12.1553 -2.6181 0.2096 0 8
1.3238 -12.1438 -2.6181 0.2096 0 8
1.4336 -12.1313 -2.6181 0.2096 0 8
1.5432 -12.1179 -2.6181 0.2096 0 8
1.6528 -12.1034 -2.6181 0.2096 0 8
1.7622 -12.0880 -2.6181 0.2096 0 8
1.8714 -12.0715 -2.6181 0.2096 0 8
1.9805 -12.0541 -2.6181 0.2096 0 8
2.0895 -12.0357 -2.6181 0.2096 0 8
2.1983 -12.0163 -2.6181 0.2096 0 8
2.3069 -11.9959 -2.6181 0.2096 0 8
2.4153 -11.9746 -2.6181 0.2096 0 8
2.5235 -11.9522 -2.6181 0.2096 0 8
2.6315 -11.9289 -2.6181 0.2096 0 8
2.7393 -11.9046 -2.6181 0.2096 0 8
2.8468 -11.8794 -2.6181 0.2096 0 8
2.9542 -11.8531 -2.6181 0.2096 0 8
3.0613 -11.8259 -2.6181 0.2096 0 8
3.1681 -11.7978 -2.6181 0.2096 0 8
3.2747 -11.7686 -2.6181 0.2096 0 8
3.3810 -11.7385 -2.6181 0.2096 0 8
3.4870 -11.7075 -2.6181 0.2096 0 8
3.5928 -11.6754 -2.6181 0.2096 0 8
3.6982 -11.6425 -2.6181 0.2096 0 8
3.8034 -11.6085 -2.6181 0.2096 0 8
3.9082 -11.5737 -2.6181 0.2096 0 8
4.0127 -11.5379 -2.6181 0.2096 0 8
4.1169 -11.5011 -2.6181 0.2096 0 8
4.2208 -11.4634 -2.6181 0.2096 0 8
4.3243 -11.4247 -2.6181 0.2096 0 8
4.4275 -11.3851 -2.6181 0.2096 0 8
4.5303 -11.3446 -2.6181 0.2096 0 8
4.6327 -11.3032 -2.6181 0.2096 0 8
4.7347 -11.2608 -2.6181 0.2096 0 8
4.8364 -11.2175 -2.6181 0.2096 0 8
4.9377 -11.1733 -2.6181 0.2096 0 8
5.0385 -11.1282 -2.6181 0.2096 0 8
5.1390 -11.0822 -2.6181 0.2096 0 8
5.2390 -11.0353 -2.6181 0.2096 0 8
5.3386 -10.9874 -2.6181 0.2096 0 8
5.4377 -10.9387 -2.6181 0.2096 0 8
5.5365 -10.8891 -2.6181 0.2096 0 8
5.6347 -10.8385 -2.6181 0.2096 0 8
5.7325 -10.7871 -2.6181 0.2096 0 8
5.8299 -10.7348 -2.6181 0.2096 0 8
5.9267 -10.6817 -2.6181 0.2096 0 8
6.0231 -10.6276 -2.6181 0.2096 0 8
6.1190 -10.5727 -2.6181 0.2096 0 8
6.2143 -10.5169 -2.6181 0.2096 0 8
6.3092 -10.4603 -2.6181 0.2096 0 8
6.4036 -10.4028 -2.6181 0.2096 0 8
6.4974 -10.3445 -2.6181 0.2096 0 8
6.5907 -10.2853 -2.6181 0.2096 0 8
6.6834 -10.2252 -2.6181 0.2096 0 8
6.7757 -10.1644 -2.6181 0.2096 0 8
6.8743 -10.1130 -2.6208 0.7500 0 8
6.9975 -10.0966 -2.6328 0.8708 0 8
7.1244 -10.0836 -2.6461 0.8664 0 8
7.2526 -10.0705 -2.6598 0.8620 0 8
7.3821 -10.0572 -2.6738 0.8574 0 8
7.5129 -10.0437 -2.6882 0.8529 0 8
7.6451 -10.0300 -2.7029 0.8482 0 8
7.7788 -10.0162 -2.7180 0.8435 0 8
7.9140 -10.0021 -2.7335 0.8387 0 8
8.0507 -9.9879 -2.7494 0.8339 0 8
8.1810 -9.9638 -2.7631 0.2232 0 8
8.2740 -9.8932 -2.7641 0.2231 0 8
8.3664 -9.8218 -2.7652 0.2230 0 8
8.4582 -9.7496 -2.7663 0.2229 0 8
8.5495 -9.6765 -2.7674 0.2228 0 8
8.6401 -9.6027 -2.7685 0.2227 0 8
8.7302 -9.5281 -2.7697 0.2226 0 8
8.8187 -9.4516 -2.7705 0.2096 0 7
8.9038 -9.3714 -2.7705 0.2096 0 7
8.9882 -9.2905 -2.7705 0.2096 0 7
9.0719 -9.2089 -2.7705 0.2096 0 7
9.1548 -9.1264 -2.7705 0.2096 0 7
9.2370 -9.0432 -2.7705 0.2096 0 7
9.3184 -8.9593 -2.7705 0.2096 0 7
9.3991 -8.8747 -2.7705 0.2096 0 7
9.4790 -8.7893 -2.7705 0.2096 0 7
9.5581 -8.7032 -2.7705 0.2096 0 7
9.6364 -8.6164 -2.7705 0.2096 0 7
9.7139 -8.5289 -2.7705 0.2096 0 7
9.7907 -8.4407 -2.7705 0.2096 0 7
9.8666 -8.3518 -2.7705 0.2096 0 7
9.9418 -8.2622 -2.7705 0.2096 0 7
10.0161 -8.1719 -2.7705 0.2096 0 7
10.0896 -8.0810 -2.7705 0.2096 0 7
10.1623 -7.9894 -2.7705 0.2096 0 7
10.2341 -7.8972 -2.7705 0.2096 0 7
10.3051 -7.8043 -2.7705 0.2096 0 7
10.3753 -7.7108 -2.7705 0.2096 0 7
10.4446 -7.6166 -2.7705 0.2096 0 7
10.5131 -7.5218 -2.7705 0.2096 0 7
10.5807 -7.4264 -2.7705 0.2096 0 7
10.6475 -7.3304 -2.7705 0.2096 0 6
10.7133 -7.2338 -2.7705 0.2096 0 7
10.7783 -7.1366 -2.7705 0.2096 0 7
10.8424 -7.0388 -2.7705 0.2096 0 7
10.9056 -6.9405 -2.7705 0.2096 0 7
10.9679 -6.8415 -2.7705 0.2096 0 7
11.0294 -6.7421 -2.7705 0.2096 0 7
11.0899 -6.6420 -2.7705 0.2096 0 7
11.1495 -6.5415 -2.7705 0.2096 0 7
11.2082 -6.4403 -2.7705 0.2096 0 7
11.2660 -6.3387 -2.7705 0.2096 0 7
11.3229 -6.2365 -2.7705 0.2096 0 7
11.3788 -6.1339 -2.7705 0.2096 0 7
11.4339 -6.0307 -2.7705 0.2096 0 7
11.4879 -5.9271 -2.7705 0.2096 0 7
11.5411 -5.8229 -2.7705 0.2096 0 7
11.5933 -5.7183 -2.7705 0.2096 0 7
11.6445 -5.6132 -2.7705 0.2096 0 7
11.6948 -5.5076 -2.7705 0.2096 0 7
11.7442 -5.4016 -2.7705 0.2096 0 7
11.7925 -5.2952 -2.7705 0.2096 0 7
11.8399 -5.1883 -2.7705 0.2096 0 7
11.8864 -5.0810 -2.7705 0.2096 0 7
11.9319 -4.9733 -2.7705 0.2096 0 7
11.9763 -4.8652 -2.7705 0.2096 0 7
12.0199 -4.7566 -2.7705 0.2096 0 7
12.0624 -4.6477 -2.7705 0.2096 0 7
12.1039 -4.5384 -2.7705 0.2096 0 7
12.1445 -4.4288 -2.7705 0.2096 0 7
12.1840 -4.3187 -2.7705 0.2096 0 7
12.2226 -4.2084 -2.7705 0.2096 0 7
12.2602 -4.0976 -2.7705 0.2096 0 7
12.2967 -3.9866 -2.7705 0.2096 0 7
12.3323 -3.8752 -2.7705 0.2096 0 7
12.3668 -3.7635 -2.7705 0.2096 0 7
12.4004 -3.6515 -2.7705 0.2096 0 7
12.4329 -3.5392 -2.7705 0.2096 0 7
12.4644 -3.4266 -2.7705 0.2096 0 7
12.4949 -3.3137 -2.7705 0.2096 0 7
12.5243 -3.2005 -2.7705 0.2096 0 7
12.5528 -3.0871 -2.7705 0.2096 0 7
12.5802 -2.9735 -2.7705 0.2096 0 7
12.6066 -2.8596 -2.7705 0.2096 0 7
12.6319 -2.7454 -2.7705 0.2096 0 7
12.6562 -2.6311 -2.7705 0.2096 0 7
12.6795 -2.5165 -2.7705 0.2096 0 7
12.7017 -2.4017 -2.7705 0.2096 0 7
12.7229 -2.2867 -2.7705 0.2096 0 7
12.7431 -2.1715 -2.7705 0.2096 0 7
12.7622 -2.0562 -2.7705 0.2096 0 7
12.7803 -1.9407 -2.7705 0.2096 0 7
12.7973 -1.8250 -2.7705 0.2096 0 7
12.8133 -1.7092 -2.7705 0.2096 0 7
12.8283 -1.5932 -2.7705 0.2096 0 7
12.8421 -1.4771 -2.7705 0.2096 0 7
12.8550 -1.3609 -2.7705 0.2096 0 7
12.8668 -1.2446 -2.7705 0.2096 0 7
12.8775 -1.1281 -2.7705 0.2096 0 7
12.8872 -1.0116 -2.7705 0.2096 0 7
12.8958 -0.8950 -2.7705 0.2096 0 7
12.9034 -0.7783 -2.7705 0.2096 0 7
12.9099 -0.6616 -2.7705 0.2096 0 7
12.9153 -0.5448 -2.7705 0.2096 0 7
12.9197 -0.4280 -2.7705 0.2096 0 7
12.9231 -0.3111 -2.7705 0.2096 0 7
12.9254 -0.1942 -2.7705 0.2096 0 6
12.9266 -0.0773 -2.7705 0.2096 0 7
12.9268 0.0397 -2.7705 0.2096 0 6
12.9259 0.1566 -2.7705 0.2096 0 7
12.9239 0.2735 -2.7705 0.2096 0 7
12.9209 0.3904 -2.7705 0.2096 0 7
12.9169 0.5072 -2.7705 0.2096 0 7
12.9117 0.6240 -2.7705 0.2096 0 7
12.9056 0.7408 -2.7705 0.2096 0 7
12.8983 0.8575 -2.7705 0.2096 0 7
12.8901 0.9741 -2.7705 0.2096 0 7
12.8807 1.0907 -2.7705 0.2096 0 7
12.8703 1.2071 -2.7705 0.2096 0 7
12.8589 1.3235 -2.7705 0.2096 0 7
12.8464 1.4397 -2.7705 0.2096 0 7
12.8328 1.5559 -2.7705 0.2096 0 7
12.8182 1.6719 -2.7705 0.2096 0 7
12.8026 1.7877 -2.7705 0.2096 0 7
12.7859 1.9035 -2.7705 0.2096 0 7
12.7682 2.0190 -2.7705 0.2096 0 7
12.7494 2.1344 -2.7705 0.2096 0 7
12.7296 2.2497 -2.7705 0.2096 0 7
12.7087 2.3647 -2.7705 0.2096 0 7
12.6868 2.4796 -2.7705 0.2096 0 7
12.6638 2.5942 -2.7705 0.2096 0 7
12.6398 2.7087 -2.7705 0.2096 0 7
12.6148 2.8229 -2.7705 0.2096 0 7
12.5888 2.9369 -2.7705 0.2096 0 7
12.5617 3.0506 -2.7705 0.2096 0 7
