ply
format ascii 1.0
element vertex 1386
property float32 x
property float32 y
property float32 z
property float32 CosAngle
property uint32 ObjIdx
property uint32 ObjTag
end_header
10.4014 -8.4391 -2.5567 0.1875 0 8
10.4774 -8.3446 -2.5567 0.1875 0 8
10.5524 -8.2495 -2.5567 0.1875 0 8
10.6267 -8.1536 -2.5567 0.1875 0 8
10.7000 -8.0571 -2.5567 0.1875 0 8
10.7725 -7.9600 -2.5567 0.1875 0 8
10.8441 -7.8622 -2.5567 0.1875 0 8
10.9148 -7.7637 -2.5567 0.1875 0 8
8.7523 -6.1070 -2.0371 0.5866 112 5
11.0535 -7.5649 -2.5567 0.1875 0 8
11.1215 -7.4646 -2.5567 0.1875 0 8
11.1886 -7.3636 -2.5567 0.1875 0 8
11.2548 -7.2621 -2.5567 0.1875 0 8
11.3200 -7.1599 -2.5567 0.1875 0 8
11.3843 -7.0572 -2.5567 0.1875 0 8
11.4477 -6.9539 -2.5567 0.1875 0 8
11.5102 -6.8500 -2.5567 0.1875 0 8
11.5717 -6.7456 -2.5567 0.1875 0 8
11.6323 -6.6406 -2.5567 0.1875 0 8
11.6919 -6.5351 -2.5567 0.1875 0 8
11.7506 -6.4290 -2.5567 0.1875 0 8
11.8083 -6.3224 -2.5567 0.1875 0 8
11.7518 -6.1560 -2.5323 0.6833 0 9
11.6982 -5.9936 -2.5089 0.6896 0 9
11.6455 -5.8342 -2.4862 0.6959 0 9
11.5938 -5.6776 -2.4641 0.7022 0 9
11.5432 -5.5239 -2.4426 0.6335 0 9
11.5339 -5.3917 -2.4302 0.1875 0 9
11.6663 -5.3255 -2.4479 0.6675 0 9
11.8301 -5.2714 -2.4721 0.6610 0 9
11.9971 -5.2163 -2.4971 0.6544 0 9
12.1676 -5.1600 -2.5227 0.6477 0 9
12.3416 -5.1025 -2.5491 0.6410 0 9
12.4239 -5.0054 -2.5567 0.1875 0 8
12.4687 -4.8927 -2.5567 0.1875 0 8
12.5125 -4.7797 -2.5567 0.1875 0 8
12.5552 -4.6663 -2.5567 0.1875 0 8
12.5969 -4.5525 -2.5567 0.1875 0 8
12.6376 -4.4383 -2.5567 0.1875 0 8
12.7289 -4.3414 -2.5671 0.6086 0 8
12.9173 -4.2755 -2.5972 0.6015 0 8
13.1101 -4.2081 -2.6282 0.5944 0 8
13.3075 -4.1390 -2.6601 0.5873 0 8
13.5098 -4.0682 -2.6931 0.5801 0 8
13.5945 -3.9599 -2.7027 0.1968 0 8
13.6385 -3.8392 -2.7045 0.1966 0 8
13.6815 -3.7180 -2.7062 0.1965 0 8
13.7234 -3.5964 -2.7079 0.1964 0 8
13.7611 -3.4735 -2.7091 0.1875 0 7
13.7920 -3.3488 -2.7091 0.1875 0 7
13.8217 -3.2239 -2.7091 0.1875 0 7
13.8503 -3.0987 -2.7091 0.1875 0 7
13.8778 -2.9732 -2.7091 0.1875 0 7
13.9041 -2.8475 -2.7091 0.1875 0 7
13.9293 -2.7215 -2.7091 0.1875 0 7
13.9534 -2.5954 -2.7091 0.1875 0 7
13.9763 -2.4690 -2.7091 0.1875 0 7
13.9981 -2.3424 -2.7091 0.1875 0 7
14.0187 -2.2157 -2.7091 0.1875 0 7
14.0382 -2.0887 -2.7091 0.1875 0 7
14.0565 -1.9616 -2.7091 0.1875 0 7
14.0737 -1.8343 -2.7091 0.1875 0 7
14.0897 -1.7069 -2.7091 0.1875 0 7
14.1046 -1.5793 -2.7091 0.1875 0 7
14.1183 -1.4516 -2.7091 0.1875 0 7
14.1308 -1.3238 -2.7091 0.1875 0 7
14.1423 -1.1958 -2.7091 0.1875 0 7
14.1525 -1.0678 -2.7091 0.1875 0 7
14.1616 -0.9397 -2.7091 0.1875 0 7
14.1695 -0.8115 -2.7091 0.1875 0 7
14.1763 -0.6833 -2.7091 0.1875 0 7
14.1819 -0.5550 -2.7091 0.1875 0 7
14.1863 -0.4266 -2.7091 0.1875 0 7
14.1896 -0.2982 -2.7091 0.1875 0 7
14.1917 -0.1698 -2.7091 0.1875 0 7
14.1927 -0.0414 -2.7091 0.1875 0 7
14.1925 0.0871 -2.7091 0.1875 0 7
14.1911 0.2155 -2.7091 0.1875 0 7
14.1886 0.3439 -2.7091 0.1875 0 7
14.1849 0.4723 -2.7091 0.1875 0 7
14.1800 0.6006 -2.7091 0.1875 0 7
14.1740 0.7289 -2.7091 0.1875 0 7
14.1668 0.8572 -2.7091 0.1875 0 7
14.1585 0.9853 -2.7091 0.1875 0 7
14.1490 1.1134 -2.7091 0.1875 0 7
14.1383 1.2414 -2.7091 0.1875 0 7
14.1265 1.3693 -2.7091 0.1875 0 7
14.1135 1.4971 -2.7091 0.1875 0 7
14.0994 1.6247 -2.7091 0.1875 0 7
14.0841 1.7523 -2.7091 0.1875 0 7
14.0677 1.8796 -2.7091 0.1875 0 7
14.0501 2.0069 -2.7091 0.1875 0 7
14.0314 2.1339 -2.7091 0.1875 0 7
14.0115 2.2608 -2.7091 0.1875 0 7
13.9905 2.3875 -2.7091 0.1875 0 7
13.9683 2.5140 -2.7091 0.1875 0 7
13.9450 2.6403 -2.7091 0.1875 0 7
13.9205 2.7664 -2.7091 0.1875 0 6
13.8949 2.8923 -2.7091 0.1875 0 6
13.8682 3.0179 -2.7091 0.1875 0 7
13.8403 3.1433 -2.7091 0.1875 0 7
13.8113 3.2684 -2.7091 0.1875 0 7
13.7811 3.3932 -2.7091 0.1875 0 7
13.7499 3.5178 -2.7091 0.1875 0 7
13.7175 3.6421 -2.7091 0.1875 0 7
13.6839 3.7661 -2.7091 0.1875 0 7
13.6493 3.8897 -2.7091 0.1875 0 7
13.6135 4.0131 -2.7091 0.1875 0 7
13.5767 4.1361 -2.7091 0.1875 0 7
13.5387 4.2588 -2.7091 0.1875 0 7
13.4996 4.3811 -2.7091 0.1875 0 7
13.4594 4.5031 -2.7091 0.1875 0 7
13.4181 4.6247 -2.7091 0.1875 0 7
13.3757 4.7460 -2.7091 0.1875 0 7
13.3322 4.8668 -2.7091 0.1875 0 7
13.2876 4.9873 -2.7091 0.1875 0 7
13.2419 5.1073 -2.7091 0.1875 0 7
13.1952 5.2269 -2.7091 0.1875 0 7
13.1473 5.3461 -2.7091 0.1875 0 7
13.0984 5.4649 -2.7091 0.1875 0 7
13.0484 5.5832 -2.7091 0.1875 0 7
12.9974 5.7010 -2.7091 0.1875 0 7
12.9453 5.8184 -2.7091 0.1875 0 7
12.8921 5.9353 -2.7091 0.1875 0 7
12.8378 6.0517 -2.7091 0.1875 0 7
12.7825 6.1677 -2.7091 0.1875 0 7
12.7262 6.2831 -2.7091 0.1875 0 7
12.6688 6.3980 -2.7091 0.1875 0 7
12.6104 6.5124 -2.7091 0.1875 0 7
12.5510 6.6262 -2.7091 0.1875 0 7
12.4905 6.7395 -2.7091 0.1875 0 7
12.4290 6.8523 -2.7091 0.1875 0 7
12.3665 6.9645 -2.7091 0.1875 0 7
12.3029 7.0761 -2.7091 0.1875 0 7
12.2384 7.1871 -2.7091 0.1875 0 7
12.1729 7.2976 -2.7091 0.1875 0 7
12.1063 7.4074 -2.7091 0.1875 0 7
12.0388 7.5167 -2.7091 0.1875 0 7
11.9703 7.6253 -2.7091 0.1875 0 7
11.9008 7.7333 -2.7091 0.1875 0 7
11.8303 7.8407 -2.7091 0.1875 0 7
11.7589 7.9475 -2.7091 0.1875 0 7
11.6865 8.0535 -2.7091 0.1875 0 7
11.6131 8.1590 -2.7091 0.1875 0 7
11.5388 8.2637 -2.7091 0.1875 0 7
11.4622 8.3668 -2.7087 0.1927 0 8
11.3776 8.4639 -2.7067 0.1929 0 8
11.2922 8.5602 -2.7047 0.1930 0 8
11.2061 8.6557 -2.7028 0.1932 0 8
11.0402 8.6882 -2.6816 0.3730 0 8
10.7262 8.5994 -2.6241 0.3812 0 8
10.4252 8.5142 -2.5692 0.3893 0 8
10.2971 8.5661 -2.5567 0.1875 0 8
10.2191 8.6589 -2.5567 0.1875 0 8
10.1404 8.7510 -2.5567 0.1875 0 8
10.0608 8.8424 -2.5567 0.1875 0 8
9.9803 8.9331 -2.5567 0.1875 0 8
9.8991 9.0231 -2.5567 0.1875 0 8
9.8170 9.1123 -2.5567 0.1875 0 8
9.7342 9.2007 -2.5567 0.1875 0 8
9.6505 9.2885 -2.5567 0.1875 0 8
9.5660 9.3754 -2.5567 0.1875 0 8
9.4808 9.4616 -2.5567 0.1875 0 8
8.9064 9.0507 -2.4238 0.4530 0 9
8.6735 8.9751 -2.3824 0.4609 0 9
8.4484 8.9019 -2.3426 0.4687 0 9
8.2307 8.8312 -2.3043 0.4765 0 9
8.0199 8.7628 -2.2674 0.4843 0 9
7.8158 8.6965 -2.2318 0.4920 0 9
7.6180 8.6322 -2.1976 0.4997 0 9
7.4315 8.5760 -2.1661 0.8411 0 9
7.4084 8.7074 -2.1822 0.8365 0 9
7.3706 8.8236 -2.1945 0.8318 0 9
7.3311 8.9394 -2.2067 0.1875 0 9
7.2845 9.0485 -2.2173 0.8222 0 9
7.2548 9.1803 -2.2334 0.8173 0 9
7.2152 9.3021 -2.2471 0.8123 0 9
7.1752 9.4253 -2.2611 0.8073 0 9
7.1346 9.5502 -2.2754 0.8022 0 9
7.0936 9.6766 -2.2902 0.7971 0 9
7.0520 9.8047 -2.3053 0.7918 0 9
7.0098 9.9345 -2.3208 0.7865 0 9
6.9537 10.0469 -2.3322 0.7812 0 9
7.5229 11.0821 -2.5567 0.1875 0 8
7.4223 11.1497 -2.5567 0.1875 0 8
7.3211 11.2165 -2.5567 0.1875 0 8
7.2193 11.2823 -2.5567 0.1875 0 8
7.1169 11.3471 -2.5567 0.1875 0 8
7.0139 11.4111 -2.5567 0.1875 0 8
6.9104 11.4741 -2.5567 0.1875 0 8
6.8063 11.5361 -2.5567 0.1875 0 8
6.7016 11.5972 -2.5567 0.1875 0 8
12.6401 0.0000 -2.7091 0.2096 0 7
12.6396 0.1144 -2.7091 0.2096 0 7
12.6380 0.2288 -2.7091 0.2096 0 7
12.6355 0.3431 -2.7091 0.2096 0 7
12.6318 0.4574 -2.7091 0.2096 0 7
12.6272 0.5717 -2.7091 0.2096 0 7
12.6215 0.6860 -2.7091 0.2096 0 7
12.6148 0.8002 -2.7091 0.2096 0 7
12.6070 0.9143 -2.7091 0.2096 0 7
12.5982 1.0283 -2.7091 0.2096 0 7
12.5884 1.1423 -2.7091 0.2096 0 7
12.5775 1.2562 -2.7091 0.2096 0 7
12.5657 1.3699 -2.7091 0.2096 0 7
12.5528 1.4836 -2.7091 0.2096 0 7
12.5388 1.5971 -2.7091 0.2096 0 7
12.5238 1.7105 -2.7091 0.2096 0 7
12.5079 1.8238 -2.7091 0.2096 0 7
12.4908 1.9369 -2.7091 0.2096 0 7
12.4728 2.0498 -2.7091 0.2096 0 7
12.4537 2.1626 -2.7091 0.2096 0 7
12.4337 2.2752 -2.7091 0.2096 0 6
12.4126 2.3877 -2.7091 0.2096 0 7
12.3904 2.4999 -2.7091 0.2096 0 6
12.3673 2.6119 -2.7091 0.2096 0 7
12.3432 2.7237 -2.7091 0.2096 0 7
12.3180 2.8353 -2.7091 0.2096 0 7
12.2919 2.9467 -2.7091 0.2096 0 7
12.2647 3.0578 -2.7091 0.2096 0 7
12.2365 3.1686 -2.7091 0.2096 0 7
12.2073 3.2792 -2.7091 0.2096 0 7
12.1772 3.3896 -2.7091 0.2096 0 7
12.1460 3.4996 -2.7091 0.2096 0 7
12.1138 3.6094 -2.7091 0.2096 0 7
12.0807 3.7189 -2.7091 0.2096 0 7
12.0465 3.8280 -2.7091 0.2096 0 7
12.0114 3.9369 -2.7091 0.2096 0 7
11.9753 4.0454 -2.7091 0.2096 0 7
11.9382 4.1536 -2.7091 0.2096 0 7
11.9001 4.2615 -2.7091 0.2096 0 7
11.8610 4.3690 -2.7091 0.2096 0 7
11.8210 4.4761 -2.7091 0.2096 0 7
11.7800 4.5829 -2.7091 0.2096 0 7
11.7381 4.6894 -2.7091 0.2096 0 7
11.6952 4.7954 -2.7091 0.2096 0 7
11.6513 4.9010 -2.7091 0.2096 0 7
11.6065 5.0062 -2.7091 0.2096 0 7
11.5607 5.1111 -2.7091 0.2096 0 7
11.5140 5.2155 -2.7091 0.2096 0 7
11.4663 5.3195 -2.7091 0.2096 0 7
11.4177 5.4230 -2.7091 0.2096 0 7
11.3681 5.5261 -2.7091 0.2096 0 7
11.3177 5.6287 -2.7091 0.2096 0 7
11.2663 5.7309 -2.7091 0.2096 0 7
11.2140 5.8327 -2.7091 0.2096 0 7
11.1607 5.9339 -2.7091 0.2096 0 7
11.1066 6.0346 -2.7091 0.2096 0 7
11.0515 6.1349 -2.7091 0.2096 0 7
10.9955 6.2347 -2.7091 0.2096 0 7
10.9387 6.3339 -2.7091 0.2096 0 7
10.8809 6.4326 -2.7091 0.2096 0 7
10.8222 6.5308 -2.7091 0.2096 0 7
10.7627 6.6285 -2.7091 0.2096 0 7
10.7023 6.7256 -2.7091 0.2096 0 7
10.6410 6.8222 -2.7091 0.2096 0 7
10.5788 6.9182 -2.7091 0.2096 0 7
10.5158 7.0137 -2.7091 0.2096 0 7
10.4519 7.1085 -2.7091 0.2096 0 7
10.3871 7.2028 -2.7091 0.2096 0 7
10.3215 7.2965 -2.7091 0.2096 0 7
10.2550 7.3896 -2.7091 0.2096 0 7
10.1878 7.4821 -2.7091 0.2096 0 7
10.1196 7.5740 -2.7091 0.2096 0 7
10.0507 7.6653 -2.7091 0.2096 0 7
9.9809 7.7559 -2.7091 0.2096 0 7
9.9103 7.8459 -2.7091 0.2096 0 7
9.8329 7.9304 -2.7074 0.2155 0 8
9.7544 8.0139 -2.7057 0.2157 0 8
9.6753 8.0966 -2.7039 0.2158 0 8
9.5954 8.1786 -2.7022 0.2159 0 8
9.4142 8.1724 -2.6719 0.4184 0 8
9.1652 8.1028 -2.6219 0.4264 0 8
8.9252 8.0357 -2.5739 0.4343 0 8
8.7927 8.0616 -2.5567 0.2096 0 8
8.7194 8.1409 -2.5567 0.2096 0 8
8.6454 8.2195 -2.5567 0.2096 0 8
8.5706 8.2973 -2.5567 0.2096 0 8
8.4952 8.3746 -2.5567 0.2096 0 8
8.4191 8.4511 -2.5567 0.2096 0 8
8.3423 8.5270 -2.5567 0.2096 0 8
8.2648 8.6021 -2.5567 0.2096 0 8
8.1866 8.6765 -2.5567 0.2096 0 8
8.0583 8.6969 -2.5411 0.4769 0 9
7.8524 8.6300 -2.5007 0.4846 0 9
7.6529 8.5652 -2.4617 0.4922 0 9
7.4828 8.5289 -2.4317 0.2096 0 9
7.4053 8.5963 -2.4317 0.2096 0 9
7.3522 8.6926 -2.4400 0.7359 0 9
7.3115 8.8048 -2.4529 0.8265 0 9
7.2734 8.9220 -2.4671 0.8217 0 9
7.2349 9.0406 -2.4817 0.8169 0 9
7.1959 9.1606 -2.4966 0.8120 0 9
7.1565 9.2820 -2.5120 0.8070 0 9
7.1165 9.4050 -2.5277 0.8020 0 9
7.0761 9.5296 -2.5439 0.7969 0 9
7.0247 9.6414 -2.5567 0.2096 0 8
6.9371 9.7045 -2.5567 0.2096 0 8
6.8490 9.7669 -2.5567 0.2096 0 8
6.7604 9.8285 -2.5567 0.2096 0 8
6.6711 9.8893 -2.5567 0.2096 0 8
6.5814 9.9493 -2.5567 0.2096 0 8
6.4911 10.0084 -2.5567 0.2096 0 8
6.4002 10.0667 -2.5567 0.2096 0 8
6.3089 10.1242 -2.5567 0.2096 0 8
6.2170 10.1809 -2.5567 0.2096 0 8
6.1246 10.2368 -2.5567 0.2096 0 8
6.0317 10.2918 -2.5567 0.2096 0 8
5.9383 10.3459 -2.5567 0.2096 0 8
5.8445 10.3992 -2.5567 0.2096 0 8
5.7501 10.4517 -2.5567 0.2096 0 8
5.6553 10.5033 -2.5567 0.2096 0 8
5.5601 10.5540 -2.5567 0.2096 0 8
5.4643 10.6039 -2.5567 0.2096 0 8
5.3681 10.6529 -2.5567 0.2096 0 8
5.2715 10.7011 -2.5567 0.2096 0 8
5.1745 10.7483 -2.5567 0.2096 0 8
5.0770 10.7947 -2.5567 0.2096 0 8
4.9791 10.8402 -2.5567 0.2096 0 8
4.8808 10.8848 -2.5567 0.2096 0 8
4.7821 10.9286 -2.5567 0.2096 0 8
4.6830 10.9714 -2.5567 0.2096 0 8
4.5835 11.0133 -2.5567 0.2096 0 8
4.4837 11.0543 -2.5567 0.2096 0 8
4.3835 11.0945 -2.5567 0.2096 0 8
4.2829 11.1337 -2.5567 0.2096 0 8
4.1820 11.1720 -2.5567 0.2096 0 8
4.0807 11.2094 -2.5567 0.2096 0 8
3.9791 11.2458 -2.5567 0.2096 0 8
3.8771 11.2814 -2.5567 0.2096 0 8
3.7749 11.3160 -2.5567 0.2096 0 8
3.6724 11.3497 -2.5567 0.2096 0 8
3.5695 11.3825 -2.5567 0.2096 0 8
3.4663 11.4143 -2.5567 0.2096 0 8
3.3629 11.4452 -2.5567 0.2096 0 8
3.2592 11.4752 -2.5567 0.2096 0 8
3.1552 11.5042 -2.5567 0.2096 0 8
3.0510 11.5323 -2.5567 0.2096 0 8
2.9465 11.5594 -2.5567 0.2096 0 8
2.8418 11.5856 -2.5567 0.2096 0 8
2.7368 11.6108 -2.5567 0.2096 0 8
2.6316 11.6351 -2.5567 0.2096 0 8
2.5262 11.6585 -2.5567 0.2096 0 8
2.4206 11.6809 -2.5567 0.2096 0 8
2.3148 11.7023 -2.5567 0.2096 0 8
2.2089 11.7228 -2.5567 0.2096 0 8
2.1027 11.7423 -2.5567 0.2096 0 8
1.9963 11.7608 -2.5567 0.2096 0 8
1.8898 11.7784 -2.5567 0.2096 0 8
1.7832 11.7950 -2.5567 0.2096 0 8
1.6764 11.8107 -2.5567 0.2096 0 8
1.5694 11.8254 -2.5567 0.2096 0 8
1.4623 11.8391 -2.5567 0.2096 0 8
1.3551 11.8518 -2.5567 0.2096 0 8
1.2478 11.8636 -2.5567 0.2096 0 8
1.1404 11.8744 -2.5567 0.2096 0 8
1.0329 11.8842 -2.5567 0.2096 0 8
0.9253 11.8931 -2.5567 0.2096 0 8
0.8177 11.9010 -2.5567 0.2096 0 8
0.7099 11.9079 -2.5567 0.2096 0 8
0.6022 11.9138 -2.5567 0.2096 0 8
0.4943 11.9188 -2.5567 0.2096 0 8
0.3864 11.9228 -2.5567 0.2096 0 8
0.2785 11.9258 -2.5567 0.2096 0 8
0.1706 11.9278 -2.5567 0.2096 0 8
0.0627 11.9289 -2.5567 0.2096 0 8
-0.0453 11.9289 -2.5567 0.2096 0 8
-0.1532 11.9281 -2.5567 0.2096 0 8
-0.2612 11.9262 -2.5567 0.2096 0 8
-0.3691 11.9233 -2.5567 0.2096 0 8
-0.4770 11.9195 -2.5567 0.2096 0 8
-0.5848 11.9147 -2.5567 0.2096 0 8
-0.6926 11.9089 -2.5567 0.2096 0 8
-0.8003 11.9022 -2.5567 0.2096 0 8
-0.9080 11.8944 -2.5567 0.2096 0 8
-1.0156 11.8857 -2.5567 0.2096 0 8
-1.1231 11.8760 -2.5567 0.2096 0 8
-1.2305 11.8654 -2.5567 0.2096 0 8
-1.3379 11.8538 -2.5567 0.2096 0 8
-1.4451 11.8412 -2.5567 0.2096 0 8
-1.5522 11.8276 -2.5567 0.2096 0 8
-1.6591 11.8131 -2.5567 0.2096 0 8
-1.7660 11.7976 -2.5567 0.2096 0 8
-1.8727 11.7811 -2.5567 0.2096 0 8
-1.9792 11.7637 -2.5567 0.2096 0 8
-2.0856 11.7453 -2.5567 0.2096 0 8
-2.1918 11.7260 -2.5567 0.2096 0 8
-2.2978 11.7057 -2.5567 0.2096 0 8
-2.4036 11.6844 -2.5567 0.2096 0 8
-2.5093 11.6622 -2.5567 0.2096 0 8
-2.6147 11.6390 -2.5567 0.2096 0 8
-2.7199 11.6148 -2.5567 0.2096 0 8
-2.8249 11.5897 -2.5567 0.2096 0 8
-2.8801 11.3681 -2.5134 0.9766 0 9
-2.9817 11.3370 -2.5124 0.9770 0 9
-3.0832 11.3059 -2.5116 0.9773 0 9
-3.1846 11.2749 -2.5110 0.9776 0 9
-3.2860 11.2439 -2.5106 0.9777 0 9
-3.3873 11.2128 -2.5104 0.9778 0 9
-3.4887 11.1818 -2.5104 0.9778 0 9
-3.5901 11.1508 -2.5107 0.9777 0 9
-3.6915 11.1198 -2.5111 0.9775 0 9
-3.7929 11.0887 -2.5117 0.9773 0 9
-3.8944 11.0576 -2.5126 0.9769 0 9
-3.9960 11.0266 -2.5136 0.9765 0 9
-4.0976 10.9954 -2.5149 0.9761 0 9
-4.1994 10.9643 -2.5164 0.9755 0 9
-4.3013 10.9331 -2.5180 0.9748 0 9
-4.1213 10.2036 -2.3585 0.9839 0 5
-4.2160 10.1720 -2.3599 0.9833 0 5
-4.3108 10.1403 -2.3615 0.9826 0 5
-4.7662 10.9355 -2.5567 0.2096 0 8
-4.8649 10.8919 -2.5567 0.2096 0 8
-4.9633 10.8475 -2.5567 0.2096 0 8
-5.0613 10.8021 -2.5567 0.2096 0 8
-5.4001 11.2589 -2.6762 0.0227 0 8
-5.5574 11.3231 -2.7033 0.2091 0 8
-5.6638 11.2804 -2.7053 0.2090 0 8
-5.7697 11.2368 -2.7072 0.2088 0 8
-5.8752 11.1917 -2.7091 0.2096 0 7
-5.9762 11.1381 -2.7091 0.2096 0 7
-6.0768 11.0836 -2.7091 0.2096 0 7
-6.1768 11.0281 -2.7091 0.2096 0 7
-6.2764 10.9718 -2.7091 0.2096 0 7
-6.3754 10.9145 -2.7091 0.2096 0 7
-6.4739 10.8564 -2.7091 0.2096 0 7
-6.5719 10.7974 -2.7091 0.2096 0 7
-6.6693 10.7375 -2.7091 0.2096 0 7
-6.7662 10.6767 -2.7091 0.2096 0 7
-6.8625 10.6150 -2.7091 0.2096 0 7
-6.9583 10.5525 -2.7091 0.2096 0 7
-7.0535 10.4891 -2.7091 0.2096 0 7
-7.1482 10.4248 -2.7091 0.2096 0 7
-7.2422 10.3597 -2.7091 0.2096 0 7
-7.3357 10.2937 -2.7091 0.2096 0 7
-7.4285 10.2269 -2.7091 0.2096 0 7
-7.5208 10.1593 -2.7091 0.2096 0 7
-7.6124 10.0908 -2.7091 0.2096 0 7
-7.7034 10.0215 -2.7091 0.2096 0 7
-7.7938 9.9514 -2.7091 0.2096 0 7
-7.8835 9.8805 -2.7091 0.2096 0 7
-7.9726 9.8087 -2.7091 0.2096 0 7
-8.0610 9.7362 -2.7091 0.2096 0 6
-8.1488 9.6628 -2.7091 0.2096 0 7
-8.2359 9.5887 -2.7091 0.2096 0 7
-8.3223 9.5138 -2.7091 0.2096 0 7
-8.4081 9.4381 -2.7091 0.2096 0 6
-8.4931 9.3616 -2.7091 0.2096 0 6
-8.5775 9.2844 -2.7091 0.2096 0 6
-8.6612 9.2063 -2.7091 0.2096 0 6
-8.7441 9.1276 -2.7091 0.2096 0 6
-8.8264 9.0481 -2.7091 0.2096 0 6
-8.9079 8.9679 -2.7091 0.2096 0 6
-8.9887 8.8869 -2.7091 0.2096 0 7
-9.0687 8.8052 -2.7091 0.2096 0 7
-9.1480 8.7227 -2.7091 0.2096 0 7
-9.2266 8.6396 -2.7091 0.2096 0 7
-9.3044 8.5558 -2.7091 0.2096 0 7
-9.3814 8.4712 -2.7091 0.2096 0 7
-9.4577 8.3860 -2.7091 0.2096 0 7
-9.5332 8.3000 -2.7091 0.2096 0 7
-9.6079 8.2134 -2.7091 0.2096 0 7
-9.6819 8.1261 -2.7091 0.2096 0 7
-9.7550 8.0382 -2.7091 0.2096 0 7
-9.8273 7.9496 -2.7091 0.2096 0 7
-9.8989 7.8603 -2.7091 0.2096 0 7
-9.9696 7.7704 -2.7091 0.2096 0 7
-10.0395 7.6799 -2.7091 0.2096 0 7
-10.1086 7.5887 -2.7091 0.2096 0 7
-10.1769 7.4970 -2.7091 0.2096 0 7
-10.2443 7.4046 -2.7091 0.2096 0 7
-10.3109 7.3116 -2.7091 0.2096 0 7
-10.3766 7.2179 -2.7091 0.2096 0 7
-10.4415 7.1238 -2.7091 0.2096 0 7
-10.5055 7.0290 -2.7091 0.2096 0 7
-10.5687 6.9336 -2.7091 0.2096 0 7
-10.6310 6.8377 -2.7091 0.2096 0 7
-10.6925 6.7412 -2.7091 0.2096 0 7
-10.7530 6.6442 -2.7091 0.2096 0 7
-10.8127 6.5466 -2.7091 0.2096 0 7
-10.8715 6.4485 -2.7091 0.2096 0 7
-10.9294 6.3498 -2.7091 0.2096 0 7
-10.9864 6.2507 -2.7091 0.2096 0 7
-11.0426 6.1510 -2.7091 0.2096 0 7
-11.0978 6.0508 -2.7091 0.2096 0 7
-11.1521 5.9501 -2.7091 0.2096 0 7
-11.2054 5.8490 -2.7091 0.2096 0 7
-11.2579 5.7474 -2.7091 0.2096 0 7
-11.3095 5.6452 -2.7091 0.2096 0 7
-11.3601 5.5426 -2.7091 0.2096 0 7
-11.4098 5.4396 -2.7091 0.2096 0 7
-11.4585 5.3362 -2.7091 0.2096 0 7
-11.5064 5.2322 -2.7091 0.2096 0 7
-11.5532 5.1279 -2.7091 0.2096 0 7
-11.5992 5.0232 -2.7091 0.2096 0 7
-11.6441 4.9180 -2.7091 0.2096 0 7
-11.6882 4.8124 -2.7091 0.2096 0 7
-11.7312 4.7064 -2.7091 0.2096 0 7
-11.7734 4.6001 -2.7091 0.2096 0 7
-11.8145 4.4934 -2.7091 0.2096 0 7
-11.8547 4.3863 -2.7091 0.2096 0 7
-11.8939 4.2788 -2.7091 0.2096 0 7
-11.9321 4.1710 -2.7091 0.2096 0 7
-11.9694 4.0628 -2.7091 0.2096 0 7
-12.0057 3.9544 -2.7091 0.2096 0 7
-12.0409 3.8456 -2.7091 0.2096 0 7
-12.0753 3.7365 -2.7091 0.2096 0 7
-12.1086 3.6270 -2.7091 0.2096 0 7
-12.1409 3.5173 -2.7091 0.2096 0 7
-12.1722 3.4073 -2.7091 0.2096 0 7
-12.2026 3.2970 -2.7091 0.2096 0 7
-12.2319 3.1865 -2.7091 0.2096 0 7
-12.2602 3.0756 -2.7091 0.2096 0 7
-12.2876 2.9646 -2.7091 0.2096 0 7
-12.3139 2.8532 -2.7091 0.2096 0 7
-12.3392 2.7417 -2.7091 0.2096 0 7
-12.3635 2.6299 -2.7091 0.2096 0 7
-12.3868 2.5179 -2.7091 0.2096 0 7
-12.4091 2.4058 -2.7091 0.2096 0 7
-12.4303 2.2933 -2.7091 0.2096 0 7
-12.4506 2.1808 -2.7091 0.2096 0 7
-12.4698 2.0680 -2.7091 0.2096 0 7
-12.4880 1.9551 -2.7091 0.2096 0 7
-12.5052 1.8420 -2.7091 0.2096 0 7
-12.5213 1.7287 -2.7091 0.2096 0 7
-12.5365 1.6154 -2.7091 0.2096 0 7
-12.5506 1.5019 -2.7091 0.2096 0 7
-12.5637 1.3882 -2.7091 0.2096 0 7
-12.5757 1.2745 -2.7091 0.2096 0 7
-12.5867 1.1606 -2.7091 0.2096 0 7
-12.5967 1.0467 -2.7091 0.2096 0 7
-12.6057 0.9326 -2.7091 0.2096 0 7
-12.6136 0.8185 -2.7091 0.2096 0 7
-12.6205 0.7044 -2.7091 0.2096 0 7
-12.6263 0.5901 -2.7091 0.2096 0 7
-12.6312 0.4758 -2.7091 0.2096 0 7
-12.6349 0.3615 -2.7091 0.2096 0 7
-12.6377 0.2472 -2.7091 0.2096 0 7
-12.6394 0.1328 -2.7091 0.2096 0 7
-12.6401 0.0184 -2.7091 0.2096 0 7
-12.6398 -0.0960 -2.7091 0.2096 0 7
-12.6384 -0.2104 -2.7091 0.2096 0 7
-12.6360 -0.3247 -2.7091 0.2096 0 7
-12.6325 -0.4390 -2.7091 0.2096 0 7
-12.6280 -0.5533 -2.7091 0.2096 0 7
-12.6225 -0.6676 -2.7091 0.2096 0 7
-12.6159 -0.7818 -2.7091 0.2096 0 7
-12.6083 -0.8959 -2.7091 0.2096 0 7
-12.5997 -1.0100 -2.7091 0.2096 0 7
-12.5900 -1.1239 -2.7091 0.2096 0 7
-12.5794 -1.2378 -2.7091 0.2096 0 7
-12.5677 -1.3516 -2.7091 0.2096 0 7
-12.5549 -1.4653 -2.7091 0.2096 0 7
-12.5411 -1.5788 -2.7091 0.2096 0 7
-12.5263 -1.6923 -2.7091 0.2096 0 7
-12.5105 -1.8055 -2.7091 0.2096 0 7
-12.4937 -1.9187 -2.7091 0.2096 0 7
-12.4758 -2.0317 -2.7091 0.2096 0 7
-12.4569 -2.1445 -2.7091 0.2096 0 7
-12.4370 -2.2571 -2.7091 0.2096 0 7
-12.4160 -2.3696 -2.7091 0.2096 0 7
-12.3941 -2.4818 -2.7091 0.2096 0 7
-12.3711 -2.5939 -2.7091 0.2096 0 7
-12.3471 -2.7057 -2.7091 0.2096 0 7
-12.3221 -2.8173 -2.7091 0.2096 0 7
-12.2962 -2.9287 -2.7091 0.2096 0 7
-12.2691 -3.0399 -2.7091 0.2096 0 7
-12.2411 -3.1508 -2.7091 0.2096 0 7
-12.2121 -3.2614 -2.7091 0.2096 0 7
-12.1821 -3.3718 -2.7091 0.2096 0 7
-12.1511 -3.4819 -2.7091 0.2096 0 7
-12.1191 -3.5917 -2.7091 0.2096 0 7
-12.0861 -3.7013 -2.7091 0.2096 0 7
-12.0521 -3.8105 -2.7091 0.2096 0 7
-12.0171 -3.9194 -2.7091 0.2096 0 7
-11.9812 -4.0280 -2.7091 0.2096 0 7
-11.9442 -4.1362 -2.7091 0.2096 0 7
-11.9063 -4.2441 -2.7091 0.2096 0 7
-11.8674 -4.3517 -2.7091 0.2096 0 7
-11.8275 -4.4589 -2.7091 0.2096 0 7
-11.7867 -4.5658 -2.7091 0.2096 0 7
-11.7449 -4.6723 -2.7091 0.2096 0 7
-11.7021 -4.7783 -2.7091 0.2096 0 7
-11.6584 -4.8840 -2.7091 0.2096 0 7
-11.6137 -4.9893 -2.7091 0.2096 0 7
-11.5681 -5.0942 -2.7091 0.2096 0 7
-11.5215 -5.1987 -2.7091 0.2096 0 7
-11.4740 -5.3028 -2.7091 0.2096 0 7
-11.4256 -5.4064 -2.7091 0.2096 0 7
-11.3762 -5.5096 -2.7091 0.2096 0 7
-11.3259 -5.6123 -2.7091 0.2096 0 7
-11.2746 -5.7145 -2.7091 0.2096 0 7
-11.2224 -5.8163 -2.7091 0.2096 0 7
-11.1694 -5.9176 -2.7091 0.2096 0 7
-11.1153 -6.0185 -2.7091 0.2096 0 7
-11.0604 -6.1188 -2.7091 0.2096 0 7
-11.0046 -6.2186 -2.7091 0.2096 0 7
-10.9479 -6.3180 -2.7091 0.2096 0 7
-10.8903 -6.4168 -2.7091 0.2096 0 7
-10.8317 -6.5151 -2.7091 0.2096 0 7
-10.7723 -6.6128 -2.7091 0.2096 0 7
-10.7121 -6.7100 -2.7091 0.2096 0 7
-10.6509 -6.8067 -2.7091 0.2096 0 7
-10.5889 -6.9028 -2.7091 0.2096 0 7
-10.5260 -6.9983 -2.7091 0.2096 0 7
-10.4622 -7.0933 -2.7091 0.2096 0 7
-10.3976 -7.1877 -2.7091 0.2096 0 7
-10.3321 -7.2815 -2.7091 0.2096 0 7
-10.2658 -7.3747 -2.7091 0.2096 0 7
-10.1987 -7.4673 -2.7091 0.2096 0 7
-10.1307 -7.5593 -2.7091 0.2096 0 7
-10.0618 -7.6506 -2.7091 0.2096 0 7
-9.9922 -7.7414 -2.7091 0.2096 0 7
-9.9217 -7.8315 -2.7091 0.2096 0 7
-9.8505 -7.9209 -2.7091 0.2096 0 7
-9.7784 -8.0097 -2.7091 0.2096 0 7
-9.7055 -8.0979 -2.7091 0.2096 0 7
-9.6318 -8.1854 -2.7091 0.2096 0 7
-9.5574 -8.2722 -2.7091 0.2096 0 7
-9.4821 -8.3584 -2.7091 0.2096 0 7
-9.4061 -8.4438 -2.7091 0.2096 0 7
-9.3293 -8.5286 -2.7091 0.2096 0 7
-9.2517 -8.6127 -2.7091 0.2096 0 7
-9.1734 -8.6961 -2.7091 0.2096 0 7
-9.0943 -8.7787 -2.7091 0.2096 0 7
-9.0145 -8.8606 -2.7091 0.2096 0 7
-8.9340 -8.9419 -2.7091 0.2096 0 7
-8.8527 -9.0223 -2.7091 0.2096 0 7
-8.7707 -9.1021 -2.7091 0.2096 0 7
-8.6880 -9.1811 -2.7091 0.2096 0 7
-8.6045 -9.2593 -2.7091 0.2096 0 7
-8.5204 -9.3368 -2.7091 0.2096 0 7
-8.4355 -9.4135 -2.7091 0.2096 0 7
-8.3500 -9.4895 -2.7091 0.2096 0 7
-8.2638 -9.5646 -2.7091 0.2096 0 7
-8.1769 -9.6390 -2.7091 0.2096 0 7
-8.0893 -9.7126 -2.7091 0.2096 0 7
-8.0011 -9.7854 -2.7091 0.2096 0 7
-7.9122 -9.8574 -2.7091 0.2096 0 7
-7.8227 -9.9287 -2.7091 0.2096 0 7
-7.7325 -9.9990 -2.7091 0.2096 0 7
-7.6417 -10.0686 -2.7091 0.2096 0 7
-7.5503 -10.1373 -2.7091 0.2096 0 7
-7.4583 -10.2052 -2.7091 0.2096 0 7
-7.3656 -10.2723 -2.7091 0.2096 0 7
-7.2724 -10.3385 -2.7091 0.2096 0 7
-7.1785 -10.4039 -2.7091 0.2096 0 7
-7.0841 -10.4685 -2.7091 0.2096 0 7
-6.9890 -10.5321 -2.7091 0.2096 0 7
-6.8935 -10.5950 -2.7091 0.2096 0 7
-6.7973 -10.6569 -2.7091 0.2096 0 7
-6.7006 -10.7180 -2.7091 0.2096 0 7
-6.6033 -10.7782 -2.7091 0.2096 0 7
-6.5055 -10.8375 -2.7091 0.2096 0 7
-6.4072 -10.8959 -2.7091 0.2096 0 7
-6.3083 -10.9535 -2.7091 0.2096 0 7
-6.2089 -11.0101 -2.7091 0.2096 0 7
-6.1090 -11.0658 -2.7091 0.2096 0 7
-6.0087 -11.1207 -2.7091 0.2096 0 7
-5.9078 -11.1746 -2.7091 0.2096 0 7
-5.8064 -11.2276 -2.7091 0.2096 0 7
-5.7046 -11.2797 -2.7091 0.2096 0 7
-5.6023 -11.3308 -2.7091 0.2096 0 7
-5.4995 -11.3811 -2.7091 0.2096 0 7
-5.3963 -11.4303 -2.7091 0.2096 0 7
-5.2926 -11.4787 -2.7091 0.2096 0 7
-5.1885 -11.5261 -2.7091 0.2096 0 7
-5.0840 -11.5726 -2.7091 0.2096 0 7
-4.9791 -11.6181 -2.7091 0.2096 0 7
-4.8737 -11.6627 -2.7091 0.2096 0 7
-4.7680 -11.7064 -2.7091 0.2096 0 7
-4.6619 -11.7490 -2.7091 0.2096 0 7
-4.5554 -11.7907 -2.7091 0.2096 0 7
-4.4485 -11.8315 -2.7091 0.2096 0 7
-4.3412 -11.8712 -2.7091 0.2096 0 7
-4.2336 -11.9100 -2.7091 0.2096 0 7
-4.1257 -11.9479 -2.7091 0.2096 0 7
-4.0174 -11.9847 -2.7091 0.2096 0 7
-3.9088 -12.0206 -2.7091 0.2096 0 7
-3.7998 -12.0555 -2.7091 0.2096 0 7
-3.6906 -12.0893 -2.7091 0.2096 0 7
-3.5810 -12.1222 -2.7091 0.2096 0 7
-3.4712 -12.1542 -2.7091 0.2096 0 7
-3.3611 -12.1851 -2.7091 0.2096 0 7
-3.2507 -12.2150 -2.7091 0.2096 0 7
-3.1400 -12.2439 -2.7091 0.2096 0 7
-3.0291 -12.2718 -2.7091 0.2096 0 7
-2.9179 -12.2987 -2.7091 0.2096 0 7
-2.8065 -12.3246 -2.7091 0.2096 0 7
-2.6948 -12.3495 -2.7091 0.2096 0 7
-2.5830 -12.3734 -2.7091 0.2096 0 7
-2.4709 -12.3963 -2.7091 0.2096 0 7
-2.3586 -12.4181 -2.7091 0.2096 0 7
-2.2461 -12.4389 -2.7091 0.2096 0 7
-2.1335 -12.4588 -2.7091 0.2096 0 7
-2.0207 -12.4776 -2.7091 0.2096 0 7
-1.9077 -12.4953 -2.7091 0.2096 0 7
-1.7945 -12.5121 -2.7091 0.2096 0 7
-1.6812 -12.5278 -2.7091 0.2096 0 7
-1.5678 -12.5425 -2.7091 0.2096 0 7
-1.4542 -12.5562 -2.7091 0.2096 0 7
-1.3405 -12.5688 -2.7091 0.2096 0 7
-1.2267 -12.5804 -2.7091 0.2096 0 7
-1.1128 -12.5910 -2.7091 0.2096 0 7
-0.9989 -12.6006 -2.7091 0.2096 0 7
-0.8848 -12.6091 -2.7091 0.2096 0 7
-0.7707 -12.6166 -2.7091 0.2096 0 7
-0.6565 -12.6231 -2.7091 0.2096 0 7
-0.5422 -12.6285 -2.7091 0.2096 0 7
-0.4279 -12.6329 -2.7091 0.2096 0 7
-0.3136 -12.6362 -2.7091 0.2096 0 7
-0.1992 -12.6386 -2.7091 0.2096 0 7
-0.0848 -12.6398 -2.7091 0.2096 0 7
0.0296 -12.6401 -2.7091 0.2096 0 7
0.1439 -12.6393 -2.7091 0.2096 0 7
0.2583 -12.6375 -2.7091 0.2096 0 7
0.3727 -12.6346 -2.7091 0.2096 0 7
0.4870 -12.6307 -2.7091 0.2096 0 7
0.6013 -12.6258 -2.7091 0.2096 0 7
0.7155 -12.6199 -2.7091 0.2096 0 7
0.8297 -12.6129 -2.7091 0.2096 0 7
0.9438 -12.6048 -2.7091 0.2096 0 7
1.0578 -12.5958 -2.7091 0.2096 0 7
1.1717 -12.5857 -2.7091 0.2096 0 7
1.2856 -12.5746 -2.7091 0.2096 0 7
1.3993 -12.5624 -2.7091 0.2096 0 7
1.5129 -12.5493 -2.7091 0.2096 0 7
1.6264 -12.5350 -2.7091 0.2096 0 7
1.7398 -12.5198 -2.7091 0.2096 0 7
1.8530 -12.5036 -2.7091 0.2096 0 7
1.9661 -12.4863 -2.7091 0.2096 0 7
2.0790 -12.4680 -2.7091 0.2096 0 7
2.1918 -12.4487 -2.7091 0.2096 0 7
2.3043 -12.4283 -2.7091 0.2096 0 7
2.4167 -12.4069 -2.7091 0.2096 0 7
2.5289 -12.3846 -2.7091 0.2096 0 7
2.6408 -12.3612 -2.7091 0.2096 0 7
2.7526 -12.3368 -2.7091 0.2096 0 7
2.8631 -12.3071 -2.7081 0.2149 0 8
2.9724 -12.2727 -2.7064 0.2159 0 8
3.0814 -12.2375 -2.7046 0.2160 0 8
3.1900 -12.2013 -2.7029 0.2161 0 8
3.2895 -12.1322 -2.6941 0.4293 0 8
3.3385 -11.8862 -2.6461 0.4832 0 8
3.3919 -11.6697 -2.6046 0.4909 0 8
3.4454 -11.4653 -2.5658 0.5486 0 8
3.5363 -11.3928 -2.5567 0.2096 0 8
3.6393 -11.3604 -2.5567 0.2096 0 8
3.7419 -11.3270 -2.5567 0.2096 0 8
3.8443 -11.2926 -2.5567 0.2096 0 8
3.9463 -11.2574 -2.5567 0.2096 0 8
4.0480 -11.2212 -2.5567 0.2096 0 8
4.1494 -11.1841 -2.5567 0.2096 0 8
4.2504 -11.1461 -2.5567 0.2096 0 8
4.3511 -11.1072 -2.5567 0.2096 0 8
4.4514 -11.0674 -2.5567 0.2096 0 8
4.5514 -11.0266 -2.5567 0.2096 0 8
4.6510 -10.9850 -2.5567 0.2096 0 8
4.7502 -10.9425 -2.5567 0.2096 0 8
4.8490 -10.8990 -2.5567 0.2096 0 8
4.9475 -10.8547 -2.5567 0.2096 0 8
5.0455 -10.8095 -2.5567 0.2096 0 8
5.1431 -10.7634 -2.5567 0.2096 0 8
5.2403 -10.7164 -2.5567 0.2096 0 8
5.3371 -10.6685 -2.5567 0.2096 0 8
5.4334 -10.6198 -2.5567 0.2096 0 8
5.5293 -10.5702 -2.5567 0.2096 0 8
5.6247 -10.5197 -2.5567 0.2096 0 8
5.7197 -10.4684 -2.5567 0.2096 0 8
5.8142 -10.4162 -2.5567 0.2096 0 8
5.9082 -10.3632 -2.5567 0.2096 0 8
6.0017 -10.3093 -2.5567 0.2096 0 8
6.0948 -10.2546 -2.5567 0.2096 0 8
6.1873 -10.1990 -2.5567 0.2096 0 8
6.2794 -10.1426 -2.5567 0.2096 0 8
6.3709 -10.0853 -2.5567 0.2096 0 8
6.4619 -10.0273 -2.5567 0.2096 0 8
6.5524 -9.9684 -2.5567 0.2096 0 8
6.6423 -9.9087 -2.5567 0.2096 0 8
6.7317 -9.8482 -2.5567 0.2096 0 8
6.8205 -9.7868 -2.5567 0.2096 0 8
6.9088 -9.7247 -2.5567 0.2096 0 8
6.9965 -9.6618 -2.5567 0.2096 0 8
7.0837 -9.5981 -2.5567 0.2096 0 8
7.1702 -9.5336 -2.5567 0.2096 0 8
7.2562 -9.4683 -2.5567 0.2096 0 8
7.3416 -9.4023 -2.5567 0.2096 0 8
7.4264 -9.3355 -2.5567 0.2096 0 8
7.5106 -9.2679 -2.5567 0.2096 0 8
7.5941 -9.1995 -2.5567 0.2096 0 8
7.6771 -9.1304 -2.5567 0.2096 0 8
7.7594 -9.0606 -2.5567 0.2096 0 8
7.8410 -8.9900 -2.5567 0.2096 0 8
7.9221 -8.9187 -2.5567 0.2096 0 8
8.0025 -8.8466 -2.5567 0.2096 0 8
8.0822 -8.7738 -2.5567 0.2096 0 8
8.1613 -8.7004 -2.5567 0.2096 0 8
8.2396 -8.6261 -2.5567 0.2096 0 8
8.3174 -8.5512 -2.5567 0.2096 0 8
8.3944 -8.4756 -2.5567 0.2096 0 8
8.4708 -8.3993 -2.5567 0.2096 0 8
8.5464 -8.3223 -2.5567 0.2096 0 8
8.6214 -8.2446 -2.5567 0.2096 0 8
8.6956 -8.1663 -2.5567 0.2096 0 8
8.7692 -8.0872 -2.5567 0.2096 0 8
8.8420 -8.0076 -2.5567 0.2096 0 8
8.9141 -7.9272 -2.5567 0.2096 0 8
8.9855 -7.8462 -2.5567 0.2096 0 8
9.0561 -7.7646 -2.5567 0.2096 0 8
9.1260 -7.6823 -2.5567 0.2096 0 8
9.1952 -7.5994 -2.5567 0.2096 0 8
9.2635 -7.5159 -2.5567 0.2096 0 8
9.3312 -7.4318 -2.5567 0.2096 0 8
9.3981 -7.3470 -2.5567 0.2096 0 8
9.4642 -7.2617 -2.5567 0.2096 0 8
9.5295 -7.1757 -2.5567 0.2096 0 8
9.5940 -7.0892 -2.5567 0.2096 0 8
9.6578 -7.0021 -2.5567 0.2096 0 8
9.7207 -6.9144 -2.5567 0.2096 0 8
8.7525 -6.1072 -2.2874 0.5839 112 5
9.8443 -6.7374 -2.5567 0.2096 0 8
9.9049 -6.6480 -2.5567 0.2096 0 8
9.9646 -6.5581 -2.5567 0.2096 0 8
10.0235 -6.4677 -2.5567 0.2096 0 8
10.0817 -6.3767 -2.5567 0.2096 0 8
10.1390 -6.2852 -2.5567 0.2096 0 8
10.1954 -6.1932 -2.5567 0.2096 0 8
10.2510 -6.1007 -2.5567 0.2096 0 8
10.3058 -6.0077 -2.5567 0.2096 0 8
10.3598 -5.9141 -2.5567 0.2096 0 8
10.4129 -5.8202 -2.5567 0.2096 0 8
10.4651 -5.7257 -2.5567 0.2096 0 8
10.5165 -5.6308 -2.5567 0.2096 0 8
10.5670 -5.5354 -2.5567 0.2096 0 8
10.6167 -5.4395 -2.5567 0.2096 0 8
10.6655 -5.3432 -2.5567 0.2096 0 8
10.7134 -5.2465 -2.5567 0.2096 0 8
10.7604 -5.1493 -2.5567 0.2096 0 8
10.8066 -5.0517 -2.5567 0.2096 0 8
10.8519 -4.9537 -2.5567 0.2096 0 8
10.9847 -4.8948 -2.5774 0.6775 0 8
11.1358 -4.8418 -2.6025 0.6710 0 8
11.2898 -4.7877 -2.6282 0.6644 0 8
11.4469 -4.7326 -2.6547 0.6578 0 8
11.6071 -4.6763 -2.6820 0.6511 0 8
11.7354 -4.6050 -2.7019 0.2200 0 8
11.7829 -4.5010 -2.7033 0.2199 0 8
11.8294 -4.3965 -2.7048 0.2197 0 8
11.8751 -4.2916 -2.7062 0.2196 0 8
11.9200 -4.1863 -2.7077 0.2195 0 8
11.9634 -4.0803 -2.7091 0.2096 0 7
11.9999 -3.9719 -2.7091 0.2096 0 7
12.0353 -3.8631 -2.7091 0.2096 0 7
12.0698 -3.7541 -2.7091 0.2096 0 7
12.1033 -3.6447 -2.7091 0.2096 0 7
12.1357 -3.5350 -2.7091 0.2096 0 7
12.1672 -3.4250 -2.7091 0.2096 0 7
12.1977 -3.3148 -2.7091 0.2096 0 7
12.2272 -3.2043 -2.7091 0.2096 0 7
12.2557 -3.0935 -2.7091 0.2096 0 7
12.2832 -2.9825 -2.7091 0.2096 0 7
12.3097 -2.8712 -2.7091 0.2096 0 7
12.3352 -2.7597 -2.7091 0.2096 0 7
12.3597 -2.6479 -2.7091 0.2096 0 7
12.3831 -2.5360 -2.7091 0.2096 0 7
12.4056 -2.4238 -2.7091 0.2096 0 7
12.4270 -2.3115 -2.7091 0.2096 0 7
12.4474 -2.1989 -2.7091 0.2096 0 7
12.4668 -2.0862 -2.7091 0.2096 0 7
12.4851 -1.9733 -2.7091 0.2096 0 7
12.5025 -1.8602 -2.7091 0.2096 0 7
12.5188 -1.7470 -2.7091 0.2096 0 7
12.5341 -1.6336 -2.7091 0.2096 0 7
12.5484 -1.5202 -2.7091 0.2096 0 7
12.5616 -1.4065 -2.7091 0.2096 0 7
12.5739 -1.2928 -2.7091 0.2096 0 7
12.5850 -1.1790 -2.7091 0.2096 0 7
12.5952 -1.0650 -2.7091 0.2096 0 7
12.6043 -0.9510 -2.7091 0.2096 0 7
12.6124 -0.8369 -2.7091 0.2096 0 7
12.6194 -0.7228 -2.7091 0.2096 0 7
12.6255 -0.6085 -2.7091 0.2096 0 7
12.6304 -0.4943 -2.7091 0.2096 0 7
12.6344 -0.3799 -2.7091 0.2096 0 7
12.6373 -0.2656 -2.7091 0.2096 0 7
12.6392 -0.1512 -2.7091 0.2096 0 7
12.6401 -0.0368 -2.7091 0.2096 0 7
12.6399 0.0776 -2.7091 0.2096 0 7
12.6387 0.1919 -2.7091 0.2096 0 7
12.6364 0.3063 -2.7091 0.2096 0 7
12.6331 0.4206 -2.7091 0.2096 0 7
12.6288 0.5349 -2.7091 0.2096 0 7
12.6234 0.6492 -2.7091 0.2096 0 7
12.6170 0.7634 -2.7091 0.2096 0 7
12.6096 0.8775 -2.7091 0.2096 0 7
12.6012 0.9916 -2.7091 0.2096 0 7
12.5917 1.1056 -2.7091 0.2096 0 7
12.5812 1.2195 -2.7091 0.2096 0 7
12.5696 1.3333 -2.7091 0.2096 0 7
12.5570 1.4470 -2.7091 0.2096 0 7
12.5434 1.5606 -2.7091 0.2096 0 7
12.5288 1.6740 -2.7091 0.2096 0 7
12.5131 1.7873 -2.7091 0.2096 0 7
12.4964 1.9005 -2.7091 0.2096 0 7
12.4787 2.0135 -2.7091 0.2096 0 7
12.4600 2.1263 -2.7091 0.2096 0 7
12.4402 2.2390 -2.7091 0.2096 0 6
12.4195 2.3515 -2.7091 0.2096 0 7
12.3977 2.4638 -2.7091 0.2096 0 6
12.3749 2.5759 -2.7091 0.2096 0 7
12.3511 2.6877 -2.7091 0.2096 0 7
12.3262 2.7994 -2.7091 0.2096 0 7
12.3004 2.9108 -2.7091 0.2096 0 7
12.2735 3.0220 -2.7091 0.2096 0 7
12.2457 3.1330 -2.7091 0.2096 0 7
12.2168 3.2436 -2.7091 0.2096 0 7
12.1870 3.3541 -2.7091 0.2096 0 7
12.1561 3.4642 -2.7091 0.2096 0 7
12.1243 3.5741 -2.7091 0.2096 0 7
12.0915 3.6836 -2.7091 0.2096 0 7
12.0576 3.7929 -2.7091 0.2096 0 7
12.0228 3.9019 -2.7091 0.2096 0 7
11.9870 4.0105 -2.7091 0.2096 0 7
11.9502 4.1188 -2.7091 0.2096 0 7
11.9125 4.2268 -2.7091 0.2096 0 7
11.8737 4.3344 -2.7091 0.2096 0 7
11.8340 4.4417 -2.7091 0.2096 0 7
11.7933 4.5486 -2.7091 0.2096 0 7
11.7517 4.6551 -2.7091 0.2096 0 7
11.7091 4.7613 -2.7091 0.2096 0 7
11.6655 4.8671 -2.7091 0.2096 0 7
11.6210 4.9724 -2.7091 0.2096 0 7
11.5755 5.0774 -2.7091 0.2096 0 7
11.5291 5.1819 -2.7091 0.2096 0 7
11.4817 5.2860 -2.7091 0.2096 0 7
11.4334 5.3897 -2.7091 0.2096 0 7
11.3842 5.4929 -2.7091 0.2096 0 7
11.3340 5.5958 -2.7091 0.2096 0 7
11.2829 5.6981 -2.7091 0.2096 0 7
11.2309 5.8000 -2.7091 0.2096 0 7
11.1779 5.9014 -2.7091 0.2096 0 7
11.1241 6.0023 -2.7091 0.2096 0 7
11.0693 6.1027 -2.7091 0.2096 0 7
11.0137 6.2026 -2.7091 0.2096 0 7
10.9571 6.3020 -2.7091 0.2096 0 7
10.8996 6.4009 -2.7091 0.2096 0 7
10.8412 6.4993 -2.7091 0.2096 0 7
10.7820 6.5971 -2.7091 0.2096 0 7
10.7218 6.6944 -2.7091 0.2096 0 7
10.6608 6.7912 -2.7091 0.2096 0 7
10.5989 6.8874 -2.7091 0.2096 0 7
10.5362 6.9830 -2.7091 0.2096 0 7
10.4725 7.0781 -2.7091 0.2096 0 7
10.4080 7.1725 -2.7091 0.2096 0 7
10.3427 7.2664 -2.7091 0.2096 0 7
10.2765 7.3597 -2.7091 0.2096 0 7
10.2095 7.4524 -2.7091 0.2096 0 7
10.1417 7.5445 -2.7091 0.2096 0 7
10.0730 7.6360 -2.7091 0.2096 0 7
10.0035 7.7268 -2.7091 0.2096 0 7
9.9331 7.8170 -2.7091 0.2096 0 7
9.8580 7.9034 -2.7080 0.2155 0 8
9.7798 7.9871 -2.7062 0.2156 0 8
9.7008 8.0701 -2.7045 0.2158 0 8
9.6212 8.1523 -2.7027 0.2159 0 8
9.4964 8.1953 -2.6884 0.4158 0 8
9.2443 8.1249 -2.6377 0.4238 0 8
9.0015 8.0570 -2.5892 0.4318 0 8
8.8162 8.0360 -2.5567 0.2096 0 8
8.7431 8.1154 -2.5567 0.2096 0 8
8.6693 8.1942 -2.5567 0.2096 0 8
8.5948 8.2724 -2.5567 0.2096 0 8
8.5196 8.3498 -2.5567 0.2096 0 8
8.4437 8.4265 -2.5567 0.2096 0 8
8.3671 8.5026 -2.5567 0.2096 0 8
8.2898 8.5780 -2.5567 0.2096 0 8
8.2118 8.6526 -2.5567 0.2096 0 8
8.1260 8.7189 -2.5544 0.4744 0 9
7.9180 8.6513 -2.5135 0.4821 0 9
7.7164 8.5859 -2.4741 0.4898 0 9
7.5285 8.5308 -2.4385 0.4999 0 9
7.4303 8.5747 -2.4317 0.2096 0 9
7.3669 8.6587 -2.4365 0.7370 0 9
7.3237 8.7673 -2.4484 0.8280 0 9
7.2857 8.8841 -2.4625 0.8233 0 9
7.2474 9.0022 -2.4769 0.8185 0 9
7.2085 9.1218 -2.4918 0.8136 0 9
7.1692 9.2428 -2.5070 0.8087 0 9
7.1294 9.3653 -2.5226 0.8036 0 9
7.0892 9.4893 -2.5386 0.7986 0 9
7.0483 9.6149 -2.5551 0.7934 0 9
6.9654 9.6843 -2.5567 0.2096 0 8
6.8775 9.7469 -2.5567 0.2096 0 8
6.7890 9.8088 -2.5567 0.2096 0 8
6.6999 9.8698 -2.5567 0.2096 0 8
6.6103 9.9300 -2.5567 0.2096 0 8
6.5202 9.9894 -2.5567 0.2096 0 8
6.4295 10.0480 -2.5567 0.2096 0 8
6.3384 10.1058 -2.5567 0.2096 0 8
6.2466 10.1627 -2.5567 0.2096 0 8
6.1544 10.2189 -2.5567 0.2096 0 8
6.0617 10.2741 -2.5567 0.2096 0 8
5.9685 10.3286 -2.5567 0.2096 0 8
11.3828 -0.0000 -2.7091 0.2315 0 7
11.3824 0.1030 -2.7091 0.2315 0 7
11.3810 0.2060 -2.7091 0.2315 0 7
11.3786 0.3090 -2.7091 0.2315 0 7
11.3754 0.4119 -2.7091 0.2315 0 7
11.3712 0.5149 -2.7091 0.2315 0 7
11.3660 0.6177 -2.7091 0.2315 0 7
11.3600 0.7206 -2.7091 0.2315 0 7
11.3530 0.8233 -2.7091 0.2315 0 7
11.3451 0.9260 -2.7091 0.2315 0 7
11.3362 1.0287 -2.7091 0.2315 0 7
11.3265 1.1312 -2.7091 0.2315 0 7
11.3158 1.2337 -2.7091 0.2315 0 7
11.3041 1.3360 -2.7091 0.2315 0 7
11.2916 1.4382 -2.7091 0.2315 0 7
11.2781 1.5404 -2.7091 0.2315 0 7
11.2637 1.6424 -2.7091 0.2315 0 7
11.2484 1.7442 -2.7091 0.2315 0 7
11.2322 1.8459 -2.7091 0.2315 0 6
11.2150 1.9475 -2.7091 0.2315 0 7
11.1969 2.0489 -2.7091 0.2315 0 6
11.1779 2.1502 -2.7091 0.2315 0 6
11.1580 2.2512 -2.7091 0.2315 0 7
11.1372 2.3521 -2.7091 0.2315 0 7
11.1154 2.4528 -2.7091 0.2315 0 7
11.0928 2.5533 -2.7091 0.2315 0 7
11.0692 2.6536 -2.7091 0.2315 0 7
11.0447 2.7536 -2.7091 0.2315 0 7
11.0194 2.8534 -2.7091 0.2315 0 7
10.9931 2.9530 -2.7091 0.2315 0 7
10.9659 3.0524 -2.7091 0.2315 0 7
10.9379 3.1515 -2.7091 0.2315 0 7
10.9089 3.2504 -2.7091 0.2315 0 7
10.8790 3.3489 -2.7091 0.2315 0 7
10.8483 3.4473 -2.7091 0.2315 0 7
10.8166 3.5453 -2.7091 0.2315 0 7
10.7841 3.6430 -2.7091 0.2315 0 7
10.7507 3.7405 -2.7091 0.2315 0 7
10.7164 3.8376 -2.7091 0.2315 0 7
10.6812 3.9344 -2.7091 0.2315 0 7
10.6452 4.0309 -2.7091 0.2315 0 7
10.6083 4.1271 -2.7091 0.2315 0 7
10.5705 4.2229 -2.7091 0.2315 0 7
10.5319 4.3184 -2.7091 0.2315 0 7
10.4924 4.4135 -2.7091 0.2315 0 7
10.4520 4.5083 -2.7091 0.2315 0 7
10.4108 4.6027 -2.7091 0.2315 0 7
10.3487 4.6877 -2.7039 0.3415 0 20
10.3258 4.7903 -2.7091 0.2315 0 7
10.2820 4.8836 -2.7091 0.2315 0 7
10.2374 4.9764 -2.7091 0.2315 0 7
10.1919 5.0689 -2.7091 0.2315 0 7
10.1456 5.1609 -2.7091 0.2315 0 7
10.0985 5.2525 -2.7091 0.2315 0 7
10.0506 5.3437 -2.7091 0.2315 0 7
10.0018 5.4344 -2.7091 0.2315 0 7
9.9522 5.5247 -2.7091 0.2315 0 7
9.9018 5.6145 -2.7091 0.2315 0 7
9.8506 5.7039 -2.7091 0.2315 0 7
9.7986 5.7928 -2.7091 0.2315 0 7
9.7458 5.8812 -2.7091 0.2315 0 7
9.6921 5.9692 -2.7091 0.2315 0 7
9.6377 6.0566 -2.7091 0.2315 0 7
9.5825 6.1436 -2.7091 0.2315 0 7
9.5265 6.2301 -2.7091 0.2315 0 7
9.4698 6.3160 -2.7091 0.2315 0 7
9.4122 6.4015 -2.7091 0.2315 0 7
9.3539 6.4864 -2.7091 0.2315 0 7
9.2948 6.5707 -2.7091 0.2315 0 7
9.2350 6.6546 -2.7091 0.2315 0 7
9.1744 6.7379 -2.7091 0.2315 0 7
9.1130 6.8206 -2.7091 0.2315 0 7
9.0510 6.9028 -2.7091 0.2315 0 7
8.9881 6.9844 -2.7091 0.2315 0 7
8.9245 7.0655 -2.7091 0.2315 0 7
8.8602 7.1460 -2.7091 0.2315 0 7
8.7952 7.2259 -2.7091 0.2315 0 7
8.7295 7.3051 -2.7091 0.2315 0 7
8.6630 7.3838 -2.7091 0.2315 0 7
8.5944 7.4607 -2.7086 0.2380 0 8
8.5217 7.5339 -2.7071 0.2382 0 8
8.4483 7.6063 -2.7055 0.2383 0 8
8.3744 7.6781 -2.7040 0.2384 0 8
8.2999 7.7492 -2.7025 0.2386 0 8
8.1794 7.7764 -2.6860 0.4598 0 8
7.9739 7.7196 -2.6414 0.4676 0 8
7.7751 7.6647 -2.5984 0.4753 0 8
7.5887 7.6175 -2.5590 0.4807 0 8
7.5125 7.6788 -2.5567 0.2315 0 8
7.4427 7.7464 -2.5567 0.2315 0 8
7.3723 7.8135 -2.5567 0.2315 0 8
7.3013 7.8799 -2.5567 0.2315 0 8
7.2296 7.9456 -2.5567 0.2315 0 8
7.1575 8.0107 -2.5567 0.2315 0 8
7.0847 8.0752 -2.5567 0.2315 0 8
7.0113 8.1389 -2.5567 0.2315 0 8
6.9374 8.2021 -2.5567 0.2315 0 8
6.8629 8.2645 -2.5567 0.2315 0 8
6.7878 8.3263 -2.5567 0.2315 0 8
6.7122 8.3873 -2.5567 0.2315 0 8
6.6360 8.4477 -2.5567 0.2315 0 8
6.5593 8.5074 -2.5567 0.2315 0 8
6.4820 8.5665 -2.5567 0.2315 0 8
6.4042 8.6247 -2.5567 0.2315 0 8
6.3259 8.6824 -2.5567 0.2315 0 8
6.2471 8.7392 -2.5567 0.2315 0 8
6.1678 8.7954 -2.5567 0.2315 0 8
6.0879 8.8509 -2.5567 0.2315 0 8
6.0076 8.9056 -2.5567 0.2315 0 8
5.9267 8.9596 -2.5567 0.2315 0 8
5.8454 9.0129 -2.5567 0.2315 0 8
5.7636 9.0654 -2.5567 0.2315 0 8
5.6813 9.1172 -2.5567 0.2315 0 8
5.5986 9.1682 -2.5567 0.2315 0 8
5.5154 9.2185 -2.5567 0.2315 0 8
5.4318 9.2680 -2.5567 0.2315 0 8
5.3477 9.3168 -2.5567 0.2315 0 8
5.2631 9.3648 -2.5567 0.2315 0 8
5.1782 9.4121 -2.5567 0.2315 0 8
5.0928 9.4585 -2.5567 0.2315 0 8
5.0070 9.5042 -2.5567 0.2315 0 8
4.9208 9.5492 -2.5567 0.2315 0 8
4.8342 9.5933 -2.5567 0.2315 0 8
4.7472 9.6367 -2.5567 0.2315 0 8
4.6598 9.6792 -2.5567 0.2315 0 8
4.5720 9.7210 -2.5567 0.2315 0 8
4.4838 9.7620 -2.5567 0.2315 0 8
4.3953 9.8021 -2.5567 0.2315 0 8
4.3064 9.8415 -2.5567 0.2315 0 8
4.2172 9.8801 -2.5567 0.2315 0 8
4.1276 9.9178 -2.5567 0.2315 0 8
4.0377 9.9548 -2.5567 0.2315 0 8
3.9474 9.9909 -2.5567 0.2315 0 8
3.8569 10.0262 -2.5567 0.2315 0 8
3.7660 10.0607 -2.5567 0.2315 0 8
3.6748 10.0944 -2.5567 0.2315 0 8
3.5833 10.1272 -2.5567 0.2315 0 8
3.4915 10.1592 -2.5567 0.2315 0 8
3.3994 10.1904 -2.5567 0.2315 0 8
3.3071 10.2208 -2.5567 0.2315 0 8
3.2144 10.2503 -2.5567 0.2315 0 8
3.1215 10.2789 -2.5567 0.2315 0 8
3.0284 10.3068 -2.5567 0.2315 0 8
2.9350 10.3337 -2.5567 0.2315 0 8
2.8414 10.3599 -2.5567 0.2315 0 8
2.7475 10.3852 -2.5567 0.2315 0 8
2.6534 10.4096 -2.5567 0.2315 0 8
2.5591 10.4332 -2.5567 0.2315 0 8
2.4646 10.4559 -2.5567 0.2315 0 8
2.3699 10.4778 -2.5567 0.2315 0 8
2.2750 10.4988 -2.5567 0.2315 0 8
2.1799 10.5190 -2.5567 0.2315 0 8
2.0846 10.5383 -2.5567 0.2315 0 8
1.9891 10.5567 -2.5567 0.2315 0 8
1.8935 10.5743 -2.5567 0.2315 0 8
1.7978 10.5910 -2.5567 0.2315 0 8
1.7018 10.6068 -2.5567 0.2315 0 8
1.6058 10.6218 -2.5567 0.2315 0 8
1.5096 10.6359 -2.5567 0.2315 0 8
1.4133 10.6491 -2.5567 0.2315 0 8
1.3169 10.6615 -2.5567 0.2315 0 8
1.2203 10.6729 -2.5567 0.2315 0 8
1.1237 10.6835 -2.5567 0.2315 0 8
1.0270 10.6933 -2.5567 0.2315 0 8
0.9302 10.7021 -2.5567 0.2315 0 8
0.8333 10.7101 -2.5567 0.2315 0 8
0.7363 10.7172 -2.5567 0.2315 0 8
0.6393 10.7234 -2.5567 0.2315 0 8
0.5423 10.7288 -2.5567 0.2315 0 8
0.4451 10.7332 -2.5567 0.2315 0 8
0.3480 10.7368 -2.5567 0.2315 0 8
0.2509 10.7396 -2.5567 0.2315 0 8
0.1536 10.7414 -2.5567 0.2315 0 8
0.0564 10.7423 -2.5567 0.2315 0 8
-0.0408 10.7424 -2.5567 0.2315 0 8
-0.1380 10.7416 -2.5567 0.2315 0 8
-0.2352 10.7399 -2.5567 0.2315 0 8
-0.3324 10.7373 -2.5567 0.2315 0 8
-0.4295 10.7339 -2.5567 0.2315 0 8
-0.5266 10.7296 -2.5567 0.2315 0 8
-0.6237 10.7244 -2.5567 0.2315 0 8
-0.7207 10.7183 -2.5567 0.2315 0 8
-0.8177 10.7113 -2.5567 0.2315 0 8
-0.9146 10.7035 -2.5567 0.2315 0 8
-1.0114 10.6948 -2.5567 0.2315 0 8
-1.1082 10.6852 -2.5567 0.2315 0 8
-1.2048 10.6747 -2.5567 0.2315 0 8
-1.3013 10.6634 -2.5567 0.2315 0 8
-1.3978 10.6511 -2.5567 0.2315 0 8
-1.4941 10.6381 -2.5567 0.2315 0 8
-1.5903 10.6241 -2.5567 0.2315 0 8
-1.6864 10.6093 -2.5567 0.2315 0 8
-1.7823 10.5936 -2.5567 0.2315 0 8
-1.8781 10.5770 -2.5567 0.2315 0 8
-1.9737 10.5596 -2.5567 0.2315 0 8
-2.0692 10.5413 -2.5567 0.2315 0 8
-2.1645 10.5222 -2.5567 0.2315 0 8
-2.2597 10.5021 -2.5567 0.2315 0 8
-2.3546 10.4812 -2.5567 0.2315 0 8
-2.4494 10.4595 -2.5567 0.2315 0 8
-2.5439 10.4369 -2.5567 0.2315 0 8
-2.6383 10.4135 -2.5567 0.2315 0 8
-2.7324 10.3892 -2.5567 0.2315 0 8
-2.8263 10.3640 -2.5567 0.2315 0 8
-2.9200 10.3380 -2.5567 0.2315 0 8
-3.0134 10.3112 -2.5567 0.2315 0 8
-3.1066 10.2835 -2.5567 0.2315 0 8
-3.1995 10.2549 -2.5567 0.2315 0 8
-3.2922 10.2256 -2.5567 0.2315 0 8
-3.3846 10.1954 -2.5567 0.2315 0 8
-3.4767 10.1643 -2.5567 0.2315 0 8
-3.5685 10.1324 -2.5567 0.2315 0 8
-3.6601 10.0997 -2.5567 0.2315 0 8
-3.7513 10.0662 -2.5567 0.2315 0 8
-3.8423 10.0318 -2.5567 0.2315 0 8
-3.9329 9.9967 -2.5567 0.2315 0 8
-4.0232 9.9606 -2.5567 0.2315 0 8
-4.1132 9.9238 -2.5567 0.2315 0 8
-4.2028 9.8862 -2.5567 0.2315 0 8
-4.2921 9.8478 -2.5567 0.2315 0 8
-4.3810 9.8085 -2.5567 0.2315 0 8
-4.4696 9.7685 -2.5567 0.2315 0 8
-4.6769 9.9817 -2.6234 0.1734 0 8
-4.9100 10.2372 -2.7022 0.2336 0 8
-5.0056 10.1988 -2.7039 0.2335 0 8
-5.1010 10.1596 -2.7056 0.2333 0 8
-5.1960 10.1194 -2.7073 0.2332 0 8
-5.2907 10.0784 -2.7090 0.2330 0 8
-5.3818 10.0302 -2.7091 0.2315 0 7
-5.4723 9.9811 -2.7091 0.2315 0 7
-5.5624 9.9312 -2.7091 0.2315 0 7
-5.6521 9.8804 -2.7091 0.2315 0 7
-5.7412 9.8289 -2.7091 0.2315 0 7
-5.8299 9.7765 -2.7091 0.2315 0 7
-5.9182 9.7234 -2.7091 0.2315 0 7
-6.0059 9.6694 -2.7091 0.2315 0 7
-6.0932 9.6147 -2.7091 0.2315 0 7
-6.1799 9.5591 -2.7091 0.2315 0 7
-6.2662 9.5028 -2.7091 0.2315 0 7
-6.3519 9.4457 -2.7091 0.2315 0 7
-6.4371 9.3878 -2.7091 0.2315 0 7
-6.5218 9.3292 -2.7091 0.2315 0 7
-6.6060 9.2698 -2.7091 0.2315 0 7
-6.6896 9.2097 -2.7091 0.2315 0 7
-6.7727 9.1487 -2.7091 0.2315 0 7
-6.8552 9.0871 -2.7091 0.2315 0 7
-6.9371 9.0247 -2.7091 0.2315 0 7
-7.0185 8.9615 -2.7091 0.2315 0 7
-7.0993 8.8977 -2.7091 0.2315 0 7
-7.1795 8.8331 -2.7091 0.2315 0 7
-7.2592 8.7677 -2.7091 0.2315 0 7
-7.3382 8.7017 -2.7091 0.2315 0 7
-7.4167 8.6349 -2.7091 0.2315 0 7
-7.4945 8.5675 -2.7091 0.2315 0 7
-7.5717 8.4993 -2.7091 0.2315 0 7
-7.6483 8.4304 -2.7091 0.2315 0 7
-7.7243 8.3608 -2.7091 0.2315 0 7
-7.7997 8.2906 -2.7091 0.2315 0 7
-7.8744 8.2197 -2.7091 0.2315 0 7
-7.9484 8.1481 -2.7091 0.2315 0 7
-8.0218 8.0758 -2.7091 0.2315 0 7
-8.0946 8.0029 -2.7091 0.2315 0 7
-8.1667 7.9293 -2.7091 0.2315 0 7
-8.2381 7.8551 -2.7091 0.2315 0 7
-8.3088 7.7802 -2.7091 0.2315 0 7
-8.3789 7.7047 -2.7091 0.2315 0 7
-8.4483 7.6286 -2.7091 0.2315 0 7
-8.5170 7.5518 -2.7091 0.2315 0 7
-8.5850 7.4744 -2.7091 0.2315 0 7
-8.6522 7.3965 -2.7091 0.2315 0 7
-8.7188 7.3179 -2.7091 0.2315 0 7
-8.7847 7.2387 -2.7091 0.2315 0 7
-8.8498 7.1589 -2.7091 0.2315 0 7
-8.9143 7.0785 -2.7091 0.2315 0 7
-8.9779 6.9975 -2.7091 0.2315 0 7
-9.0409 6.9160 -2.7091 0.2315 0 7
-9.1031 6.8339 -2.7091 0.2315 0 7
-9.1646 6.7512 -2.7091 0.2315 0 7
-9.2253 6.6680 -2.7091 0.2315 0 7
-9.2852 6.5843 -2.7091 0.2315 0 7
-9.3445 6.5000 -2.7091 0.2315 0 7
-9.4029 6.4152 -2.7091 0.2315 0 7
-9.4606 6.3298 -2.7091 0.2315 0 7
-9.5175 6.2439 -2.7091 0.2315 0 7
-9.5736 6.1576 -2.7091 0.2315 0 7
-9.6289 6.0707 -2.7091 0.2315 0 7
-9.6834 5.9833 -2.7091 0.2315 0 7
-9.7372 5.8954 -2.7091 0.2315 0 7
-9.7901 5.8071 -2.7091 0.2315 0 7
-9.8423 5.7182 -2.7091 0.2315 0 7
-9.8936 5.6289 -2.7091 0.2315 0 7
-9.9442 5.5392 -2.7091 0.2315 0 7
-9.9939 5.4489 -2.7091 0.2315 0 7
-10.0428 5.3583 -2.7091 0.2315 0 7
-10.0909 5.2672 -2.7091 0.2315 0 7
-10.1381 5.1757 -2.7091 0.2315 0 7
-10.1845 5.0837 -2.7091 0.2315 0 7
-10.2301 4.9913 -2.7091 0.2315 0 7
-10.2749 4.8986 -2.7091 0.2315 0 7
-10.3188 4.8054 -2.7091 0.2315 0 7
-10.3618 4.7118 -2.7091 0.2315 0 7
-10.4040 4.6179 -2.7091 0.2315 0 7
-10.4454 4.5235 -2.7091 0.2315 0 7
-10.4859 4.4288 -2.7091 0.2315 0 7
-10.5256 4.3337 -2.7091 0.2315 0 7
-10.5644 4.2383 -2.7091 0.2315 0 7
-10.6023 4.1425 -2.7091 0.2315 0 7
-10.6393 4.0464 -2.7091 0.2315 0 7
-10.6755 3.9500 -2.7091 0.2315 0 7
-10.7108 3.8532 -2.7091 0.2315 0 7
-10.7452 3.7561 -2.7091 0.2315 0 7
-10.7788 3.6587 -2.7091 0.2315 0 7
-10.8115 3.5610 -2.7091 0.2315 0 7
-10.8432 3.4631 -2.7091 0.2315 0 7
-10.8741 3.3648 -2.7091 0.2315 0 7
-10.9041 3.2662 -2.7091 0.2315 0 7
-10.9333 3.1675 -2.7091 0.2315 0 7
-10.9615 3.0684 -2.7091 0.2315 0 7
-10.9888 2.9691 -2.7091 0.2315 0 7
-11.0152 2.8695 -2.7091 0.2315 0 7
-11.0407 2.7697 -2.7091 0.2315 0 7
-11.0653 2.6697 -2.7091 0.2315 0 7
-11.0890 2.5694 -2.7091 0.2315 0 7
-11.1118 2.4690 -2.7091 0.2315 0 7
-11.1337 2.3683 -2.7091 0.2315 0 7
-11.1547 2.2675 -2.7091 0.2315 0 7
-11.1748 2.1664 -2.7091 0.2315 0 7
-11.1939 2.0652 -2.7091 0.2315 0 7
-11.2121 1.9639 -2.7091 0.2315 0 7
-11.2294 1.8623 -2.7091 0.2315 0 7
-11.2458 1.7606 -2.7091 0.2315 0 7
-11.2613 1.6588 -2.7091 0.2315 0 7
-11.2759 1.5568 -2.7091 0.2315 0 7
-11.2895 1.4547 -2.7091 0.2315 0 7
-11.3022 1.3525 -2.7091 0.2315 0 7
-11.3140 1.2501 -2.7091 0.2315 0 7
-11.3248 1.1477 -2.7091 0.2315 0 7
-11.3347 1.0452 -2.7091 0.2315 0 7
-11.3437 0.9426 -2.7091 0.2315 0 7
-11.3518 0.8399 -2.7091 0.2315 0 7
-11.3589 0.7371 -2.7091 0.2315 0 7
-11.3651 0.6343 -2.7091 0.2315 0 7
-11.3704 0.5314 -2.7091 0.2315 0 7
-11.3747 0.4285 -2.7091 0.2315 0 7
-11.3782 0.3256 -2.7091 0.2315 0 7
-11.3806 0.2226 -2.7091 0.2315 0 7
-11.3822 0.1196 -2.7091 0.2315 0 7
-11.3828 0.0166 -2.7091 0.2315 0 7
-11.3825 -0.0864 -2.7091 0.2315 0 7
-11.3812 -0.1894 -2.7091 0.2315 0 7
-11.3791 -0.2924 -2.7091 0.2315 0 7
-11.3759 -0.3954 -2.7091 0.2315 0 7
-11.3719 -0.4983 -2.7091 0.2315 0 7
-11.3669 -0.6012 -2.7091 0.2315 0 7
-11.3610 -0.7040 -2.7091 0.2315 0 7
-11.3542 -0.8068 -2.7091 0.2315 0 7
-11.3464 -0.9095 -2.7091 0.2315 0 7
-11.3377 -1.0121 -2.7091 0.2315 0 7
-11.3281 -1.1147 -2.7091 0.2315 0 7
-11.3176 -1.2172 -2.7091 0.2315 0 7
-11.3061 -1.3195 -2.7091 0.2315 0 7
-11.2937 -1.4218 -2.7091 0.2315 0 7
-11.2804 -1.5239 -2.7091 0.2315 0 7
-11.2661 -1.6259 -2.7091 0.2315 0 7
-11.2509 -1.7278 -2.7091 0.2315 0 7
-11.2348 -1.8296 -2.7091 0.2315 0 7
-11.2178 -1.9312 -2.7091 0.2315 0 7
-11.1999 -2.0326 -2.7091 0.2315 0 7
-11.1810 -2.1339 -2.7091 0.2315 0 7
-11.1613 -2.2350 -2.7091 0.2315 0 7
-11.1406 -2.3359 -2.7091 0.2315 0 7
-11.1190 -2.4366 -2.7091 0.2315 0 7
-11.0965 -2.5371 -2.7091 0.2315 0 7
-11.0731 -2.6374 -2.7091 0.2315 0 7
-11.0487 -2.7375 -2.7091 0.2315 0 7
-11.0235 -2.8374 -2.7091 0.2315 0 7
-10.9974 -2.9370 -2.7091 0.2315 0 7
-10.9704 -3.0364 -2.7091 0.2315 0 7
-10.9424 -3.1356 -2.7091 0.2315 0 7
-10.9136 -3.2345 -2.7091 0.2315 0 7
-10.8839 -3.3331 -2.7091 0.2315 0 7
-10.8533 -3.4314 -2.7091 0.2315 0 7
-10.8218 -3.5295 -2.7091 0.2315 0 7
