ply
format ascii 1.0
element vertex 1347
property float32 x
property float32 y
property float32 z
property float32 CosAngle
property uint32 ObjIdx
property uint32 ObjTag
end_header
-15.2310 16.5263 -2.7338 0.1322 0 8
-15.3670 16.3741 -2.7315 0.1323 0 8
-15.5016 16.2210 -2.7293 0.1324 0 8
-15.6348 16.0669 -2.7270 0.1325 0 8
-15.6781 15.8225 -2.7095 0.7131 0 8
-15.6841 15.5447 -2.6861 0.7193 0 8
-15.6899 15.2717 -2.6634 0.7254 0 8
-15.6956 15.0032 -2.6412 0.7315 0 8
-15.7011 14.7390 -2.6196 0.7375 0 8
-15.7123 14.4844 -2.5995 0.7608 0 8
-15.7337 14.2431 -2.5816 0.1208 0 8
-15.8619 14.1002 -2.5816 0.1208 0 8
-15.9887 13.9562 -2.5816 0.1208 0 8
-16.1143 13.8110 -2.5816 0.1208 0 8
-16.2386 13.6647 -2.5816 0.1208 0 8
-16.3615 13.5172 -2.5816 0.1208 0 8
-16.4831 13.3687 -2.5816 0.1208 0 8
-16.6033 13.2191 -2.5816 0.1208 0 8
-16.7222 13.0683 -2.5816 0.1208 0 8
-16.8397 12.9166 -2.5816 0.1208 0 8
-16.9559 12.7637 -2.5816 0.1208 0 8
-17.0706 12.6099 -2.5816 0.1208 0 8
-17.1840 12.4549 -2.5816 0.1208 0 8
-17.2959 12.2990 -2.5816 0.1208 0 8
-17.4065 12.1421 -2.5816 0.1208 0 8
-17.5156 11.9842 -2.5816 0.1208 0 8
-17.6232 11.8253 -2.5816 0.1208 0 8
-17.7295 11.6654 -2.5816 0.1208 0 8
-17.8342 11.5045 -2.5816 0.1208 0 8
-17.9375 11.3428 -2.5816 0.1208 0 8
-18.0394 11.1801 -2.5816 0.1208 0 8
-18.1398 11.0164 -2.5816 0.1208 0 8
-18.2387 10.8519 -2.5816 0.1208 0 8
-18.3361 10.6865 -2.5816 0.1208 0 8
-18.4320 10.5202 -2.5816 0.1208 0 8
-18.5264 10.3531 -2.5816 0.1208 0 8
-18.6193 10.1851 -2.5816 0.1208 0 8
-18.7106 10.0163 -2.5816 0.1208 0 8
-18.8005 9.8467 -2.5816 0.1208 0 8
-18.8888 9.6762 -2.5816 0.1208 0 8
-18.9755 9.5050 -2.5816 0.1208 0 8
-19.0607 9.3330 -2.5816 0.1208 0 8
-19.1443 9.1602 -2.5816 0.1208 0 8
-19.2264 8.9867 -2.5816 0.1208 0 8
-19.3069 8.8124 -2.5816 0.1208 0 8
-19.3858 8.6374 -2.5816 0.1208 0 8
-19.4631 8.4617 -2.5816 0.1208 0 8
-19.5389 8.2853 -2.5816 0.1208 0 8
-19.6130 8.1083 -2.5816 0.1208 0 8
-19.6855 7.9306 -2.5816 0.1208 0 8
-19.7565 7.7522 -2.5816 0.1208 0 8
-19.8258 7.5732 -2.5816 0.1208 0 8
-19.9509 7.4149 -2.5891 0.6201 0 8
-20.1686 7.2889 -2.6086 0.7596 0 8
-20.4084 7.1676 -2.6312 0.7092 0 8
-20.6559 7.0452 -2.6547 0.7029 0 8
-20.9313 6.9285 -2.6820 0.6481 0 8
-21.2193 6.8115 -2.7109 0.5896 0 8
-21.4126 6.6605 -2.7278 0.1304 0 8
-21.4926 6.4728 -2.7304 0.1303 0 8
-21.5711 6.2842 -2.7330 0.1301 0 8
-21.6347 6.0910 -2.7340 0.1208 0 7
-21.6890 5.8951 -2.7340 0.1208 0 7
-21.7414 5.6987 -2.7340 0.1208 0 7
-21.7920 5.5018 -2.7340 0.1208 0 7
-21.8409 5.3045 -2.7340 0.1208 0 7
-21.8880 5.1068 -2.7340 0.1208 0 7
-21.9333 4.9086 -2.7340 0.1208 0 7
-21.9768 4.7100 -2.7340 0.1208 0 7
-22.0185 4.5110 -2.7340 0.1208 0 7
-22.0584 4.3117 -2.7340 0.1208 0 7
-22.0965 4.1120 -2.7340 0.1208 0 7
-22.1328 3.9120 -2.7340 0.1208 0 7
-22.1672 3.7117 -2.7340 0.1208 0 7
-22.1999 3.5110 -2.7340 0.1208 0 7
-22.2308 3.3101 -2.7340 0.1208 0 7
-22.2598 3.1089 -2.7340 0.1208 0 7
-22.2870 2.9074 -2.7340 0.1208 0 7
-22.3124 2.7057 -2.7340 0.1208 0 7
-22.3359 2.5038 -2.7340 0.1208 0 7
-22.3577 2.3017 -2.7340 0.1208 0 7
-22.3776 2.0994 -2.7340 0.1208 0 7
-22.3956 1.8969 -2.7340 0.1208 0 7
-22.4119 1.6943 -2.7340 0.1208 0 7
-22.4263 1.4915 -2.7340 0.1208 0 7
-22.4389 1.2886 -2.7340 0.1208 0 7
-22.4496 1.0856 -2.7340 0.1208 0 7
-22.4585 0.8825 -2.7340 0.1208 0 7
-22.4656 0.6794 -2.7340 0.1208 0 7
-22.4708 0.4761 -2.7340 0.1208 0 7
-22.4742 0.2729 -2.7340 0.1208 0 7
-22.4757 0.0696 -2.7340 0.1208 0 7
-22.4754 -0.1337 -2.7340 0.1208 0 6
-22.4733 -0.3370 -2.7340 0.1208 0 7
-22.4693 -0.5402 -2.7340 0.1208 0 7
-22.4635 -0.7434 -2.7340 0.1208 0 7
-22.4559 -0.9466 -2.7340 0.1208 0 7
-22.4464 -1.1496 -2.7340 0.1208 0 7
-22.4351 -1.3526 -2.7340 0.1208 0 7
-22.4219 -1.5555 -2.7340 0.1208 0 7
-22.4070 -1.7582 -2.7340 0.1208 0 7
-22.3901 -1.9608 -2.7340 0.1208 0 7
-22.3715 -2.1632 -2.7340 0.1208 0 7
-22.3510 -2.3655 -2.7340 0.1208 0 7
-22.3287 -2.5675 -2.7340 0.1208 0 7
-22.3046 -2.7694 -2.7340 0.1208 0 7
-22.2786 -2.9710 -2.7340 0.1208 0 7
-22.2508 -3.1724 -2.7340 0.1208 0 7
-22.2212 -3.3735 -2.7340 0.1208 0 7
-22.1898 -3.5743 -2.7340 0.1208 0 6
-22.1566 -3.7749 -2.7340 0.1208 0 7
-22.1215 -3.9751 -2.7340 0.1208 0 7
-21.6400 -4.0910 -2.6790 0.1937 0 8
-20.8785 -4.1430 -2.5892 0.1208 0 8
-20.8402 -4.3316 -2.5892 0.1208 0 14
-20.8002 -4.5199 -2.5892 0.1208 0 14
-20.5769 -4.6667 -2.5666 0.8134 0 19
-19.2365 -4.5460 -2.4044 0.5709 0 19
-19.1949 -4.7199 -2.4044 0.8030 0 19
-17.7954 -4.5468 -2.2342 0.5855 0 19
-17.7908 -4.7175 -2.2389 0.1373 0 19
-16.4318 -4.5166 -2.0729 0.5999 0 19
-16.3615 -4.6568 -2.0693 0.7813 0 19
-20.4190 -6.0118 -2.5892 0.1208 0 14
-14.9617 -4.5525 -1.9024 0.9868 0 19
-20.3069 -6.3802 -2.5892 0.1208 0 14
-20.2484 -6.5636 -2.5892 0.1208 0 14
-13.5572 -4.5305 -1.7388 0.9893 0 19
-13.5584 -4.6677 -1.7443 0.7470 0 19
-20.0628 -7.1105 -2.5892 0.1208 0 14
-19.9977 -7.2917 -2.5892 0.1208 0 14
-19.0644 -7.1474 -2.4766 0.9916 0 19
-20.9732 -8.0801 -2.7340 0.1208 0 6
-20.8993 -8.2695 -2.7340 0.1208 0 7
-17.6404 -7.1652 -2.3161 0.9925 0 19
-20.7463 -8.6462 -2.7340 0.1208 0 7
-20.6672 -8.8334 -2.7340 0.1208 0 7
-16.2446 -7.1176 -2.1574 0.9927 0 19
-20.5040 -9.2058 -2.7340 0.1208 0 7
-15.5775 -7.1639 -2.0857 0.4070 0 19
-15.2067 -7.1607 -2.0446 0.4151 0 19
-11.9168 -5.7438 -1.6091 0.7358 0 5
-20.1576 -9.9415 -2.7340 0.1208 0 7
-20.0669 -10.1234 -2.7340 0.1208 0 7
-19.9745 -10.3044 -2.7340 0.1208 0 7
-13.4276 -7.0815 -1.8466 0.9895 0 19
-19.7849 -10.6641 -2.7340 0.1208 0 7
-19.6876 -10.8426 -2.7340 0.1208 0 7
-19.5887 -11.0202 -2.7340 0.1208 0 7
-19.4883 -11.1969 -2.7340 0.1208 0 7
-12.0234 -7.0534 -1.6956 0.9849 0 19
-12.0146 -7.1951 -1.7035 0.5954 0 19
-19.1773 -11.7215 -2.7340 0.1208 0 7
-19.0705 -11.8945 -2.7340 0.1208 0 7
-18.9621 -12.0665 -2.7340 0.1208 0 7
-18.8522 -12.2375 -2.7340 0.1208 0 7
-18.7408 -12.4075 -2.7340 0.1208 0 7
-18.6278 -12.5765 -2.7340 0.1208 0 7
-18.5133 -12.7445 -2.7340 0.1208 0 7
-18.3972 -12.9114 -2.7340 0.1208 0 7
-18.2797 -13.0773 -2.7340 0.1208 0 7
-18.1607 -13.2421 -2.7340 0.1208 0 7
-18.0402 -13.4058 -2.7340 0.1208 0 7
-17.9182 -13.5684 -2.7340 0.1208 0 7
-17.7947 -13.7299 -2.7340 0.1208 0 7
-17.6698 -13.8903 -2.7340 0.1208 0 7
-17.5435 -14.0495 -2.7340 0.1208 0 7
-17.4157 -14.2076 -2.7340 0.1208 0 7
-17.2865 -14.3646 -2.7340 0.1208 0 7
-17.1559 -14.5203 -2.7340 0.1208 0 7
-17.0238 -14.6749 -2.7340 0.1208 0 7
-16.8904 -14.8283 -2.7340 0.1208 0 7
-16.7555 -14.9804 -2.7340 0.1208 0 6
-16.6194 -15.1314 -2.7340 0.1208 0 7
-16.4819 -15.2811 -2.7340 0.1208 0 7
-16.3430 -15.4295 -2.7340 0.1208 0 7
-16.2028 -15.5767 -2.7340 0.1208 0 7
-16.0612 -15.7226 -2.7340 0.1208 0 7
-15.9184 -15.8672 -2.7340 0.1208 0 7
-15.7742 -16.0105 -2.7340 0.1208 0 7
-15.6287 -16.1526 -2.7340 0.1208 0 7
-15.4820 -16.2933 -2.7340 0.1208 0 7
-15.3340 -16.4326 -2.7340 0.1208 0 7
-15.1848 -16.5706 -2.7340 0.1208 0 7
-15.0343 -16.7073 -2.7340 0.1208 0 7
-14.8826 -16.8426 -2.7340 0.1208 0 7
-14.7296 -16.9765 -2.7340 0.1208 0 7
-14.5755 -17.1090 -2.7340 0.1208 0 7
-14.4201 -17.2402 -2.7340 0.1208 0 7
-14.2636 -17.3699 -2.7340 0.1208 0 7
-14.1059 -17.4982 -2.7340 0.1208 0 7
-13.9376 -17.6131 -2.7321 0.1338 0 8
-13.7680 -17.7259 -2.7302 0.1339 0 8
-13.5976 -17.8372 -2.7283 0.1340 0 8
-13.4264 -17.9470 -2.7264 0.1341 0 8
-13.1766 -17.9493 -2.7085 0.8030 0 8
-12.9290 -17.9501 -2.6909 0.8082 0 8
-12.6845 -17.9508 -2.6737 0.8134 0 8
-12.4431 -17.9515 -2.6569 0.8186 0 8
-12.2046 -17.9522 -2.6406 0.8236 0 8
-11.9691 -17.9527 -2.6246 0.8286 0 8
-11.7363 -17.9533 -2.6091 0.8336 0 8
-11.5062 -17.9538 -2.5939 0.8385 0 8
-11.2894 -17.9712 -2.5816 0.1208 0 8
-11.1264 -18.0726 -2.5816 0.1208 0 8
-10.9624 -18.1725 -2.5816 0.1208 0 8
-10.7976 -18.2709 -2.5816 0.1208 0 8
-10.6319 -18.3678 -2.5816 0.1208 0 8
-10.4654 -18.4632 -2.5816 0.1208 0 8
-10.2980 -18.5571 -2.5816 0.1208 0 8
-10.1297 -18.6495 -2.5816 0.1208 0 8
-9.9606 -18.7404 -2.5816 0.1208 0 8
-9.7907 -18.8297 -2.5816 0.1208 0 8
-9.6200 -18.9175 -2.5816 0.1208 0 8
-9.4485 -19.0037 -2.5816 0.1208 0 8
-9.2762 -19.0884 -2.5816 0.1208 0 8
-9.1032 -19.1715 -2.5816 0.1208 0 8
-8.9294 -19.2530 -2.5816 0.1208 0 8
-8.7549 -19.3330 -2.5816 0.1208 0 8
-8.5797 -19.4114 -2.5816 0.1208 0 8
-8.0461 -18.6586 -2.4717 0.9130 0 5
-7.9155 -18.8224 -2.4838 0.3962 0 5
-8.0499 -19.6370 -2.5816 0.1208 0 8
-7.8720 -19.7090 -2.5816 0.1208 0 8
-7.6934 -19.7794 -2.5816 0.1208 0 8
-7.5142 -19.8482 -2.5816 0.1208 0 8
-7.3344 -19.9154 -2.5816 0.1208 0 8
-7.1539 -19.9809 -2.5816 0.1208 0 8
-6.9729 -20.0448 -2.5816 0.1208 0 8
-6.7914 -20.1070 -2.5816 0.1208 0 8
-1.8880 -5.7609 -0.7374 0.7646 0 9
-1.8224 -5.7357 -0.7321 0.7752 0 9
-1.7578 -5.7110 -0.7269 0.7807 0 9
-1.6942 -5.6867 -0.7218 0.7862 0 9
-1.6314 -5.6627 -0.7168 0.7917 0 9
-1.5773 -5.6668 -0.7155 0.9364 0 9
-1.5311 -5.7001 -0.7180 0.9332 0 9
-1.4847 -5.7337 -0.7205 0.9300 0 9
-1.4379 -5.7675 -0.7230 0.9266 0 9
-1.3905 -5.8002 -0.7255 0.9329 0 9
-1.3572 -5.8962 -0.7360 0.5069 0 9
-1.3553 -6.1414 -0.7650 0.0640 0 9
-4.3857 -20.7649 -2.5816 0.1208 0 8
-4.1977 -20.8037 -2.5816 0.1208 0 8
-4.0094 -20.8408 -2.5816 0.1208 0 8
-3.8207 -20.8762 -2.5816 0.1208 0 8
-3.6318 -20.9099 -2.5816 0.1208 0 8
-3.4425 -20.9419 -2.5816 0.1208 0 8
-3.2529 -20.9722 -2.5816 0.1208 0 8
-3.0631 -21.0008 -2.5816 0.1208 0 8
-2.8731 -21.0276 -2.5816 0.1208 0 8
-2.6827 -21.0527 -2.5816 0.1208 0 8
-2.4922 -21.0761 -2.5816 0.1208 0 8
-2.3015 -21.0978 -2.5816 0.1208 0 8
-2.1106 -21.1178 -2.5816 0.1208 0 8
-1.9195 -21.1360 -2.5816 0.1208 0 8
-1.7283 -21.1525 -2.5816 0.1208 0 8
-1.5369 -21.1672 -2.5816 0.1208 0 8
-1.3454 -21.1803 -2.5816 0.1208 0 8
-1.1537 -21.1916 -2.5816 0.1208 0 8
-0.9620 -21.2012 -2.5816 0.1208 0 8
-0.7702 -21.2090 -2.5816 0.1208 0 8
-0.5784 -21.2151 -2.5816 0.1208 0 8
-0.3865 -21.2194 -2.5816 0.1208 0 8
-0.1945 -21.2221 -2.5816 0.1208 0 8
-0.0026 -21.2230 -2.5816 0.1208 0 8
0.1894 -21.2221 -2.5816 0.1208 0 8
0.3813 -21.2195 -2.5816 0.1208 0 8
0.5732 -21.2152 -2.5816 0.1208 0 8
0.7651 -21.2092 -2.5816 0.1208 0 8
0.9569 -21.2014 -2.5816 0.1208 0 8
1.1486 -21.1919 -2.5816 0.1208 0 8
1.3402 -21.1806 -2.5816 0.1208 0 8
1.5317 -21.1676 -2.5816 0.1208 0 8
1.7231 -21.1529 -2.5816 0.1208 0 8
1.9144 -21.1364 -2.5816 0.1208 0 8
2.1054 -21.1183 -2.5816 0.1208 0 8
2.2964 -21.0984 -2.5816 0.1208 0 8
2.4871 -21.0767 -2.5816 0.1208 0 8
2.6776 -21.0534 -2.5816 0.1208 0 8
2.8679 -21.0283 -2.5816 0.1208 0 8
3.0580 -21.0015 -2.5816 0.1208 0 8
3.2478 -20.9730 -2.5816 0.1208 0 8
3.4374 -20.9427 -2.5816 0.1208 0 8
3.6267 -20.9108 -2.5816 0.1208 0 8
3.8157 -20.8771 -2.5816 0.1208 0 8
4.0043 -20.8418 -2.5816 0.1208 0 8
4.1927 -20.8047 -2.5816 0.1208 0 8
4.3806 -20.7659 -2.5816 0.1208 0 8
4.5683 -20.7255 -2.5816 0.1208 0 8
4.7556 -20.6833 -2.5816 0.1208 0 8
4.9424 -20.6394 -2.5816 0.1208 0 8
5.1289 -20.5939 -2.5816 0.1208 0 8
5.3150 -20.5467 -2.5816 0.1208 0 8
5.5006 -20.4978 -2.5816 0.1208 0 8
5.6857 -20.4472 -2.5816 0.1208 0 8
5.8704 -20.3949 -2.5816 0.1208 0 8
6.0547 -20.3410 -2.5816 0.1208 0 8
6.2384 -20.2854 -2.5816 0.1208 0 8
6.4216 -20.2281 -2.5816 0.1208 0 8
6.6043 -20.1692 -2.5816 0.1208 0 8
6.7865 -20.1087 -2.5816 0.1208 0 8
6.9680 -20.0465 -2.5816 0.1208 0 8
7.1491 -19.9826 -2.5816 0.1208 0 8
7.3295 -19.9171 -2.5816 0.1208 0 8
7.5094 -19.8500 -2.5816 0.1208 0 8
7.6886 -19.7813 -2.5816 0.1208 0 8
7.8672 -19.7110 -2.5816 0.1208 0 8
8.0451 -19.6390 -2.5816 0.1208 0 8
8.2224 -19.5654 -2.5816 0.1208 0 8
8.3991 -19.4903 -2.5816 0.1208 0 8
8.5750 -19.4135 -2.5816 0.1208 0 8
8.7502 -19.3351 -2.5816 0.1208 0 8
8.9247 -19.2552 -2.5816 0.1208 0 8
9.0985 -19.1737 -2.5816 0.1208 0 8
9.2716 -19.0906 -2.5816 0.1208 0 8
9.4439 -19.0060 -2.5816 0.1208 0 8
9.6154 -18.9198 -2.5816 0.1208 0 8
9.7861 -18.8321 -2.5816 0.1208 0 8
9.9560 -18.7428 -2.5816 0.1208 0 8
10.1252 -18.6520 -2.5816 0.1208 0 8
10.2934 -18.5596 -2.5816 0.1208 0 8
10.4609 -18.4658 -2.5816 0.1208 0 8
10.6275 -18.3704 -2.5816 0.1208 0 8
10.7932 -18.2735 -2.5816 0.1208 0 8
10.9580 -18.1752 -2.5816 0.1208 0 8
11.1219 -18.0753 -2.5816 0.1208 0 8
11.2850 -17.9740 -2.5816 0.1208 0 8
11.4543 -17.8824 -2.5832 0.6802 0 8
11.6083 -17.7669 -2.5816 0.1208 0 8
11.8078 -17.7202 -2.5902 0.8397 0 8
12.0372 -17.7151 -2.6053 0.8348 0 8
12.2693 -17.7099 -2.6207 0.8299 0 8
12.5041 -17.7046 -2.6366 0.8249 0 8
12.7418 -17.6992 -2.6528 0.8198 0 8
12.9824 -17.6937 -2.6695 0.8147 0 8
13.2260 -17.6881 -2.6866 0.8095 0 8
13.4728 -17.6824 -2.7041 0.8043 0 8
13.7228 -17.6766 -2.7221 0.7990 0 8
13.9113 -17.5886 -2.7278 0.1340 0 8
14.0796 -17.4743 -2.7297 0.1339 0 8
14.2472 -17.3585 -2.7317 0.1338 0 8
14.4139 -17.2413 -2.7336 0.1337 0 8
14.5713 -17.1126 -2.7340 0.1208 0 7
14.7255 -16.9801 -2.7340 0.1208 0 7
14.8784 -16.8462 -2.7340 0.1208 0 7
15.0302 -16.7110 -2.7340 0.1208 0 7
15.1807 -16.5743 -2.7340 0.1208 0 7
15.3300 -16.4363 -2.7340 0.1208 0 7
15.4780 -16.2970 -2.7340 0.1208 0 7
15.6248 -16.1564 -2.7340 0.1208 0 7
15.7703 -16.0144 -2.7340 0.1208 0 7
15.9145 -15.8711 -2.7340 0.1208 0 7
16.0574 -15.7265 -2.7340 0.1208 0 7
16.1990 -15.5806 -2.7340 0.1208 0 7
16.3392 -15.4335 -2.7340 0.1208 0 7
16.4781 -15.2851 -2.7340 0.1208 0 7
16.6157 -15.1354 -2.7340 0.1208 0 7
16.7519 -14.9845 -2.7340 0.1208 0 7
16.8868 -14.8324 -2.7340 0.1208 0 7
17.0202 -14.6790 -2.7340 0.1208 0 6
17.1523 -14.5245 -2.7340 0.1208 0 7
17.2830 -14.3688 -2.7340 0.1208 0 7
17.4122 -14.2119 -2.7340 0.1208 0 7
17.5400 -14.0538 -2.7340 0.1208 0 7
17.6665 -13.8946 -2.7340 0.1208 0 7
17.7914 -13.7342 -2.7340 0.1208 0 7
17.9149 -13.5727 -2.7340 0.1208 0 7
18.0369 -13.4102 -2.7340 0.1208 0 7
18.1575 -13.2465 -2.7340 0.1208 0 7
18.2765 -13.0817 -2.7340 0.1208 0 7
8.0023 -5.6190 -1.1894 0.9676 0 5
18.5102 -12.7490 -2.7340 0.1208 0 7
18.6247 -12.5811 -2.7340 0.1208 0 7
18.7377 -12.4121 -2.7340 0.1208 0 7
18.8492 -12.2421 -2.7340 0.1208 0 7
18.9592 -12.0711 -2.7340 0.1208 0 7
19.0676 -11.8992 -2.7340 0.1208 0 7
19.1744 -11.7262 -2.7340 0.1208 0 7
19.2797 -11.5523 -2.7340 0.1208 0 7
19.3834 -11.3775 -2.7340 0.1208 0 7
19.4855 -11.2017 -2.7340 0.1208 0 7
19.5860 -11.0250 -2.7340 0.1208 0 7
19.6849 -10.8474 -2.7340 0.1208 0 7
19.7822 -10.6689 -2.7340 0.1208 0 7
13.1865 -6.9585 -1.8137 0.6242 0 19
13.2201 -6.8241 -1.8097 0.7612 0 19
20.0644 -10.1282 -2.7340 0.1208 0 7
20.1552 -9.9464 -2.7340 0.1208 0 7
20.2443 -9.7637 -2.7340 0.1208 0 7
14.5910 -6.8751 -1.9620 0.9913 0 19
14.9945 -6.9002 -2.0078 0.4227 0 19
15.3519 -6.8971 -2.0472 0.4146 0 19
15.6404 -6.8574 -2.0774 0.1764 0 19
16.0086 -6.8469 -2.1180 0.9926 0 19
20.7441 -8.6512 -2.7340 0.1208 0 7
20.8215 -8.4632 -2.7340 0.1208 0 7
17.4070 -6.8926 -2.2774 0.7041 0 19
20.9712 -8.0852 -2.7340 0.1208 0 7
21.0435 -7.8952 -2.7340 0.1208 0 7
18.8133 -6.8650 -2.4361 0.9920 0 19
17.9613 -6.3706 -2.3182 0.3604 0 9
17.9590 -6.1875 -2.3106 0.9282 0 9
17.9533 -6.0045 -2.3028 0.9313 0 9
17.9477 -5.8227 -2.2952 0.9344 0 9
17.9309 -5.6385 -2.2864 0.9374 0 9
14.4206 -4.3917 -1.8337 0.7590 0 19
14.4607 -4.2614 -1.8338 0.6277 0 19
17.9257 -5.1068 -2.2673 0.9459 0 9
15.7233 -4.3260 -1.9837 0.4790 0 19
15.9236 -4.2265 -2.0040 0.6066 0 19
17.2581 -4.4140 -2.1669 0.7872 0 19
17.2563 -4.2477 -2.1617 0.9821 0 19
18.7507 -4.4361 -2.3438 0.1468 0 19
18.6641 -4.2377 -2.3281 0.9793 0 19
20.0651 -4.3653 -2.4979 0.8085 0 19
20.1447 -4.1922 -2.5029 0.5631 0 19
20.8775 -4.1480 -2.5892 0.1208 0 14
20.9142 -3.9591 -2.5892 0.1208 0 14
20.9491 -3.7697 -2.5892 0.1208 0 8
21.4701 -3.6633 -2.6494 0.1958 0 8
22.1889 -3.5797 -2.7340 0.1208 0 7
22.2204 -3.3789 -2.7340 0.1208 0 7
22.2500 -3.1778 -2.7340 0.1208 0 6
22.2779 -2.9764 -2.7340 0.1208 0 7
22.3039 -2.7748 -2.7340 0.1208 0 7
22.3281 -2.5730 -2.7340 0.1208 0 7
22.3504 -2.3709 -2.7340 0.1208 0 7
22.3710 -2.1687 -2.7340 0.1208 0 7
22.3897 -1.9662 -2.7340 0.1208 0 7
22.4065 -1.7637 -2.7340 0.1208 0 7
22.4216 -1.5609 -2.7340 0.1208 0 7
22.4348 -1.3581 -2.7340 0.1208 0 7
22.4461 -1.1551 -2.7340 0.1208 0 7
22.4556 -0.9520 -2.7340 0.1208 0 7
22.4633 -0.7489 -2.7340 0.1208 0 7
22.4692 -0.5457 -2.7340 0.1208 0 7
22.4732 -0.3424 -2.7340 0.1208 0 7
22.4754 -0.1392 -2.7340 0.1208 0 7
22.4757 0.0641 -2.7340 0.1208 0 7
22.4742 0.2674 -2.7340 0.1208 0 7
22.4709 0.4707 -2.7340 0.1208 0 7
22.4657 0.6739 -2.7340 0.1208 0 7
22.4587 0.8770 -2.7340 0.1208 0 7
22.4499 1.0801 -2.7340 0.1208 0 7
22.4392 1.2831 -2.7340 0.1208 0 7
22.4266 1.4860 -2.7340 0.1208 0 7
22.4123 1.6888 -2.7340 0.1208 0 7
22.3961 1.8914 -2.7340 0.1208 0 7
22.3781 2.0939 -2.7340 0.1208 0 7
22.3582 2.2962 -2.7340 0.1208 0 7
22.3365 2.4984 -2.7340 0.1208 0 7
22.3130 2.7003 -2.7340 0.1208 0 7
22.2877 2.9020 -2.7340 0.1208 0 7
22.2605 3.1035 -2.7340 0.1208 0 7
22.2315 3.3047 -2.7340 0.1208 0 7
22.2008 3.5056 -2.7340 0.1208 0 7
22.1681 3.7063 -2.7340 0.1208 0 7
22.1337 3.9066 -2.7340 0.1208 0 6
22.0975 4.1066 -2.7340 0.1208 0 7
22.0594 4.3063 -2.7340 0.1208 0 7
22.0196 4.5057 -2.7340 0.1208 0 7
21.9779 4.7047 -2.7340 0.1208 0 7
21.9345 4.9032 -2.7340 0.1208 0 7
21.8892 5.1014 -2.7340 0.1208 0 7
21.8422 5.2992 -2.7340 0.1208 0 7
21.7934 5.4965 -2.7340 0.1208 0 7
21.7428 5.6934 -2.7340 0.1208 0 7
21.6904 5.8898 -2.7340 0.1208 0 7
21.6362 6.0858 -2.7340 0.1208 0 7
21.5803 6.2812 -2.7340 0.1208 0 7
21.5068 6.4714 -2.7320 0.1254 0 8
21.4225 6.6579 -2.7288 0.1256 0 8
21.2104 6.8030 -2.7095 0.3107 0 8
20.5900 6.8100 -2.6380 0.3192 0 8
20.0884 6.8462 -2.5816 0.1208 0 8
20.0256 7.0276 -2.5816 0.1208 0 8
19.9613 7.2085 -2.5816 0.1208 0 8
19.8952 7.3887 -2.5816 0.1208 0 8
19.6651 7.5064 -2.5604 0.9300 0 19
19.6637 7.7103 -2.5692 0.9268 0 19
19.6638 7.9163 -2.5785 0.8832 0 19
19.6150 8.1035 -2.5816 0.1208 0 8
19.5409 8.2806 -2.5816 0.1208 0 8
19.4652 8.4570 -2.5816 0.1208 0 8
19.3879 8.6327 -2.5816 0.1208 0 8
19.3090 8.8077 -2.5816 0.1208 0 8
19.2286 8.9820 -2.5816 0.1208 0 8
19.1466 9.1555 -2.5816 0.1208 0 8
19.0630 9.3283 -2.5816 0.1208 0 8
18.9778 9.5004 -2.5816 0.1208 0 8
18.8911 9.6716 -2.5816 0.1208 0 8
18.8029 9.8421 -2.5816 0.1208 0 8
18.7131 10.0117 -2.5816 0.1208 0 8
18.6218 10.1806 -2.5816 0.1208 0 8
18.5289 10.3486 -2.5816 0.1208 0 8
18.4346 10.5158 -2.5816 0.1208 0 8
18.3387 10.6821 -2.5816 0.1208 0 8
18.2413 10.8475 -2.5816 0.1208 0 8
18.1425 11.0120 -2.5816 0.1208 0 8
18.0421 11.1757 -2.5816 0.1208 0 8
17.9403 11.3384 -2.5816 0.1208 0 8
17.8370 11.5002 -2.5816 0.1208 0 8
17.7323 11.6611 -2.5816 0.1208 0 8
17.6261 11.8210 -2.5816 0.1208 0 8
17.5185 11.9799 -2.5816 0.1208 0 8
17.4094 12.1379 -2.5816 0.1208 0 8
17.2989 12.2948 -2.5816 0.1208 0 8
17.1870 12.4508 -2.5816 0.1208 0 8
17.0737 12.6057 -2.5816 0.1208 0 8
9.3912 7.0658 -1.4296 0.8518 0 5
9.3434 7.1631 -1.4321 0.5035 0 5
16.7254 13.0643 -2.5816 0.1208 0 22
16.6065 13.2150 -2.5816 0.1208 0 22
16.4864 13.3647 -2.5816 0.1208 0 22
16.3648 13.5132 -2.5816 0.1208 0 22
16.2419 13.6607 -2.5816 0.1208 0 22
16.1177 13.8070 -2.5816 0.1208 0 22
15.9922 13.9523 -2.5816 0.1208 0 22
15.8653 14.0963 -2.5816 0.1208 0 22
15.7372 14.2392 -2.5816 0.1208 0 22
15.6077 14.3810 -2.5816 0.1208 0 22
15.4770 14.5216 -2.5816 0.1208 0 22
15.3450 14.6610 -2.5816 0.1208 0 22
15.2118 14.7992 -2.5816 0.1208 0 22
15.0773 14.9361 -2.5816 0.1208 0 22
14.9416 15.0719 -2.5816 0.1208 0 22
14.8047 15.2064 -2.5816 0.1208 0 22
14.6666 15.3397 -2.5816 0.1208 0 22
14.5272 15.4717 -2.5816 0.1208 0 22
14.3867 15.6025 -2.5816 0.1208 0 22
14.2450 15.7320 -2.5816 0.1208 0 22
14.1021 15.8601 -2.5816 0.1208 0 22
13.9581 15.9870 -2.5816 0.1208 0 22
13.8129 16.1126 -2.5816 0.1208 0 22
13.6666 16.2369 -2.5816 0.1208 0 22
13.5192 16.3599 -2.5816 0.1208 0 22
13.3707 16.4815 -2.5816 0.1208 0 22
13.2211 16.6017 -2.5816 0.1208 0 22
13.0704 16.7206 -2.5816 0.1208 0 22
12.9186 16.8382 -2.5816 0.1208 0 22
12.7658 16.9543 -2.5816 0.1208 0 22
12.6119 17.0691 -2.5816 0.1208 0 22
12.4570 17.1825 -2.5816 0.1208 0 22
12.3011 17.2944 -2.5816 0.1208 0 22
12.1442 17.4050 -2.5816 0.1208 0 22
11.9863 17.5141 -2.5816 0.1208 0 22
11.8274 17.6218 -2.5816 0.1208 0 22
11.6675 17.7280 -2.5816 0.1208 0 22
11.5067 17.8328 -2.5816 0.1208 0 22
11.3450 17.9362 -2.5816 0.1208 0 22
11.1823 18.0381 -2.5816 0.1208 0 22
11.0187 18.1384 -2.5816 0.1208 0 22
10.8541 18.2374 -2.5816 0.1208 0 22
10.6888 18.3348 -2.5816 0.1208 0 22
10.5225 18.4307 -2.5816 0.1208 0 22
10.3554 18.5251 -2.5816 0.1208 0 22
10.1874 18.6180 -2.5816 0.1208 0 22
10.0186 18.7094 -2.5816 0.1208 0 22
9.8490 18.7993 -2.5816 0.1208 0 22
9.6785 18.8876 -2.5816 0.1208 0 22
9.5073 18.9743 -2.5816 0.1208 0 22
9.3353 19.0596 -2.5816 0.1208 0 22
9.1625 19.1432 -2.5816 0.1208 0 22
8.9890 19.2253 -2.5816 0.1208 0 22
8.8147 19.3058 -2.5816 0.1208 0 22
8.6398 19.3848 -2.5816 0.1208 0 22
8.4641 19.4621 -2.5816 0.1208 0 22
8.2877 19.5379 -2.5816 0.1208 0 22
8.1107 19.6120 -2.5816 0.1208 0 22
7.9330 19.6846 -2.5816 0.1208 0 22
7.7546 19.7555 -2.5816 0.1208 0 22
7.5756 19.8249 -2.5816 0.1208 0 22
7.3960 19.8926 -2.5816 0.1208 0 22
7.2158 19.9586 -2.5816 0.1208 0 22
7.0349 20.0231 -2.5816 0.1208 0 22
6.8536 20.0859 -2.5816 0.1208 0 22
6.6716 20.1471 -2.5816 0.1208 0 22
6.4891 20.2066 -2.5816 0.1208 0 22
6.3061 20.2644 -2.5816 0.1208 0 22
6.1226 20.3206 -2.5816 0.1208 0 22
5.9385 20.3752 -2.5816 0.1208 0 22
5.7540 20.4281 -2.5816 0.1208 0 22
5.5690 20.4793 -2.5816 0.1208 0 22
5.3836 20.5288 -2.5816 0.1208 0 22
5.1977 20.5767 -2.5816 0.1208 0 22
5.0113 20.6228 -2.5816 0.1208 0 22
4.8246 20.6673 -2.5816 0.1208 0 22
4.6375 20.7101 -2.5816 0.1208 0 22
4.4500 20.7512 -2.5816 0.1208 0 22
4.2621 20.7906 -2.5816 0.1208 0 22
4.0739 20.8283 -2.5816 0.1208 0 22
3.8853 20.8643 -2.5816 0.1208 0 22
3.6965 20.8986 -2.5816 0.1208 0 22
3.5073 20.9312 -2.5816 0.1208 0 22
3.3179 20.9620 -2.5816 0.1208 0 8
3.1281 20.9912 -2.5816 0.1208 0 8
2.9381 21.0186 -2.5816 0.1208 0 8
2.7479 21.0443 -2.5816 0.1208 0 8
2.5575 21.0683 -2.5816 0.1208 0 8
2.3668 21.0906 -2.5816 0.1208 0 8
2.1760 21.1111 -2.5816 0.1208 0 8
1.9849 21.1299 -2.5816 0.1208 0 8
1.7937 21.1470 -2.5816 0.1208 0 8
1.6024 21.1624 -2.5816 0.1208 0 8
1.4109 21.1760 -2.5816 0.1208 0 8
1.2193 21.1879 -2.5816 0.1208 0 8
1.0277 21.1981 -2.5816 0.1208 0 8
0.8359 21.2065 -2.5816 0.1208 0 8
0.6441 21.2132 -2.5816 0.1208 0 8
0.4522 21.2181 -2.5816 0.1208 0 8
0.2602 21.2214 -2.5816 0.1208 0 8
0.0683 21.2229 -2.5816 0.1208 0 8
-0.1237 21.2226 -2.5816 0.1208 0 8
-0.3156 21.2206 -2.5816 0.1208 0 8
-0.5075 21.2169 -2.5816 0.1208 0 8
-0.6994 21.2114 -2.5816 0.1208 0 8
-0.8912 21.2042 -2.5816 0.1208 0 8
-1.0829 21.1953 -2.5816 0.1208 0 8
-1.2746 21.1847 -2.5816 0.1208 0 8
-1.4662 21.1723 -2.5816 0.1208 0 8
-1.6576 21.1581 -2.5816 0.1208 0 8
-1.8489 21.1423 -2.5816 0.1208 0 8
-2.0400 21.1247 -2.5816 0.1208 0 8
-2.2310 21.1054 -2.5816 0.1208 0 8
-2.4218 21.0843 -2.5816 0.1208 0 8
-2.6124 21.0616 -2.5816 0.1208 0 8
-1.6113 12.0937 -1.4842 0.1239 0 12
-1.7124 12.0213 -1.4770 0.9837 309 5
-1.8350 12.0974 -1.4884 0.9825 0 12
-3.5716 22.1902 -2.7340 0.1208 0 7
-3.7722 22.1570 -2.7340 0.1208 0 7
-3.9724 22.1220 -2.7340 0.1208 0 7
-4.1724 22.0852 -2.7340 0.1208 0 7
-4.3719 22.0465 -2.7340 0.1208 0 7
-4.5711 22.0061 -2.7340 0.1208 0 7
-4.7700 21.9638 -2.7340 0.1208 0 7
-4.9684 21.9198 -2.7340 0.1208 0 7
-5.1665 21.8740 -2.7340 0.1208 0 7
-5.3641 21.8263 -2.7340 0.1208 0 7
-5.5613 21.7769 -2.7340 0.1208 0 7
-5.7581 21.7257 -2.7340 0.1208 0 7
-5.9543 21.6728 -2.7340 0.1208 0 7
-6.1501 21.6180 -2.7340 0.1208 0 7
-6.3454 21.5615 -2.7340 0.1208 0 7
-6.5401 21.5032 -2.7340 0.1208 0 7
-6.7343 21.4432 -2.7340 0.1208 0 7
-6.9280 21.3814 -2.7340 0.1208 0 7
-7.1211 21.3179 -2.7340 0.1208 0 7
-7.3136 21.2526 -2.7340 0.1208 0 7
-7.5055 21.1856 -2.7340 0.1208 0 7
-7.6969 21.1168 -2.7340 0.1208 0 7
-7.8875 21.0464 -2.7340 0.1208 0 7
-8.0776 20.9742 -2.7340 0.1208 0 7
-8.2669 20.9003 -2.7340 0.1208 0 7
-8.4556 20.8246 -2.7340 0.1208 0 7
-8.6436 20.7473 -2.7340 0.1208 0 7
-8.8309 20.6683 -2.7340 0.1208 0 7
-9.0175 20.5876 -2.7340 0.1208 0 6
-9.2033 20.5052 -2.7340 0.1208 0 7
-9.3884 20.4211 -2.7340 0.1208 0 7
-9.5727 20.3353 -2.7340 0.1208 0 7
-9.7563 20.2479 -2.7340 0.1208 0 7
-9.9390 20.1589 -2.7340 0.1208 0 7
-10.1209 20.0681 -2.7340 0.1208 0 7
-10.3020 19.9758 -2.7340 0.1208 0 7
-10.4823 19.8818 -2.7340 0.1208 0 7
-10.6617 19.7862 -2.7340 0.1208 0 7
-10.8402 19.6889 -2.7340 0.1208 0 7
-11.0178 19.5901 -2.7340 0.1208 0 7
-11.1945 19.4896 -2.7340 0.1208 0 7
-11.3704 19.3876 -2.7340 0.1208 0 7
-11.5452 19.2839 -2.7340 0.1208 0 7
-11.7192 19.1787 -2.7340 0.1208 0 7
-11.8922 19.0719 -2.7340 0.1208 0 7
-12.0642 18.9636 -2.7340 0.1208 0 7
-12.2352 18.8537 -2.7340 0.1208 0 7
-12.4052 18.7423 -2.7340 0.1208 0 7
-12.5743 18.6293 -2.7340 0.1208 0 7
-12.7422 18.5148 -2.7340 0.1208 0 7
-12.9092 18.3988 -2.7340 0.1208 0 7
-13.0750 18.2813 -2.7340 0.1208 0 7
-13.2398 18.1623 -2.7340 0.1208 0 7
-13.4036 18.0418 -2.7340 0.1208 0 7
-13.5662 17.9199 -2.7340 0.1208 0 7
-13.7277 17.7964 -2.7340 0.1208 0 7
-13.8881 17.6715 -2.7340 0.1208 0 7
-14.0474 17.5452 -2.7340 0.1208 0 7
-14.2055 17.4174 -2.7340 0.1208 0 7
-14.3624 17.2882 -2.7340 0.1208 0 7
-14.5182 17.1576 -2.7340 0.1208 0 7
-14.6728 17.0256 -2.7340 0.1208 0 7
-14.8262 16.8922 -2.7340 0.1208 0 7
-14.9784 16.7574 -2.7340 0.1208 0 7
-15.1293 16.6212 -2.7340 0.1208 0 7
-15.2741 16.4784 -2.7331 0.1322 0 8
-15.4096 16.3259 -2.7308 0.1324 0 8
-15.5438 16.1725 -2.7286 0.1325 0 8
-15.6740 16.0155 -2.7259 0.7088 0 8
-15.6800 15.7344 -2.7021 0.7150 0 8
-15.6859 15.4581 -2.6789 0.7212 0 8
-15.6917 15.1865 -2.6563 0.7273 0 8
-15.6973 14.9194 -2.6343 0.7334 0 8
-15.7041 14.6578 -2.6131 0.7569 0 8
-15.7160 14.4052 -2.5933 0.7626 0 8
-15.7743 14.1982 -2.5816 0.1208 0 8
-15.9020 14.0549 -2.5816 0.1208 0 8
-16.0285 13.9105 -2.5816 0.1208 0 8
-16.1536 13.7650 -2.5816 0.1208 0 8
-16.2775 13.6183 -2.5816 0.1208 0 8
-16.4000 13.4705 -2.5816 0.1208 0 8
-16.5212 13.3216 -2.5816 0.1208 0 8
-16.6410 13.1716 -2.5816 0.1208 0 8
-16.7594 13.0206 -2.5816 0.1208 0 8
-16.8765 12.8685 -2.5816 0.1208 0 8
18.9123 0.0000 -2.7340 0.1431 0 7
18.9115 0.1711 -2.7340 0.1431 0 7
18.9092 0.3421 -2.7340 0.1431 0 7
18.9053 0.5131 -2.7340 0.1431 0 7
18.8999 0.6841 -2.7340 0.1431 0 7
18.8930 0.8550 -2.7340 0.1431 0 7
18.8845 1.0258 -2.7340 0.1431 0 7
18.8744 1.1966 -2.7340 0.1431 0 7
18.8628 1.3673 -2.7340 0.1431 0 7
18.8497 1.5378 -2.7340 0.1431 0 7
18.8350 1.7082 -2.7340 0.1431 0 7
18.8188 1.8785 -2.7340 0.1431 0 7
18.8010 2.0486 -2.7340 0.1431 0 7
18.7817 2.2186 -2.7340 0.1431 0 7
18.7609 2.3884 -2.7340 0.1431 0 7
18.7385 2.5580 -2.7340 0.1431 0 7
18.7146 2.7273 -2.7340 0.1431 0 7
18.6892 2.8965 -2.7340 0.1431 0 7
18.6622 3.0654 -2.7340 0.1431 0 7
18.6337 3.2341 -2.7340 0.1431 0 7
18.6037 3.4025 -2.7340 0.1431 0 7
18.5722 3.5706 -2.7340 0.1431 0 7
18.5391 3.7384 -2.7340 0.1431 0 7
18.5046 3.9060 -2.7340 0.1431 0 7
18.4685 4.0732 -2.7340 0.1431 0 7
18.4309 4.2400 -2.7340 0.1431 0 7
18.3918 4.4066 -2.7340 0.1431 0 7
18.3512 4.5727 -2.7340 0.1431 0 7
18.3090 4.7385 -2.7340 0.1431 0 7
18.2654 4.9039 -2.7340 0.1431 0 7
18.2203 5.0689 -2.7340 0.1431 0 7
18.1737 5.2335 -2.7340 0.1431 0 7
18.1257 5.3977 -2.7340 0.1431 0 7
18.0761 5.5614 -2.7340 0.1431 0 7
18.0251 5.7247 -2.7340 0.1431 0 7
17.9726 5.8874 -2.7340 0.1431 0 7
17.9186 6.0498 -2.7340 0.1431 0 7
17.8631 6.2116 -2.7340 0.1431 0 7
17.8002 6.3707 -2.7331 0.1485 0 8
17.7248 6.5252 -2.7304 0.1487 0 8
17.6481 6.6788 -2.7278 0.1488 0 8
17.4030 6.7666 -2.6993 0.3696 0 8
16.9637 6.7731 -2.6405 0.3778 0 8
16.5500 6.7821 -2.5856 0.3600 0 8
16.4625 6.9208 -2.5816 0.1431 0 8
16.3992 7.0694 -2.5816 0.1431 0 8
16.3346 7.2174 -2.5816 0.1431 0 8
16.2687 7.3649 -2.5816 0.1431 0 8
16.2014 7.5117 -2.5816 0.1431 0 8
16.1328 7.6579 -2.5816 0.1431 0 8
16.0629 7.8035 -2.5816 0.1431 0 8
15.9916 7.9485 -2.5816 0.1431 0 8
15.9191 8.0928 -2.5816 0.1431 0 8
15.8452 8.2365 -2.5816 0.1431 0 8
15.7701 8.3794 -2.5816 0.1431 0 8
15.6937 8.5217 -2.5816 0.1431 0 8
15.6159 8.6633 -2.5816 0.1431 0 8
15.5369 8.8042 -2.5816 0.1431 0 8
15.4567 8.9444 -2.5816 0.1431 0 8
15.3751 9.0838 -2.5816 0.1431 0 8
15.2924 9.2225 -2.5816 0.1431 0 8
15.2083 9.3604 -2.5816 0.1431 0 8
15.1231 9.4976 -2.5816 0.1431 0 8
15.0365 9.6340 -2.5816 0.1431 0 8
14.9488 9.7696 -2.5816 0.1431 0 8
14.8598 9.9044 -2.5816 0.1431 0 8
14.7696 10.0384 -2.5816 0.1431 0 8
14.6782 10.1716 -2.5816 0.1431 0 8
14.5856 10.3039 -2.5816 0.1431 0 8
14.4918 10.4354 -2.5816 0.1431 0 8
14.3969 10.5661 -2.5816 0.1431 0 8
14.3007 10.6958 -2.5816 0.1431 0 8
9.3342 7.1138 -1.6966 0.9593 0 5
14.1049 10.9528 -2.5816 0.1431 0 8
14.0053 11.0799 -2.5816 0.1431 0 8
13.9045 11.2061 -2.5816 0.1431 0 8
13.8026 11.3314 -2.5816 0.1431 0 8
13.6995 11.4558 -2.5816 0.1431 0 8
13.5953 11.5792 -2.5816 0.1431 0 8
13.4900 11.7017 -2.5816 0.1431 0 8
13.3837 11.8232 -2.5816 0.1431 0 8
13.2761 11.9438 -2.5816 0.1431 0 8
13.1676 12.0634 -2.5816 0.1431 0 8
13.0579 12.1820 -2.5816 0.1431 0 8
12.9472 12.2996 -2.5816 0.1431 0 8
12.8355 12.4162 -2.5816 0.1431 0 8
12.7226 12.5318 -2.5816 0.1431 0 8
12.6088 12.6463 -2.5816 0.1431 0 8
12.4939 12.7599 -2.5816 0.1431 0 8
12.3780 12.8723 -2.5816 0.1431 0 8
12.2610 12.9838 -2.5816 0.1431 0 22
12.1431 13.0941 -2.5816 0.1431 0 22
12.0242 13.2034 -2.5816 0.1431 0 22
11.9043 13.3116 -2.5816 0.1431 0 22
11.7834 13.4188 -2.5816 0.1431 0 22
11.6615 13.5248 -2.5816 0.1431 0 22
11.5387 13.6297 -2.5816 0.1431 0 22
11.4150 13.7335 -2.5816 0.1431 0 22
11.2903 13.8362 -2.5816 0.1431 0 22
11.1647 13.9377 -2.5816 0.1431 0 22
11.0382 14.0382 -2.5816 0.1431 0 22
10.9107 14.1374 -2.5816 0.1431 0 22
10.7824 14.2355 -2.5816 0.1431 0 22
10.6532 14.3325 -2.5816 0.1431 0 22
10.5232 14.4282 -2.5816 0.1431 0 22
10.3923 14.5228 -2.5816 0.1431 0 22
10.2605 14.6162 -2.5816 0.1431 0 22
10.1279 14.7084 -2.5816 0.1431 0 22
9.9944 14.7994 -2.5816 0.1431 0 22
9.8602 14.8892 -2.5816 0.1431 0 22
9.7251 14.9778 -2.5816 0.1431 0 22
9.5892 15.0651 -2.5816 0.1431 0 22
9.4526 15.1512 -2.5816 0.1431 0 22
9.3151 15.2361 -2.5816 0.1431 0 22
9.1770 15.3197 -2.5816 0.1431 0 22
9.0380 15.4021 -2.5816 0.1431 0 22
8.8984 15.4832 -2.5816 0.1431 0 22
8.7580 15.5631 -2.5816 0.1431 0 22
8.6168 15.6417 -2.5816 0.1431 0 22
8.4750 15.7190 -2.5816 0.1431 0 22
8.3325 15.7950 -2.5816 0.1431 0 22
8.1893 15.8697 -2.5816 0.1431 0 22
8.0454 15.9431 -2.5816 0.1431 0 22
7.9009 16.0152 -2.5816 0.1431 0 22
7.7557 16.0860 -2.5816 0.1431 0 22
7.6099 16.1555 -2.5816 0.1431 0 22
7.4635 16.2237 -2.5816 0.1431 0 22
7.3164 16.2905 -2.5816 0.1431 0 22
7.1688 16.3560 -2.5816 0.1431 0 22
7.0206 16.4202 -2.5816 0.1431 0 22
6.8718 16.4830 -2.5816 0.1431 0 22
6.7224 16.5445 -2.5816 0.1431 0 22
6.5725 16.6046 -2.5816 0.1431 0 22
6.4221 16.6634 -2.5816 0.1431 0 22
6.2711 16.7208 -2.5816 0.1431 0 22
6.1196 16.7768 -2.5816 0.1431 0 22
5.9676 16.8315 -2.5816 0.1431 0 22
5.8151 16.8848 -2.5816 0.1431 0 22
5.6622 16.9367 -2.5816 0.1431 0 22
5.5088 16.9872 -2.5816 0.1431 0 22
5.3549 17.0363 -2.5816 0.1431 0 22
5.2006 17.0841 -2.5816 0.1431 0 22
5.0459 17.1304 -2.5816 0.1431 0 22
4.8907 17.1753 -2.5816 0.1431 0 22
4.7352 17.2189 -2.5816 0.1431 0 22
4.5792 17.2610 -2.5816 0.1431 0 22
4.4229 17.3017 -2.5816 0.1431 0 22
4.2663 17.3410 -2.5816 0.1431 0 22
4.1093 17.3789 -2.5816 0.1431 0 22
3.9519 17.4153 -2.5816 0.1431 0 22
3.7942 17.4504 -2.5816 0.1431 0 22
3.6363 17.4840 -2.5816 0.1431 0 22
3.4780 17.5162 -2.5816 0.1431 0 22
3.3194 17.5469 -2.5816 0.1431 0 8
3.1606 17.5762 -2.5816 0.1431 0 8
3.0015 17.6040 -2.5816 0.1431 0 8
2.8421 17.6305 -2.5816 0.1431 0 8
2.6825 17.6555 -2.5816 0.1431 0 8
2.5227 17.6790 -2.5816 0.1431 0 8
2.3627 17.7011 -2.5816 0.1431 0 8
2.2025 17.7217 -2.5816 0.1431 0 8
2.0422 17.7409 -2.5816 0.1431 0 8
1.8816 17.7587 -2.5816 0.1431 0 8
1.7209 17.7750 -2.5816 0.1431 0 8
1.5601 17.7898 -2.5816 0.1431 0 8
1.3991 17.8032 -2.5816 0.1431 0 8
1.2380 17.8151 -2.5816 0.1431 0 8
1.0769 17.8256 -2.5816 0.1431 0 8
0.9156 17.8346 -2.5816 0.1431 0 8
0.7543 17.8421 -2.5816 0.1431 0 8
0.5929 17.8482 -2.5816 0.1431 0 8
0.4314 17.8529 -2.5816 0.1431 0 8
0.2699 17.8560 -2.5816 0.1431 0 8
0.1084 17.8577 -2.5816 0.1431 0 8
-0.0531 17.8580 -2.5816 0.1431 0 8
-0.2146 17.8568 -2.5816 0.1431 0 8
-0.3761 17.8541 -2.5816 0.1431 0 8
-0.5376 17.8500 -2.5816 0.1431 0 8
-0.6990 17.8444 -2.5816 0.1431 0 8
-0.8604 17.8373 -2.5816 0.1431 0 8
-1.0217 17.8288 -2.5816 0.1431 0 8
-1.1829 17.8189 -2.5816 0.1431 0 8
-1.3440 17.8074 -2.5816 0.1431 0 8
-1.5050 17.7945 -2.5816 0.1431 0 8
-1.6659 17.7802 -2.5816 0.1431 0 8
-1.8266 17.7644 -2.5816 0.1431 0 8
-1.9872 17.7472 -2.5816 0.1431 0 8
-2.1477 17.7285 -2.5816 0.1431 0 8
-2.3079 17.7083 -2.5816 0.1431 0 8
-1.6882 12.0984 -1.7659 0.9812 0 12
-1.7998 12.0976 -1.7681 0.9800 0 12
-2.9473 18.6502 -2.7296 0.1403 0 8
-3.1192 18.6427 -2.7325 0.1402 0 8
-3.2895 18.6240 -2.7340 0.1431 0 7
-3.4578 18.5935 -2.7340 0.1431 0 7
-3.6258 18.5614 -2.7340 0.1431 0 7
-3.7936 18.5279 -2.7340 0.1431 0 7
-3.9610 18.4929 -2.7340 0.1431 0 7
-4.1281 18.4563 -2.7340 0.1431 0 7
-4.2948 18.4182 -2.7340 0.1431 0 7
-4.4612 18.3786 -2.7340 0.1431 0 7
-4.6273 18.3375 -2.7340 0.1431 0 7
-4.7930 18.2949 -2.7340 0.1431 0 7
-4.9582 18.2508 -2.7340 0.1431 0 7
-5.1231 18.2052 -2.7340 0.1431 0 7
-5.2875 18.1581 -2.7340 0.1431 0 7
-5.4516 18.1095 -2.7340 0.1431 0 7
-5.6151 18.0595 -2.7340 0.1431 0 7
-5.7782 18.0080 -2.7340 0.1431 0 7
-5.9409 17.9550 -2.7340 0.1431 0 7
-6.1030 17.9005 -2.7340 0.1431 0 7
-6.2647 17.8446 -2.7340 0.1431 0 7
-6.4258 17.7872 -2.7340 0.1431 0 7
-6.5864 17.7283 -2.7340 0.1431 0 7
-6.7465 17.6680 -2.7340 0.1431 0 7
-6.9060 17.6063 -2.7340 0.1431 0 7
-7.0650 17.5431 -2.7340 0.1431 0 7
-7.2234 17.4785 -2.7340 0.1431 0 7
-7.3812 17.4125 -2.7340 0.1431 0 7
-7.5383 17.3450 -2.7340 0.1431 0 7
-7.6949 17.2761 -2.7340 0.1431 0 7
-7.8508 17.2058 -2.7340 0.1431 0 7
-8.0061 17.1341 -2.7340 0.1431 0 7
-8.1608 17.0610 -2.7340 0.1431 0 7
-8.3148 16.9865 -2.7340 0.1431 0 7
-8.4681 16.9106 -2.7340 0.1431 0 7
-8.6207 16.8333 -2.7340 0.1431 0 7
-8.7725 16.7546 -2.7340 0.1431 0 7
-8.9237 16.6746 -2.7340 0.1431 0 7
-9.0742 16.5932 -2.7340 0.1431 0 6
-9.2239 16.5105 -2.7340 0.1431 0 7
-9.3728 16.4264 -2.7340 0.1431 0 6
-9.5210 16.3409 -2.7340 0.1431 0 7
-9.6684 16.2541 -2.7340 0.1431 0 7
-9.8151 16.1660 -2.7340 0.1431 0 7
-9.9609 16.0766 -2.7340 0.1431 0 7
-10.1059 15.9858 -2.7340 0.1431 0 7
-10.2500 15.8938 -2.7340 0.1431 0 7
-10.3934 15.8004 -2.7340 0.1431 0 7
-10.5359 15.7058 -2.7340 0.1431 0 7
-10.6775 15.6098 -2.7340 0.1431 0 7
-10.8182 15.5126 -2.7340 0.1431 0 7
-10.9581 15.4141 -2.7340 0.1431 0 7
-11.0970 15.3144 -2.7340 0.1431 0 7
-11.2351 15.2134 -2.7340 0.1431 0 7
-11.3722 15.1112 -2.7340 0.1431 0 7
-11.5084 15.0077 -2.7340 0.1431 0 7
-11.6437 14.9030 -2.7340 0.1431 0 7
-11.7780 14.7971 -2.7340 0.1431 0 7
-11.9114 14.6899 -2.7340 0.1431 0 7
-12.0437 14.5816 -2.7340 0.1431 0 7
-12.1751 14.4721 -2.7340 0.1431 0 7
-12.3055 14.3614 -2.7340 0.1431 0 7
-12.4349 14.2495 -2.7340 0.1431 0 7
-12.5633 14.1364 -2.7340 0.1431 0 7
-12.6906 14.0222 -2.7340 0.1431 0 7
-12.8170 13.9069 -2.7340 0.1431 0 7
-12.9422 13.7904 -2.7340 0.1431 0 7
-13.0664 13.6728 -2.7340 0.1431 0 7
-13.1895 13.5540 -2.7340 0.1431 0 7
-13.3116 13.4342 -2.7340 0.1431 0 7
-13.4326 13.3132 -2.7340 0.1431 0 7
-13.5524 13.1912 -2.7340 0.1431 0 7
-13.6712 13.0681 -2.7340 0.1431 0 7
-13.7888 12.9439 -2.7340 0.1431 0 7
-13.9053 12.8186 -2.7340 0.1431 0 7
-14.0207 12.6924 -2.7340 0.1431 0 7
-14.1349 12.5650 -2.7340 0.1431 0 7
-14.2480 12.4367 -2.7340 0.1431 0 7
-14.3599 12.3073 -2.7340 0.1431 0 7
-14.4706 12.1769 -2.7340 0.1431 0 7
-14.5801 12.0455 -2.7340 0.1431 0 7
-14.6885 11.9132 -2.7340 0.1431 0 7
-14.7956 11.7798 -2.7340 0.1431 0 7
-14.9016 11.6455 -2.7340 0.1431 0 7
-15.0063 11.5103 -2.7340 0.1431 0 7
-15.1098 11.3741 -2.7340 0.1431 0 7
-15.2120 11.2369 -2.7340 0.1431 0 7
-15.3131 11.0989 -2.7340 0.1431 0 7
-15.4128 10.9600 -2.7340 0.1431 0 7
-15.5113 10.8201 -2.7340 0.1431 0 7
-15.6085 10.6794 -2.7340 0.1431 0 7
-15.7045 10.5378 -2.7340 0.1431 0 7
-15.7991 10.3953 -2.7340 0.1431 0 7
-15.8925 10.2520 -2.7340 0.1431 0 7
-15.9846 10.1078 -2.7340 0.1431 0 7
-16.0754 9.9628 -2.7340 0.1431 0 7
-16.1648 9.8170 -2.7340 0.1431 0 7
-16.2529 9.6704 -2.7340 0.1431 0 7
-16.3397 9.5230 -2.7340 0.1431 0 7
-16.4252 9.3748 -2.7340 0.1431 0 7
-16.5093 9.2259 -2.7340 0.1431 0 6
-16.5921 9.0762 -2.7340 0.1431 0 6
-16.6735 8.9258 -2.7340 0.1431 0 6
-16.7536 8.7746 -2.7340 0.1431 0 6
-16.8322 8.6227 -2.7340 0.1431 0 6
-16.9095 8.4701 -2.7340 0.1431 0 6
-16.9854 8.3168 -2.7340 0.1431 0 7
-17.0600 8.1629 -2.7340 0.1431 0 7
-17.1331 8.0082 -2.7340 0.1431 0 7
-17.2048 7.8529 -2.7340 0.1431 0 7
-17.2752 7.6970 -2.7340 0.1431 0 7
-17.3441 7.5404 -2.7340 0.1431 0 7
-17.4116 7.3833 -2.7340 0.1431 0 7
-17.4776 7.2255 -2.7340 0.1431 0 7
-17.5423 7.0671 -2.7340 0.1431 0 7
-17.6055 6.9082 -2.7340 0.1431 0 7
-17.6672 6.7487 -2.7340 0.1431 0 7
-17.7275 6.5886 -2.7340 0.1431 0 7
-17.7864 6.4280 -2.7340 0.1431 0 7
-17.8438 6.2668 -2.7340 0.1431 0 7
-17.8998 6.1052 -2.7340 0.1431 0 7
-17.9543 5.9431 -2.7340 0.1431 0 7
-18.0073 5.7804 -2.7340 0.1431 0 7
-18.0588 5.6173 -2.7340 0.1431 0 7
-18.1089 5.4538 -2.7340 0.1431 0 7
-18.1575 5.2898 -2.7340 0.1431 0 7
-18.2046 5.1253 -2.7340 0.1431 0 7
-18.2502 4.9605 -2.7340 0.1431 0 7
-18.2943 4.7952 -2.7340 0.1431 0 7
-18.3369 4.6295 -2.7340 0.1431 0 7
-18.3780 4.4635 -2.7340 0.1431 0 6
-18.4177 4.2971 -2.7340 0.1431 0 7
-18.4558 4.1303 -2.7340 0.1431 0 7
-18.4924 3.9632 -2.7340 0.1431 0 7
-18.5275 3.7958 -2.7340 0.1431 0 7
-18.5610 3.6281 -2.7340 0.1431 0 7
-18.5931 3.4601 -2.7340 0.1431 0 7
-18.6236 3.2918 -2.7340 0.1431 0 7
-18.6526 3.1232 -2.7340 0.1431 0 7
-18.6801 2.9544 -2.7340 0.1431 0 7
-18.7061 2.7853 -2.7340 0.1431 0 7
-18.7305 2.6160 -2.7340 0.1431 0 7
-18.7534 2.4465 -2.7340 0.1431 0 7
-18.7748 2.2767 -2.7340 0.1431 0 7
-18.7946 2.1068 -2.7340 0.1431 0 7
-18.8129 1.9368 -2.7340 0.1431 0 7
-18.8296 1.7665 -2.7340 0.1431 0 7
-18.8448 1.5962 -2.7340 0.1431 0 7
-18.8585 1.4256 -2.7340 0.1431 0 7
-18.8706 1.2550 -2.7340 0.1431 0 7
-18.8812 1.0843 -2.7340 0.1431 0 7
-18.8902 0.9135 -2.7340 0.1431 0 7
-18.8977 0.7426 -2.7340 0.1431 0 7
-18.9037 0.5716 -2.7340 0.1431 0 7
-18.9081 0.4006 -2.7340 0.1431 0 7
-18.9109 0.2296 -2.7340 0.1431 0 7
-18.9122 0.0586 -2.7340 0.1431 0 7
-18.9120 -0.1125 -2.7340 0.1431 0 7
-18.9102 -0.2835 -2.7340 0.1431 0 7
-18.9068 -0.4546 -2.7340 0.1431 0 7
-18.9020 -0.6256 -2.7340 0.1431 0 7
-18.8955 -0.7965 -2.7340 0.1431 0 7
-18.8875 -0.9674 -2.7340 0.1431 0 7
-18.8780 -1.1381 -2.7340 0.1431 0 7
-18.8670 -1.3089 -2.7340 0.1431 0 7
-18.8544 -1.4794 -2.7340 0.1431 0 7
-18.8402 -1.6499 -2.7340 0.1431 0 7
-18.8245 -1.8202 -2.7340 0.1431 0 7
-18.8073 -1.9904 -2.7340 0.1431 0 7
-18.7885 -2.1604 -2.7340 0.1431 0 7
-18.7682 -2.3303 -2.7340 0.1431 0 7
-18.7463 -2.4999 -2.7340 0.1431 0 7
-18.7230 -2.6694 -2.7340 0.1431 0 7
-18.6980 -2.8386 -2.7340 0.1431 0 7
-18.6716 -3.0076 -2.7340 0.1431 0 7
-18.6436 -3.1764 -2.7340 0.1431 0 7
-18.6141 -3.3449 -2.7340 0.1431 0 7
-18.5831 -3.5131 -2.7340 0.1431 0 6
-18.5506 -3.6810 -2.7340 0.1431 0 7
-18.5166 -3.8487 -2.7340 0.1431 0 7
-18.4810 -4.0160 -2.7340 0.1431 0 7
-17.8940 -4.0582 -2.6525 0.2317 0 8
-17.4307 -4.1193 -2.5892 0.1431 0 8
-17.3927 -4.2767 -2.5892 0.1431 0 14
-17.3533 -4.4339 -2.5892 0.1431 0 14
-17.3125 -4.5907 -2.5892 0.1431 0 14
-16.4318 -4.5166 -2.4635 0.5981 0 19
-16.3615 -4.6568 -2.4592 0.7790 0 19
-17.1816 -5.0587 -2.5892 0.1431 0 14
-14.9617 -4.5525 -2.2608 0.9838 0 19
-17.0873 -5.3686 -2.5892 0.1431 0 14
-17.0380 -5.5229 -2.5892 0.1431 0 14
-13.5572 -4.5305 -2.0664 0.9864 0 19
-13.2444 -4.5596 -2.0249 0.4934 0 19
-16.8819 -5.9832 -2.5892 0.1431 0 14
-16.8271 -6.1356 -2.5892 0.1431 0 14
-12.1351 -4.5495 -1.8735 0.9887 0 19
-16.7134 -6.4390 -2.5892 0.1431 0 14
-16.6544 -6.5899 -2.5892 0.1431 0 14
-16.5942 -6.7402 -2.5892 0.1431 0 14
-10.8243 -4.5111 -1.6952 0.1431 0 19
-10.7831 -4.6088 -1.6952 0.1431 0 19
-16.2446 -7.1176 -2.5639 0.9897 0 19
-16.3395 -7.3360 -2.5892 0.1431 0 14
-16.2725 -7.4835 -2.5892 0.1431 0 8
-17.1102 -8.0571 -2.7340 0.1431 0 6
-11.9161 -5.7435 -1.9123 0.7337 0 5
-16.9617 -8.3652 -2.7340 0.1431 0 7
-16.8853 -8.5183 -2.7340 0.1431 0 7
-16.8076 -8.6707 -2.7340 0.1431 0 7
-13.4276 -7.0815 -2.1945 0.9865 0 19
-16.6480 -8.9733 -2.7340 0.1431 0 7
-16.5661 -9.1235 -2.7340 0.1431 0 7
-12.6898 -7.1390 -2.1048 0.4778 0 19
-12.4214 -7.1367 -2.0709 0.4856 0 19
-12.0234 -7.0534 -2.0151 0.9820 0 19
-12.0146 -7.1951 -2.0245 0.5936 0 19
-16.1367 -9.8631 -2.7340 0.1431 0 7
-16.0469 -10.0086 -2.7340 0.1431 0 7
-15.9557 -10.1534 -2.7340 0.1431 0 7
-15.8632 -10.2973 -2.7340 0.1431 0 7
-10.6232 -7.0332 -1.8418 0.8136 0 19
-10.5466 -7.1205 -1.8396 0.5467 0 19
-15.5780 -10.7239 -2.7340 0.1431 0 7
-15.4804 -10.8643 -2.7340 0.1431 0 7
-15.3815 -11.0039 -2.7340 0.1431 0 7
-15.2813 -11.1425 -2.7340 0.1431 0 7
-15.1799 -11.2803 -2.7340 0.1431 0 7
-9.3488 -7.0793 -1.6952 0.1431 0 19
-9.2844 -7.1636 -1.6952 0.1431 0 19
-14.8683 -11.6880 -2.7340 0.1431 0 7
-14.7620 -11.8220 -2.7340 0.1431 0 7
-14.6544 -11.9550 -2.7340 0.1431 0 7
-14.5457 -12.0871 -2.7340 0.1431 0 7
-14.4358 -12.2181 -2.7340 0.1431 0 7
-14.3247 -12.3482 -2.7340 0.1431 0 7
-14.2124 -12.4773 -2.7340 0.1431 0 7
-14.0990 -12.6053 -2.7340 0.1431 0 7
-13.9844 -12.7323 -2.7340 0.1431 0 7
-13.8687 -12.8583 -2.7340 0.1431 0 7
-13.7518 -12.9832 -2.7340 0.1431 0 7
-13.6338 -13.1070 -2.7340 0.1431 0 7
-13.5147 -13.2298 -2.7340 0.1431 0 7
-13.3945 -13.3515 -2.7340 0.1431 0 7
-13.2732 -13.4721 -2.7340 0.1431 0 7
-13.1508 -13.5916 -2.7340 0.1431 0 7
-13.0273 -13.7100 -2.7340 0.1431 0 7
-12.9028 -13.8272 -2.7340 0.1431 0 7
-12.7772 -13.9434 -2.7340 0.1431 0 7
-12.6506 -14.0584 -2.7340 0.1431 0 7
-12.5229 -14.1722 -2.7340 0.1431 0 7
-12.3942 -14.2849 -2.7340 0.1431 0 7
-12.2645 -14.3964 -2.7340 0.1431 0 7
-12.1338 -14.5067 -2.7340 0.1431 0 7
-12.0021 -14.6159 -2.7340 0.1431 0 7
-11.8694 -14.7239 -2.7340 0.1431 0 7
-11.7358 -14.8306 -2.7340 0.1431 0 7
-11.6011 -14.9362 -2.7340 0.1431 0 6
-11.4656 -15.0405 -2.7340 0.1431 0 7
-11.3291 -15.1436 -2.7340 0.1431 0 7
-11.1917 -15.2454 -2.7340 0.1431 0 7
-11.0533 -15.3460 -2.7340 0.1431 0 7
-10.9141 -15.4453 -2.7340 0.1431 0 7
-10.7739 -15.5434 -2.7340 0.1431 0 7
-10.6329 -15.6402 -2.7340 0.1431 0 7
-10.4910 -15.7358 -2.7340 0.1431 0 7
-10.3483 -15.8300 -2.7340 0.1431 0 7
-10.2047 -15.9229 -2.7340 0.1431 0 7
-10.0602 -16.0146 -2.7340 0.1431 0 7
-9.9150 -16.1049 -2.7340 0.1431 0 7
-9.7689 -16.1939 -2.7340 0.1431 0 7
-9.6220 -16.2816 -2.7340 0.1431 0 7
-9.4744 -16.3680 -2.7340 0.1431 0 7
-9.3260 -16.4530 -2.7340 0.1431 0 7
-9.1768 -16.5367 -2.7340 0.1431 0 7
-9.0268 -16.6190 -2.7340 0.1431 0 7
-8.8761 -16.7000 -2.7340 0.1431 0 7
-8.7247 -16.7796 -2.7340 0.1431 0 7
-8.5726 -16.8578 -2.7340 0.1431 0 7
-8.4198 -16.9346 -2.7340 0.1431 0 7
-8.2663 -17.0101 -2.7340 0.1431 0 7
-8.1121 -17.0842 -2.7340 0.1431 0 7
-7.9572 -17.1568 -2.7340 0.1431 0 7
-7.8017 -17.2281 -2.7340 0.1431 0 7
-7.6456 -17.2980 -2.7340 0.1431 0 7
-7.4888 -17.3664 -2.7340 0.1431 0 7
-7.3314 -17.4334 -2.7340 0.1431 0 7
-7.1709 -17.4929 -2.7330 0.1585 0 8
-7.0099 -17.5506 -2.7320 0.1586 0 8
-6.8484 -17.6069 -2.7310 0.1586 0 8
-6.6865 -17.6619 -2.7301 0.1587 0 8
-6.5242 -17.7156 -2.7292 0.1587 0 8
-6.3616 -17.7679 -2.7282 0.1588 0 8
-6.1986 -17.8189 -2.7273 0.1588 0 8
-6.0353 -17.8685 -2.7265 0.1589 0 8
-1.8774 -5.7286 -0.8715 0.7666 0 9
-1.8121 -5.7032 -0.8651 0.7723 0 9
-1.7477 -5.6781 -0.8588 0.7779 0 9
-1.6843 -5.6535 -0.8528 0.7885 0 9
-1.6220 -5.6298 -0.8470 0.7939 0 9
-1.5717 -5.6466 -0.8473 0.9369 0 9
-1.5255 -5.6792 -0.8501 0.9435 0 9
-1.4787 -5.7107 -0.8528 0.9405 0 9
-1.4317 -5.7425 -0.8556 0.9374 0 9
-1.3843 -5.7744 -0.8584 0.9343 0 9
-1.3500 -5.8651 -0.8700 0.5317 0 9
-1.3334 -6.0422 -0.8945 0.0649 0 9
-3.7738 -17.8676 -2.6400 0.9761 0 8
-3.6051 -17.8668 -2.6349 0.9780 0 8
-3.4371 -17.8660 -2.6301 0.9798 0 8
-3.2697 -17.8652 -2.6255 0.9815 0 8
-3.1028 -17.8643 -2.6212 0.9831 0 8
-2.9364 -17.8634 -2.6170 0.9847 0 8
-2.7706 -17.8625 -2.6131 0.9862 0 8
-2.6052 -17.8615 -2.6094 0.9876 0 8
-2.4403 -17.8605 -2.6059 0.9889 0 8
-2.2758 -17.8594 -2.6027 0.9901 0 8
-2.1021 -17.7770 -2.5878 0.1431 0 8
-1.9412 -17.7953 -2.5878 0.1431 0 8
-1.7802 -17.8121 -2.5878 0.1431 0 8
-1.6190 -17.8275 -2.5878 0.1431 0 8
-1.4577 -17.8414 -2.5878 0.1431 0 8
-1.2963 -17.8535 -2.5877 0.7986 0 8
-1.1341 -17.8535 -2.5861 0.7991 0 8
-0.9720 -17.8533 -2.5847 0.7996 0 8
-0.8101 -17.8529 -2.5835 0.7999 0 8
-0.6483 -17.8523 -2.5825 0.8003 0 8
-0.4867 -17.8514 -2.5816 0.1431 0 8
-0.3252 -17.8551 -2.5816 0.1431 0 8
-0.1637 -17.8573 -2.5816 0.1431 0 8
-0.0022 -17.8581 -2.5816 0.1431 0 8
0.1593 -17.8574 -2.5816 0.1431 0 8
0.3208 -17.8552 -2.5816 0.1431 0 8
0.4823 -17.8516 -2.5816 0.1431 0 8
0.6438 -17.8465 -2.5816 0.1431 0 8
0.8052 -17.8399 -2.5816 0.1431 0 8
0.9667 -17.8363 -2.5822 0.8003 0 8
1.1284 -17.8337 -2.5832 0.8000 0 8
1.2903 -17.8309 -2.5844 0.7996 0 8
1.4523 -17.8279 -2.5858 0.7992 0 8
1.6144 -17.8247 -2.5873 0.7987 0 8
1.7767 -17.8207 -2.5890 0.5608 0 8
1.9391 -17.8159 -2.5907 0.5604 0 8
2.1017 -17.8108 -2.5926 0.5600 0 8
2.2645 -17.8053 -2.5947 0.5595 0 8
2.4276 -17.7995 -2.5970 0.5591 0 8
2.5909 -17.7934 -2.5994 0.5585 0 8
2.7544 -17.7869 -2.6020 0.5580 0 8
2.9183 -17.7801 -2.6047 0.5574 0 8
3.0824 -17.7729 -2.6076 0.5568 0 8
3.2469 -17.7654 -2.6107 0.5561 0 8
3.4117 -17.7575 -2.6140 0.5554 0 8
3.5769 -17.7492 -2.6174 0.5547 0 8
3.7424 -17.7406 -2.6211 0.5539 0 8
3.9084 -17.7316 -2.6248 0.5531 0 8
4.0748 -17.7223 -2.6288 0.5523 0 8
4.2415 -17.7126 -2.6330 0.5514 0 8
4.4088 -17.7025 -2.6373 0.5505 0 8
4.5765 -17.6921 -2.6418 0.5496 0 8
4.7448 -17.6812 -2.6465 0.5486 0 8
4.9135 -17.6700 -2.6513 0.5476 0 8
5.0828 -17.6585 -2.6564 0.5466 0 8
5.2526 -17.6465 -2.6616 0.5455 0 8
5.4193 -17.6220 -2.6652 0.2576 0 8
5.5854 -17.5939 -2.6685 0.2572 0 8
5.7516 -17.5650 -2.6719 0.2569 0 8
5.9180 -17.5353 -2.6754 0.2566 0 8
6.0845 -17.5047 -2.6790 0.2562 0 8
6.1801 -17.2741 -2.6522 0.3907 0 8
6.3116 -17.1511 -2.6419 0.9279 0 8
6.4725 -17.1094 -2.6444 0.9452 0 8
6.6433 -17.0920 -2.6509 0.8933 0 8
6.8197 -17.0865 -2.6595 0.8904 0 8
6.9972 -17.0809 -2.6684 0.8878 0 8
7.1759 -17.0752 -2.6775 0.8848 0 8
7.4813 -17.3605 -2.7328 0.1585 0 8
7.6408 -17.2986 -2.7338 0.1585 0 8
7.7975 -17.2300 -2.7340 0.1431 0 7
7.9530 -17.1588 -2.7340 0.1431 0 7
8.1079 -17.0862 -2.7340 0.1431 0 7
8.2621 -17.0121 -2.7340 0.1431 0 7
8.4157 -16.9367 -2.7340 0.1431 0 7
8.5685 -16.8599 -2.7340 0.1431 0 7
8.7206 -16.7817 -2.7340 0.1431 0 7
8.8721 -16.7021 -2.7340 0.1431 0 7
9.0228 -16.6212 -2.7340 0.1431 0 7
9.1727 -16.5389 -2.7340 0.1431 0 7
9.3219 -16.4553 -2.7340 0.1431 0 7
9.4704 -16.3703 -2.7340 0.1431 0 7
9.6181 -16.2840 -2.7340 0.1431 0 7
9.7650 -16.1963 -2.7340 0.1431 0 7
9.9110 -16.1073 -2.7340 0.1431 0 7
10.0563 -16.0170 -2.7340 0.1431 0 7
10.2008 -15.9254 -2.7340 0.1431 0 7
10.3444 -15.8325 -2.7340 0.1431 0 7
10.4872 -15.7383 -2.7340 0.1431 0 7
10.6291 -15.6428 -2.7340 0.1431 0 7
10.7701 -15.5460 -2.7340 0.1431 0 7
10.9103 -15.4480 -2.7340 0.1431 0 7
11.0496 -15.3487 -2.7340 0.1431 0 7
11.1879 -15.2481 -2.7340 0.1431 0 7
11.3254 -15.1463 -2.7340 0.1431 0 7
11.4619 -15.0433 -2.7340 0.1431 0 7
11.5975 -14.9390 -2.7340 0.1431 0 7
11.7321 -14.8335 -2.7340 0.1431 0 7
11.8658 -14.7267 -2.7340 0.1431 0 6
11.9985 -14.6188 -2.7340 0.1431 0 7
12.1303 -14.5097 -2.7340 0.1431 0 7
12.2610 -14.3994 -2.7340 0.1431 0 7
12.3907 -14.2879 -2.7340 0.1431 0 7
12.5195 -14.1753 -2.7340 0.1431 0 7
12.6472 -14.0614 -2.7340 0.1431 0 7
12.7738 -13.9465 -2.7340 0.1431 0 7
12.8994 -13.8304 -2.7340 0.1431 0 7
13.0240 -13.7131 -2.7340 0.1431 0 7
13.1475 -13.5948 -2.7340 0.1431 0 7
13.2699 -13.4753 -2.7340 0.1431 0 7
13.3913 -13.3547 -2.7340 0.1431 0 7
13.5115 -13.2331 -2.7340 0.1431 0 7
13.6306 -13.1103 -2.7340 0.1431 0 7
13.7487 -12.9865 -2.7340 0.1431 0 7
13.8655 -12.8616 -2.7340 0.1431 0 7
13.9813 -12.7357 -2.7340 0.1431 0 7
14.0959 -12.6087 -2.7340 0.1431 0 7
14.2094 -12.4807 -2.7340 0.1431 0 7
14.3217 -12.3517 -2.7340 0.1431 0 7
14.4328 -12.2217 -2.7340 0.1431 0 7
14.5428 -12.0906 -2.7340 0.1431 0 7
14.6515 -11.9586 -2.7340 0.1431 0 7
14.7591 -11.8256 -2.7340 0.1431 0 7
14.8654 -11.6916 -2.7340 0.1431 0 7
14.9706 -11.5567 -2.7340 0.1431 0 7
15.0745 -11.4208 -2.7340 0.1431 0 7
15.1772 -11.2840 -2.7340 0.1431 0 7
15.2786 -11.1463 -2.7340 0.1431 0 7
15.3788 -11.0076 -2.7340 0.1431 0 7
8.0018 -5.6186 -1.4134 0.9648 0 5
15.5754 -10.7276 -2.7340 0.1431 0 7
10.3755 -7.0087 -1.8100 0.5353 0 19
10.3741 -6.8719 -1.7989 0.9706 0 19
15.8607 -10.3011 -2.7340 0.1431 0 7
