ply
format ascii 1.0
element vertex 1407
property float32 x
property float32 y
property float32 z
property float32 CosAngle
property uint32 ObjIdx
property uint32 ObjTag
end_header
2.4653 -6.0082 -2.6793 0.3814 0 7
2.5196 -5.9856 -2.6793 0.3814 0 7
2.5736 -5.9626 -2.6793 0.3814 0 7
2.6274 -5.9391 -2.6793 0.3814 0 7
2.6810 -5.9151 -2.6793 0.3814 0 7
2.7344 -5.8906 -2.6793 0.3814 0 7
2.7876 -5.8656 -2.6793 0.3814 0 7
2.8406 -5.8401 -2.6793 0.3814 0 7
2.8933 -5.8142 -2.6793 0.3814 0 7
2.9457 -5.7878 -2.6793 0.3814 0 7
2.9980 -5.7609 -2.6793 0.3814 0 7
3.0500 -5.7336 -2.6793 0.3814 0 7
3.1017 -5.7057 -2.6793 0.3814 0 7
3.1532 -5.6775 -2.6793 0.3814 0 7
3.2044 -5.6487 -2.6793 0.3814 0 7
3.2554 -5.6195 -2.6793 0.3814 0 7
3.3061 -5.5898 -2.6793 0.3814 0 7
3.3565 -5.5597 -2.6793 0.3814 0 7
3.4067 -5.5291 -2.6793 0.3814 0 7
3.4565 -5.4980 -2.6793 0.3814 0 7
3.5061 -5.4665 -2.6793 0.3814 0 7
3.5554 -5.4346 -2.6793 0.3814 0 7
3.6044 -5.4022 -2.6793 0.3814 0 7
3.6532 -5.3694 -2.6793 0.3814 0 7
3.7016 -5.3361 -2.6793 0.3814 0 7
3.7497 -5.3025 -2.6793 0.3814 0 7
3.7975 -5.2683 -2.6793 0.3814 0 7
3.8450 -5.2337 -2.6793 0.3814 0 7
3.8922 -5.1987 -2.6793 0.3814 0 7
3.9390 -5.1633 -2.6793 0.3814 0 7
3.9856 -5.1275 -2.6793 0.3814 0 7
4.0318 -5.0912 -2.6793 0.3814 0 7
4.0777 -5.0545 -2.6793 0.3814 0 7
4.1233 -5.0174 -2.6793 0.3814 0 7
4.1685 -4.9800 -2.6793 0.3814 0 7
4.2133 -4.9420 -2.6793 0.3814 0 7
4.2579 -4.9037 -2.6793 0.3814 0 7
4.3021 -4.8650 -2.6793 0.3814 0 7
4.3459 -4.8259 -2.6793 0.3814 0 7
4.3894 -4.7864 -2.6793 0.3814 0 7
4.4325 -4.7465 -2.6793 0.3814 0 7
4.4752 -4.7062 -2.6793 0.3814 0 7
4.5176 -4.6655 -2.6793 0.3814 0 7
4.5596 -4.6245 -2.6793 0.3814 0 7
4.6013 -4.5830 -2.6793 0.3814 0 7
4.6425 -4.5412 -2.6793 0.3814 0 7
4.6834 -4.4990 -2.6793 0.3814 0 7
4.7239 -4.4565 -2.6793 0.3814 0 7
4.7641 -4.4136 -2.6793 0.3814 0 7
4.8038 -4.3703 -2.6793 0.3814 0 7
4.8431 -4.3267 -2.6793 0.3814 0 7
4.8821 -4.2827 -2.6793 0.3814 0 7
4.9206 -4.2384 -2.6793 0.3814 0 7
4.9587 -4.1937 -2.6793 0.3814 0 7
4.9965 -4.1486 -2.6793 0.3814 0 7
5.0338 -4.1033 -2.6793 0.3814 0 7
5.0707 -4.0576 -2.6793 0.3814 0 7
5.1072 -4.0115 -2.6793 0.3814 0 7
5.1433 -3.9652 -2.6793 0.3814 0 7
5.1789 -3.9185 -2.6793 0.3814 0 7
5.2142 -3.8715 -2.6793 0.3814 0 7
5.2490 -3.8242 -2.6793 0.3814 0 7
5.2833 -3.7765 -2.6793 0.3814 0 7
5.3173 -3.7286 -2.6793 0.3814 0 7
5.3508 -3.6803 -2.6793 0.3814 0 7
5.3839 -3.6318 -2.6793 0.3814 0 7
5.4165 -3.5829 -2.6793 0.3814 0 7
5.4487 -3.5338 -2.6793 0.3814 0 7
5.4804 -3.4844 -2.6793 0.3814 0 7
5.5117 -3.4347 -2.6793 0.3814 0 7
5.5426 -3.3846 -2.6793 0.3814 0 7
5.5730 -3.3344 -2.6793 0.3814 0 7
5.6029 -3.2838 -2.6793 0.3814 0 7
5.6324 -3.2330 -2.6793 0.3814 0 7
5.6614 -3.1819 -2.6793 0.3814 0 7
5.6899 -3.1306 -2.6793 0.3814 0 7
5.7180 -3.0790 -2.6793 0.3814 0 7
5.7456 -3.0271 -2.6793 0.3814 0 7
5.7728 -2.9750 -2.6793 0.3814 0 7
5.7995 -2.9227 -2.6793 0.3814 0 7
5.8257 -2.8701 -2.6793 0.3814 0 7
5.8514 -2.8173 -2.6793 0.3814 0 7
5.8766 -2.7643 -2.6793 0.3814 0 7
5.9014 -2.7110 -2.6793 0.3814 0 7
5.9257 -2.6575 -2.6793 0.3814 0 7
5.9495 -2.6038 -2.6793 0.3814 0 7
5.9728 -2.5499 -2.6793 0.3814 0 7
5.9956 -2.4958 -2.6793 0.3814 0 7
6.0179 -2.4414 -2.6793 0.3814 0 7
6.0398 -2.3869 -2.6793 0.3814 0 7
6.0611 -2.3321 -2.6793 0.3814 0 7
6.0820 -2.2772 -2.6793 0.3814 0 7
6.1023 -2.2221 -2.6793 0.3814 0 7
6.1222 -2.1668 -2.6793 0.3814 0 7
6.1415 -2.1114 -2.6793 0.3814 0 7
6.1604 -2.0557 -2.6793 0.3814 0 7
6.1787 -1.9999 -2.6793 0.3814 0 7
6.1965 -1.9439 -2.6793 0.3814 0 7
6.2139 -1.8878 -2.6793 0.3814 0 7
6.2307 -1.8315 -2.6793 0.3814 0 7
6.2470 -1.7751 -2.6793 0.3814 0 7
6.2628 -1.7185 -2.6793 0.3814 0 7
6.2781 -1.6618 -2.6793 0.3814 0 7
6.2929 -1.6049 -2.6793 0.3814 0 7
6.3071 -1.5479 -2.6793 0.3814 0 7
6.3209 -1.4908 -2.6793 0.3814 0 7
6.3341 -1.4336 -2.6793 0.3814 0 7
6.3468 -1.3762 -2.6793 0.3814 0 7
6.3590 -1.3188 -2.6793 0.3814 0 7
6.3707 -1.2612 -2.6793 0.3814 0 7
6.3818 -1.2035 -2.6793 0.3814 0 7
6.3924 -1.1457 -2.6793 0.3814 0 7
6.4025 -1.0879 -2.6793 0.3814 0 7
6.4121 -1.0299 -2.6793 0.3814 0 7
6.4212 -0.9719 -2.6793 0.3814 0 7
6.4297 -0.9137 -2.6793 0.3814 0 7
6.4377 -0.8556 -2.6793 0.3814 0 7
6.4452 -0.7973 -2.6793 0.3814 0 7
6.4521 -0.7389 -2.6793 0.3814 0 7
6.4585 -0.6806 -2.6793 0.3814 0 7
6.4644 -0.6221 -2.6793 0.3814 0 7
6.4698 -0.5636 -2.6793 0.3814 0 7
6.4746 -0.5051 -2.6793 0.3814 0 7
6.4789 -0.4465 -2.6793 0.3814 0 7
6.4827 -0.3879 -2.6793 0.3814 0 7
6.4859 -0.3292 -2.6793 0.3814 0 7
6.4887 -0.2705 -2.6793 0.3814 0 7
6.4908 -0.2118 -2.6793 0.3814 0 7
6.4925 -0.1531 -2.6793 0.3814 0 7
6.4936 -0.0944 -2.6793 0.3814 0 7
6.4942 -0.0356 -2.6793 0.3814 0 7
6.4943 0.0231 -2.6793 0.3814 0 7
6.4938 0.0819 -2.6793 0.3814 0 7
6.4928 0.1406 -2.6793 0.3814 0 7
6.4913 0.1993 -2.6793 0.3814 0 7
6.4892 0.2580 -2.6793 0.3814 0 7
6.4866 0.3167 -2.6793 0.3814 0 7
6.4834 0.3754 -2.6793 0.3814 0 7
6.4798 0.4340 -2.6793 0.3814 0 7
6.4756 0.4926 -2.6793 0.3814 0 7
6.4709 0.5512 -2.6793 0.3814 0 7
6.4656 0.6097 -2.6793 0.3814 0 7
6.4598 0.6681 -2.6793 0.3814 0 7
6.4535 0.7266 -2.6793 0.3814 0 7
6.4467 0.7849 -2.6793 0.3814 0 7
6.4393 0.8432 -2.6793 0.3814 0 7
6.4314 0.9014 -2.6793 0.3814 0 7
6.4230 0.9596 -2.6793 0.3814 0 7
6.4141 1.0176 -2.6793 0.3814 0 7
6.4046 1.0756 -2.6793 0.3814 0 7
6.3946 1.1335 -2.6793 0.3814 0 7
6.3841 1.1913 -2.6793 0.3814 0 7
6.3731 1.2490 -2.6793 0.3814 0 7
6.3615 1.3065 -2.6793 0.3814 0 7
6.3494 1.3641 -2.6793 0.3814 0 7
6.3368 1.4214 -2.6793 0.3814 0 7
6.3237 1.4787 -2.6793 0.3814 0 7
6.3101 1.5358 -2.6793 0.3814 0 7
6.2959 1.5928 -2.6793 0.3814 0 7
6.2813 1.6497 -2.6793 0.3814 0 7
6.2661 1.7065 -2.6793 0.3814 0 7
6.2504 1.7631 -2.6793 0.3814 0 7
6.2342 1.8196 -2.6793 0.3814 0 7
6.2175 1.8759 -2.6793 0.3814 0 7
6.2003 1.9320 -2.6793 0.3814 0 7
6.1825 1.9880 -2.6793 0.3814 0 7
6.1643 2.0439 -2.6793 0.3814 0 7
6.1455 2.0995 -2.6793 0.3814 0 7
6.1263 2.1550 -2.6793 0.3814 0 7
6.1066 2.2104 -2.6793 0.3814 0 7
6.0863 2.2655 -2.6793 0.3814 0 7
6.0656 2.3205 -2.6793 0.3814 0 7
6.0443 2.3753 -2.6793 0.3814 0 7
6.0226 2.4298 -2.6793 0.3814 0 7
6.0004 2.4842 -2.6793 0.3814 0 7
5.9777 2.5384 -2.6793 0.3814 0 7
5.9545 2.5924 -2.6793 0.3814 0 7
5.9308 2.6461 -2.6793 0.3814 0 7
5.9066 2.6997 -2.6793 0.3814 0 7
5.8819 2.7530 -2.6793 0.3814 0 7
5.8568 2.8061 -2.6793 0.3814 0 7
5.8312 2.8589 -2.6793 0.3814 0 7
5.8051 2.9116 -2.6793 0.3814 0 7
5.7785 2.9640 -2.6793 0.3814 0 7
5.7514 3.0161 -2.6793 0.3814 0 7
6.1009 0.0000 -2.6793 0.4021 0 7
6.1006 0.0552 -2.6793 0.4021 0 7
6.0999 0.1104 -2.6793 0.4021 0 7
6.0986 0.1655 -2.6793 0.4021 0 7
6.0969 0.2207 -2.6793 0.4021 0 7
6.0946 0.2758 -2.6793 0.4021 0 7
6.0919 0.3310 -2.6793 0.4021 0 7
6.0887 0.3861 -2.6793 0.4021 0 7
6.0849 0.4411 -2.6793 0.4021 0 7
6.0807 0.4961 -2.6793 0.4021 0 7
6.0759 0.5511 -2.6793 0.4021 0 7
6.0707 0.6060 -2.6793 0.4021 0 7
6.0650 0.6609 -2.6793 0.4021 0 7
6.0587 0.7158 -2.6793 0.4021 0 7
6.0520 0.7705 -2.6793 0.4021 0 7
6.0448 0.8253 -2.6793 0.4021 0 7
6.0371 0.8799 -2.6793 0.4021 0 7
6.0289 0.9345 -2.6793 0.4021 0 7
6.0202 0.9890 -2.6793 0.4021 0 7
6.0110 1.0434 -2.6793 0.4021 0 7
6.0013 1.0977 -2.6793 0.4021 0 7
5.9911 1.1520 -2.6793 0.4021 0 7
5.9805 1.2061 -2.6793 0.4021 0 7
5.9693 1.2602 -2.6793 0.4021 0 7
5.9577 1.3141 -2.6793 0.4021 0 7
5.9455 1.3679 -2.6793 0.4021 0 7
5.9329 1.4217 -2.6793 0.4021 0 7
5.9198 1.4753 -2.6793 0.4021 0 7
5.9062 1.5287 -2.6793 0.4021 0 7
5.8922 1.5821 -2.6793 0.4021 0 7
5.8776 1.6354 -2.6793 0.4021 0 7
5.8626 1.6884 -2.6793 0.4021 0 7
5.8471 1.7414 -2.6793 0.4021 0 7
5.8311 1.7942 -2.6793 0.4021 0 7
5.8146 1.8469 -2.6793 0.4021 0 7
5.7977 1.8994 -2.6793 0.4021 0 7
5.7802 1.9518 -2.6793 0.4021 0 7
5.7624 2.0040 -2.6793 0.4021 0 7
5.7440 2.0560 -2.6793 0.4021 0 7
5.7252 2.1079 -2.6793 0.4021 0 7
5.7059 2.1596 -2.6793 0.4021 0 7
5.6861 2.2111 -2.6793 0.4021 0 7
5.6658 2.2625 -2.6793 0.4021 0 7
5.6452 2.3136 -2.6793 0.4021 0 7
5.6240 2.3646 -2.6793 0.4021 0 7
5.6024 2.4154 -2.6793 0.4021 0 7
5.5803 2.4660 -2.6793 0.4021 0 7
5.5578 2.5163 -2.6793 0.4021 0 7
5.5348 2.5665 -2.6793 0.4021 0 7
5.5113 2.6165 -2.6793 0.4021 0 7
5.4874 2.6662 -2.6793 0.4021 0 7
5.4631 2.7157 -2.6793 0.4021 0 7
5.4383 2.7650 -2.6793 0.4021 0 7
5.4131 2.8141 -2.6793 0.4021 0 7
5.3874 2.8630 -2.6793 0.4021 0 7
5.3613 2.9116 -2.6793 0.4021 0 7
5.3347 2.9600 -2.6793 0.4021 0 7
5.3077 3.0081 -2.6793 0.4021 0 7
5.2803 3.0560 -2.6793 0.4021 0 7
5.2525 3.1036 -2.6793 0.4021 0 7
5.2242 3.1510 -2.6793 0.4021 0 7
5.1954 3.1981 -2.6793 0.4021 0 7
5.1663 3.2450 -2.6793 0.4021 0 7
5.1367 3.2916 -2.6793 0.4021 0 7
5.1067 3.3379 -2.6793 0.4021 0 7
5.0763 3.3840 -2.6793 0.4021 0 7
5.0455 3.4298 -2.6793 0.4021 0 7
5.0143 3.4753 -2.6793 0.4021 0 7
4.9827 3.5205 -2.6793 0.4021 0 7
4.9506 3.5654 -2.6793 0.4021 0 7
4.9182 3.6100 -2.6793 0.4021 0 7
4.8853 3.6544 -2.6793 0.4021 0 7
4.8521 3.6984 -2.6793 0.4021 0 7
4.8184 3.7422 -2.6793 0.4021 0 7
4.7843 3.7856 -2.6793 0.4021 0 7
4.7499 3.8287 -2.6793 0.4021 0 7
4.7151 3.8715 -2.6793 0.4021 0 7
4.6799 3.9140 -2.6793 0.4021 0 7
4.6443 3.9562 -2.6793 0.4021 0 7
4.6083 3.9980 -2.6793 0.4021 0 7
4.5719 4.0396 -2.6793 0.4021 0 7
4.5352 4.0807 -2.6793 0.4021 0 7
4.4981 4.1216 -2.6793 0.4021 0 7
4.4607 4.1621 -2.6793 0.4021 0 7
4.4228 4.2023 -2.6793 0.4021 0 7
4.3846 4.2421 -2.6793 0.4021 0 7
4.3461 4.2816 -2.6793 0.4021 0 7
4.3072 4.3208 -2.6793 0.4021 0 7
4.2679 4.3596 -2.6793 0.4021 0 7
4.2283 4.3980 -2.6793 0.4021 0 7
4.1883 4.4360 -2.6793 0.4021 0 7
4.1480 4.4738 -2.6793 0.4021 0 7
4.1074 4.5111 -2.6793 0.4021 0 7
4.0664 4.5480 -2.6793 0.4021 0 7
4.0251 4.5846 -2.6793 0.4021 0 7
3.9835 4.6209 -2.6793 0.4021 0 7
3.9415 4.6567 -2.6793 0.4021 0 7
3.8992 4.6922 -2.6793 0.4021 0 7
3.8567 4.7273 -2.6793 0.4021 0 7
3.8137 4.7620 -2.6793 0.4021 0 7
3.7705 4.7962 -2.6793 0.4021 0 7
3.7270 4.8301 -2.6793 0.4021 0 7
3.6831 4.8637 -2.6793 0.4021 0 7
3.6390 4.8968 -2.6793 0.4021 0 7
3.5945 4.9295 -2.6793 0.4021 0 7
3.5498 4.9618 -2.6793 0.4021 0 7
3.5048 4.9937 -2.6793 0.4021 0 7
3.4594 5.0252 -2.6793 0.4021 0 7
3.4138 5.0563 -2.6793 0.4021 0 7
3.3680 5.0870 -2.6793 0.4021 0 7
3.3218 5.1172 -2.6793 0.4021 0 7
3.2754 5.1471 -2.6793 0.4021 0 7
3.2287 5.1765 -2.6793 0.4021 0 7
3.1817 5.2055 -2.6793 0.4021 0 7
3.1345 5.2341 -2.6793 0.4021 0 7
3.0871 5.2622 -2.6793 0.4021 0 7
3.0393 5.2899 -2.6793 0.4021 0 7
2.9914 5.3172 -2.6793 0.4021 0 7
2.9431 5.3440 -2.6793 0.4021 0 7
2.8947 5.3704 -2.6793 0.4021 0 7
2.8460 5.3964 -2.6793 0.4021 0 7
2.7971 5.4219 -2.6793 0.4021 0 7
2.7479 5.4470 -2.6793 0.4021 0 7
2.6985 5.4716 -2.6793 0.4021 0 7
2.6489 5.4958 -2.6793 0.4021 0 7
2.5991 5.5195 -2.6793 0.4021 0 7
2.5491 5.5428 -2.6793 0.4021 0 7
2.4988 5.5657 -2.6793 0.4021 0 7
2.4484 5.5880 -2.6793 0.4021 0 7
2.3977 5.6100 -2.6793 0.4021 0 7
2.3469 5.6314 -2.6793 0.4021 0 7
2.2958 5.6524 -2.6793 0.4021 0 7
2.2446 5.6730 -2.6793 0.4021 0 7
2.1932 5.6930 -2.6793 0.4021 0 7
2.1416 5.7126 -2.6793 0.4021 0 7
2.0899 5.7318 -2.6793 0.4021 0 7
2.0379 5.7504 -2.6793 0.4021 0 7
1.9858 5.7686 -2.6793 0.4021 0 7
1.9336 5.7864 -2.6793 0.4021 0 7
1.8812 5.8036 -2.6793 0.4021 0 7
1.8286 5.8204 -2.6793 0.4021 0 7
1.7758 5.8367 -2.6793 0.4021 0 7
1.7230 5.8525 -2.6793 0.4021 0 7
1.6700 5.8679 -2.6793 0.4021 0 7
1.6168 5.8827 -2.6793 0.4021 0 7
1.5635 5.8971 -2.6793 0.4021 0 7
1.5101 5.9110 -2.6793 0.4021 0 7
1.4566 5.9244 -2.6793 0.4021 0 7
1.4030 5.9374 -2.6793 0.4021 0 7
1.3492 5.9498 -2.6793 0.4021 0 7
1.2953 5.9618 -2.6793 0.4021 0 7
1.2413 5.9733 -2.6793 0.4021 0 7
1.1873 5.9842 -2.6793 0.4021 0 7
1.1331 5.9947 -2.6793 0.4021 0 7
1.0788 6.0047 -2.6793 0.4021 0 7
1.0244 6.0143 -2.6793 0.4021 0 7
0.9700 6.0233 -2.6793 0.4021 0 7
0.9155 6.0318 -2.6793 0.4021 0 7
0.8609 6.0398 -2.6793 0.4021 0 7
0.8062 6.0474 -2.6793 0.4021 0 7
0.7515 6.0544 -2.6793 0.4021 0 7
0.6967 6.0610 -2.6793 0.4021 0 7
0.6418 6.0670 -2.6793 0.4021 0 7
0.5869 6.0726 -2.6793 0.4021 0 7
0.5320 6.0776 -2.6793 0.4021 0 7
0.4770 6.0822 -2.6793 0.4021 0 7
0.4219 6.0863 -2.6793 0.4021 0 7
0.3669 6.0898 -2.6793 0.4021 0 7
0.3118 6.0929 -2.6793 0.4021 0 7
0.2566 6.0955 -2.6793 0.4021 0 7
0.2015 6.0975 -2.6793 0.4021 0 7
0.1463 6.0991 -2.6793 0.4021 0 7
0.0911 6.1002 -2.6793 0.4021 0 7
0.0360 6.1008 -2.6793 0.4021 0 7
-0.0192 6.1008 -2.6793 0.4021 0 7
-0.0744 6.1004 -2.6793 0.4021 0 7
-0.1296 6.0995 -2.6793 0.4021 0 7
-0.1848 6.0981 -2.6793 0.4021 0 7
-0.2399 6.0961 -2.6793 0.4021 0 7
-0.2950 6.0937 -2.6793 0.4021 0 7
-0.3501 6.0908 -2.6793 0.4021 0 7
-0.4052 6.0874 -2.6793 0.4021 0 7
-0.4603 6.0835 -2.6793 0.4021 0 7
-0.5153 6.0791 -2.6793 0.4021 0 7
-0.5703 6.0742 -2.6793 0.4021 0 7
-0.6252 6.0687 -2.6793 0.4021 0 7
-0.6800 6.0629 -2.6793 0.4021 0 7
-0.7349 6.0565 -2.6793 0.4021 0 7
-0.7896 6.0496 -2.6793 0.4021 0 7
-0.8443 6.0422 -2.6793 0.4021 0 7
-0.8989 6.0343 -2.6793 0.4021 0 7
-0.9535 6.0259 -2.6793 0.4021 0 7
-1.0079 6.0170 -2.6793 0.4021 0 7
-1.0623 6.0077 -2.6793 0.4021 0 7
-1.1166 5.9978 -2.6793 0.4021 0 7
-1.1708 5.9875 -2.6793 0.4021 0 7
-1.2249 5.9766 -2.6793 0.4021 0 7
-1.2790 5.9653 -2.6793 0.4021 0 7
-1.3329 5.9535 -2.6793 0.4021 0 7
-1.3867 5.9412 -2.6793 0.4021 0 7
-1.4404 5.9284 -2.6793 0.4021 0 7
-1.4939 5.9151 -2.6793 0.4021 0 7
-1.5474 5.9014 -2.6793 0.4021 0 7
-1.6007 5.8871 -2.6793 0.4021 0 7
-1.6539 5.8724 -2.6793 0.4021 0 7
-1.7069 5.8572 -2.6793 0.4021 0 7
-1.7598 5.8415 -2.6793 0.4021 0 7
-1.8126 5.8254 -2.6793 0.4021 0 7
-1.8652 5.8087 -2.6793 0.4021 0 7
-1.9177 5.7916 -2.6793 0.4021 0 7
-1.9700 5.7740 -2.6793 0.4021 0 7
-2.0221 5.7560 -2.6793 0.4021 0 7
-2.0741 5.7375 -2.6793 0.4021 0 7
-2.1259 5.7185 -2.6793 0.4021 0 7
-2.1776 5.6990 -2.6793 0.4021 0 7
-2.2290 5.6791 -2.6793 0.4021 0 7
-2.2803 5.6587 -2.6793 0.4021 0 7
-2.3314 5.6378 -2.6793 0.4021 0 7
-2.3823 5.6165 -2.6793 0.4021 0 7
-2.4330 5.5947 -2.6793 0.4021 0 7
-2.4835 5.5725 -2.6793 0.4021 0 7
-2.5338 5.5498 -2.6793 0.4021 0 7
-2.5839 5.5266 -2.6793 0.4021 0 7
-2.6338 5.5030 -2.6793 0.4021 0 7
-2.6835 5.4790 -2.6793 0.4021 0 7
-2.7329 5.4545 -2.6793 0.4021 0 7
-2.7822 5.4296 -2.6793 0.4021 0 7
-2.8312 5.4042 -2.6793 0.4021 0 7
-2.8799 5.3783 -2.6793 0.4021 0 7
-2.9285 5.3521 -2.6793 0.4021 0 7
-2.9768 5.3254 -2.6793 0.4021 0 7
-3.0248 5.2982 -2.6793 0.4021 0 7
-3.0726 5.2706 -2.6793 0.4021 0 7
-3.1202 5.2426 -2.6793 0.4021 0 7
-3.1675 5.2142 -2.6793 0.4021 0 7
-3.2145 5.1853 -2.6793 0.4021 0 7
-3.2613 5.1560 -2.6793 0.4021 0 7
-3.3078 5.1263 -2.6793 0.4021 0 7
-3.3540 5.0962 -2.6793 0.4021 0 7
-3.4000 5.0656 -2.6793 0.4021 0 7
-3.4456 5.0347 -2.6793 0.4021 0 7
-3.4910 5.0033 -2.6793 0.4021 0 7
-3.5362 4.9715 -2.6793 0.4021 0 7
-3.5810 4.9393 -2.6793 0.4021 0 7
-3.6255 4.9067 -2.6793 0.4021 0 7
-3.6697 4.8737 -2.6793 0.4021 0 7
-3.7137 4.8404 -2.6793 0.4021 0 7
-3.7573 4.8066 -2.6793 0.4021 0 7
-3.8006 4.7724 -2.6793 0.4021 0 7
-3.8437 4.7378 -2.6793 0.4021 0 7
-3.8863 4.7028 -2.6793 0.4021 0 7
-3.9287 4.6675 -2.6793 0.4021 0 7
-3.9708 4.6317 -2.6793 0.4021 0 7
-4.0125 4.5957 -2.6793 0.4021 0 7
-4.0539 4.5592 -2.6793 0.4021 0 7
-4.0950 4.5223 -2.6793 0.4021 0 7
-4.1357 4.4851 -2.6793 0.4021 0 7
-4.1762 4.4475 -2.6793 0.4021 0 7
-4.2162 4.4095 -2.6793 0.4021 0 7
-4.2559 4.3712 -2.6793 0.4021 0 7
-4.2953 4.3325 -2.6793 0.4021 0 7
-4.3343 4.2935 -2.6793 0.4021 0 7
-4.3730 4.2541 -2.6793 0.4021 0 7
-4.4113 4.2144 -2.6793 0.4021 0 7
-4.4492 4.1743 -2.6793 0.4021 0 7
-4.4868 4.1339 -2.6793 0.4021 0 7
-4.5240 4.0932 -2.6793 0.4021 0 7
-4.5608 4.0521 -2.6793 0.4021 0 7
-4.5973 4.0106 -2.6793 0.4021 0 7
-4.6334 3.9689 -2.6793 0.4021 0 7
-4.6691 3.9268 -2.6793 0.4021 0 7
-4.7044 3.8844 -2.6793 0.4021 0 7
-4.7394 3.8417 -2.6793 0.4021 0 7
-4.7739 3.7987 -2.6793 0.4021 0 7
-4.8081 3.7554 -2.6793 0.4021 0 7
-4.8419 3.7117 -2.6793 0.4021 0 7
-4.8753 3.6678 -2.6793 0.4021 0 7
-4.9082 3.6235 -2.6793 0.4021 0 7
-4.9408 3.5790 -2.6793 0.4021 0 7
-4.9730 3.5341 -2.6793 0.4021 0 7
-5.0047 3.4890 -2.6793 0.4021 0 7
-5.0361 3.4436 -2.6793 0.4021 0 7
-5.0670 3.3979 -2.6793 0.4021 0 7
-5.0976 3.3519 -2.6793 0.4021 0 7
-5.1277 3.3057 -2.6793 0.4021 0 7
-5.1574 3.2591 -2.6793 0.4021 0 7
-5.1867 3.2123 -2.6793 0.4021 0 7
-5.2155 3.1653 -2.6793 0.4021 0 7
-5.2439 3.1180 -2.6793 0.4021 0 7
-5.2719 3.0704 -2.6793 0.4021 0 7
-5.2995 3.0226 -2.6793 0.4021 0 7
-5.3266 2.9746 -2.6793 0.4021 0 7
-5.3533 2.9262 -2.6793 0.4021 0 7
-5.3795 2.8777 -2.6793 0.4021 0 7
-5.4053 2.8289 -2.6793 0.4021 0 7
-5.4307 2.7799 -2.6793 0.4021 0 7
-5.4556 2.7307 -2.6793 0.4021 0 7
-5.4801 2.6812 -2.6793 0.4021 0 7
-5.5041 2.6316 -2.6793 0.4021 0 7
-5.5277 2.5817 -2.6793 0.4021 0 7
-5.5508 2.5316 -2.6793 0.4021 0 7
-5.5735 2.4812 -2.6793 0.4021 0 7
-5.5957 2.4307 -2.6793 0.4021 0 7
-5.6175 2.3800 -2.6793 0.4021 0 7
-5.6388 2.3291 -2.6793 0.4021 0 7
-5.6596 2.2780 -2.6793 0.4021 0 7
-5.6800 2.2267 -2.6793 0.4021 0 7
-5.6999 2.1752 -2.6793 0.4021 0 7
-5.7193 2.1236 -2.6793 0.4021 0 7
-5.7383 2.0718 -2.6793 0.4021 0 7
-5.7568 2.0198 -2.6793 0.4021 0 7
-5.7749 1.9676 -2.6793 0.4021 0 7
-5.7924 1.9153 -2.6793 0.4021 0 7
-5.8095 1.8628 -2.6793 0.4021 0 7
-5.8261 1.8102 -2.6793 0.4021 0 7
-5.8423 1.7574 -2.6793 0.4021 0 7
-5.8579 1.7045 -2.6793 0.4021 0 7
-5.8731 1.6514 -2.6793 0.4021 0 7
-5.8878 1.5983 -2.6793 0.4021 0 7
-5.9020 1.5449 -2.6793 0.4021 0 7
-5.9157 1.4915 -2.6793 0.4021 0 7
-5.9290 1.4379 -2.6793 0.4021 0 7
-5.9418 1.3842 -2.6793 0.4021 0 7
-5.9540 1.3304 -2.6793 0.4021 0 7
-5.9658 1.2765 -2.6793 0.4021 0 7
-5.9771 1.2225 -2.6793 0.4021 0 7
-5.9879 1.1684 -2.6793 0.4021 0 7
-5.9983 1.1142 -2.6793 0.4021 0 7
-6.0081 1.0599 -2.6793 0.4021 0 7
-6.0174 1.0055 -2.6793 0.4021 0 7
-6.0263 0.9510 -2.6793 0.4021 0 7
-6.0346 0.8964 -2.6793 0.4021 0 7
-6.0425 0.8418 -2.6793 0.4021 0 7
-6.0499 0.7871 -2.6793 0.4021 0 7
-6.0567 0.7324 -2.6793 0.4021 0 7
-6.0631 0.6776 -2.6793 0.4021 0 7
-6.0690 0.6227 -2.6793 0.4021 0 7
-6.0744 0.5678 -2.6793 0.4021 0 7
-6.0793 0.5128 -2.6793 0.4021 0 7
-6.0837 0.4578 -2.6793 0.4021 0 7
-6.0876 0.4027 -2.6793 0.4021 0 7
-6.0909 0.3476 -2.6793 0.4021 0 7
-6.0938 0.2925 -2.6793 0.4021 0 7
-6.0962 0.2374 -2.6793 0.4021 0 7
-6.0981 0.1823 -2.6793 0.4021 0 7
-6.0995 0.1271 -2.6793 0.4021 0 7
-6.1004 0.0719 -2.6793 0.4021 0 7
-6.1008 0.0167 -2.6793 0.4021 0 7
-6.1007 -0.0385 -2.6793 0.4021 0 7
-6.1001 -0.0937 -2.6793 0.4021 0 7
-6.0990 -0.1488 -2.6793 0.4021 0 7
-6.0975 -0.2040 -2.6793 0.4021 0 7
-6.0954 -0.2591 -2.6793 0.4021 0 7
-6.0928 -0.3143 -2.6793 0.4021 0 7
-6.0897 -0.3694 -2.6793 0.4021 0 7
-6.0861 -0.4244 -2.6793 0.4021 0 7
-6.0820 -0.4795 -2.6793 0.4021 0 7
-6.0774 -0.5345 -2.6793 0.4021 0 7
-6.0723 -0.5894 -2.6793 0.4021 0 7
-6.0667 -0.6443 -2.6793 0.4021 0 7
-6.0607 -0.6992 -2.6793 0.4021 0 7
-6.0541 -0.7540 -2.6793 0.4021 0 7
-6.0470 -0.8087 -2.6793 0.4021 0 7
-6.0395 -0.8634 -2.6793 0.4021 0 7
-6.0314 -0.9179 -2.6793 0.4021 0 7
-6.0229 -0.9725 -2.6793 0.4021 0 7
-6.0138 -1.0269 -2.6793 0.4021 0 7
-6.0043 -1.0813 -2.6793 0.4021 0 7
-5.9943 -1.1355 -2.6793 0.4021 0 7
-5.9837 -1.1897 -2.6793 0.4021 0 7
-5.9727 -1.2438 -2.6793 0.4021 0 7
-5.9612 -1.2978 -2.6793 0.4021 0 7
-5.9492 -1.3516 -2.6793 0.4021 0 7
-5.9368 -1.4054 -2.6793 0.4021 0 7
-5.9238 -1.4590 -2.6793 0.4021 0 7
-5.9104 -1.5126 -2.6793 0.4021 0 7
-5.8965 -1.5660 -2.6793 0.4021 0 7
-5.8821 -1.6192 -2.6793 0.4021 0 7
-5.8672 -1.6724 -2.6793 0.4021 0 7
-5.8518 -1.7254 -2.6793 0.4021 0 7
-5.8360 -1.7782 -2.6793 0.4021 0 7
-5.8196 -1.8310 -2.6793 0.4021 0 7
-5.8028 -1.8835 -2.6793 0.4021 0 7
-5.7855 -1.9359 -2.6793 0.4021 0 7
-5.7678 -1.9882 -2.6793 0.4021 0 7
-5.7496 -2.0403 -2.6793 0.4021 0 7
-5.7309 -2.0922 -2.6793 0.4021 0 7
-5.7117 -2.1440 -2.6793 0.4021 0 7
-5.6921 -2.1955 -2.6793 0.4021 0 7
-5.6720 -2.2469 -2.6793 0.4021 0 7
-5.6515 -2.2982 -2.6793 0.4021 0 7
-5.6304 -2.3492 -2.6793 0.4021 0 7
-5.6090 -2.4000 -2.6793 0.4021 0 7
-5.5870 -2.4506 -2.6793 0.4021 0 7
-5.5646 -2.5011 -2.6793 0.4021 0 7
-5.5418 -2.5513 -2.6793 0.4021 0 7
-5.5185 -2.6013 -2.6793 0.4021 0 7
-5.4947 -2.6512 -2.6793 0.4021 0 7
-5.4705 -2.7007 -2.6793 0.4021 0 7
-5.4459 -2.7501 -2.6793 0.4021 0 7
-5.4208 -2.7993 -2.6793 0.4021 0 7
-5.3952 -2.8482 -2.6793 0.4021 0 7
-5.3692 -2.8969 -2.6793 0.4021 0 7
-5.3428 -2.9453 -2.6793 0.4021 0 7
-5.3159 -2.9935 -2.6793 0.4021 0 7
-5.2887 -3.0415 -2.6793 0.4021 0 7
-5.2609 -3.0892 -2.6793 0.4021 0 7
-5.2328 -3.1367 -2.6793 0.4021 0 7
-5.2042 -3.1839 -2.6793 0.4021 0 7
-5.1752 -3.2308 -2.6793 0.4021 0 7
-5.1457 -3.2775 -2.6793 0.4021 0 7
-5.1159 -3.3239 -2.6793 0.4021 0 7
-5.0856 -3.3701 -2.6793 0.4021 0 7
-5.0549 -3.4159 -2.6793 0.4021 0 7
-5.0238 -3.4615 -2.6793 0.4021 0 7
-4.9923 -3.5068 -2.6793 0.4021 0 7
-4.9604 -3.5518 -2.6793 0.4021 0 7
-4.9280 -3.5965 -2.6793 0.4021 0 7
-4.8953 -3.6410 -2.6793 0.4021 0 7
-4.8622 -3.6851 -2.6793 0.4021 0 7
-4.8286 -3.7289 -2.6793 0.4021 0 7
-4.7947 -3.7725 -2.6793 0.4021 0 7
-4.7604 -3.8157 -2.6793 0.4021 0 7
-4.7257 -3.8586 -2.6793 0.4021 0 7
-4.6906 -3.9012 -2.6793 0.4021 0 7
-4.6551 -3.9434 -2.6793 0.4021 0 7
-4.6192 -3.9854 -2.6793 0.4021 0 7
-4.5830 -4.0270 -2.6793 0.4021 0 7
-4.5464 -4.0683 -2.6793 0.4021 0 7
-4.5094 -4.1093 -2.6793 0.4021 0 7
-4.4720 -4.1499 -2.6793 0.4021 0 7
-4.4343 -4.1902 -2.6793 0.4021 0 7
-4.3962 -4.2301 -2.6793 0.4021 0 7
-4.3578 -4.2697 -2.6793 0.4021 0 7
-4.3190 -4.3089 -2.6793 0.4021 0 7
-4.2798 -4.3478 -2.6793 0.4021 0 7
-4.2403 -4.3864 -2.6793 0.4021 0 7
-4.2005 -4.4246 -2.6793 0.4021 0 7
-4.1603 -4.4624 -2.6793 0.4021 0 7
-4.1197 -4.4998 -2.6793 0.4021 0 7
-4.0789 -4.5369 -2.6793 0.4021 0 7
-4.0377 -4.5736 -2.6793 0.4021 0 7
-3.9961 -4.6099 -2.6793 0.4021 0 7
-3.9543 -4.6459 -2.6793 0.4021 0 7
-3.9121 -4.6815 -2.6793 0.4021 0 7
-3.8696 -4.7167 -2.6793 0.4021 0 7
-3.8267 -4.7515 -2.6793 0.4021 0 7
-3.7836 -4.7859 -2.6793 0.4021 0 7
-3.7402 -4.8199 -2.6793 0.4021 0 7
-3.6964 -4.8536 -2.6793 0.4021 0 7
-3.6524 -4.8868 -2.6793 0.4021 0 7
-3.6080 -4.9196 -2.6793 0.4021 0 7
-3.5634 -4.9521 -2.6793 0.4021 0 7
-3.5184 -4.9841 -2.6793 0.4021 0 7
-3.4732 -5.0157 -2.6793 0.4021 0 7
-3.4277 -5.0470 -2.6793 0.4021 0 7
-3.3819 -5.0777 -2.6793 0.4021 0 7
-3.3358 -5.1081 -2.6793 0.4021 0 7
-3.2895 -5.1381 -2.6793 0.4021 0 7
-3.2429 -5.1676 -2.6793 0.4021 0 7
-3.1960 -5.1967 -2.6793 0.4021 0 7
-3.1488 -5.2255 -2.6793 0.4021 0 7
-3.1015 -5.2537 -2.6793 0.4021 0 7
-3.0538 -5.2816 -2.6793 0.4021 0 7
-3.0059 -5.3090 -2.6793 0.4021 0 7
-2.9578 -5.3359 -2.6793 0.4021 0 7
-2.9094 -5.3625 -2.6793 0.4021 0 7
-2.8607 -5.3886 -2.6793 0.4021 0 7
-2.8119 -5.4142 -2.6793 0.4021 0 7
-2.7628 -5.4394 -2.6793 0.4021 0 7
-2.7135 -5.4642 -2.6793 0.4021 0 7
-2.6639 -5.4885 -2.6793 0.4021 0 7
-2.6142 -5.5124 -2.6793 0.4021 0 7
-2.5642 -5.5358 -2.6793 0.4021 0 7
-2.5141 -5.5588 -2.6793 0.4021 0 7
-2.4637 -5.5813 -2.6793 0.4021 0 7
-2.4131 -5.6034 -2.6793 0.4021 0 7
-2.3623 -5.6250 -2.6793 0.4021 0 7
-2.3113 -5.6461 -2.6793 0.4021 0 7
-2.2601 -5.6668 -2.6793 0.4021 0 7
-2.2088 -5.6870 -2.6793 0.4021 0 7
-2.1573 -5.7067 -2.6793 0.4021 0 7
-2.1056 -5.7260 -2.6793 0.4021 0 7
-2.0537 -5.7448 -2.6793 0.4021 0 7
-2.0016 -5.7632 -2.6793 0.4021 0 7
-1.9494 -5.7810 -2.6793 0.4021 0 7
-1.8970 -5.7984 -2.6793 0.4021 0 7
-1.8445 -5.8153 -2.6793 0.4021 0 7
-1.7918 -5.8318 -2.6793 0.4021 0 7
-1.7390 -5.8478 -2.6793 0.4021 0 7
-1.6860 -5.8633 -2.6793 0.4021 0 7
-1.6329 -5.8783 -2.6793 0.4021 0 7
-1.5797 -5.8928 -2.6793 0.4021 0 7
-1.5263 -5.9069 -2.6793 0.4021 0 7
-1.4728 -5.9204 -2.6793 0.4021 0 7
-1.4192 -5.9335 -2.6793 0.4021 0 7
-1.3655 -5.9461 -2.6793 0.4021 0 7
-1.3117 -5.9582 -2.6793 0.4021 0 7
-1.2577 -5.9698 -2.6793 0.4021 0 7
-1.2036 -5.9810 -2.6793 0.4021 0 7
-1.1495 -5.9916 -2.6793 0.4021 0 7
-1.0953 -6.0017 -2.6793 0.4021 0 7
-1.0409 -6.0114 -2.6793 0.4021 0 7
-0.9865 -6.0206 -2.6793 0.4021 0 7
-0.9320 -6.0293 -2.6793 0.4021 0 7
-0.8774 -6.0374 -2.6793 0.4021 0 7
-0.8228 -6.0451 -2.6793 0.4021 0 7
-0.7681 -6.0523 -2.6793 0.4021 0 7
-0.7133 -6.0590 -2.6793 0.4021 0 7
-0.6584 -6.0652 -2.6793 0.4021 0 7
-0.6036 -6.0709 -2.6793 0.4021 0 7
-0.5486 -6.0762 -2.6793 0.4021 0 7
-0.4936 -6.0809 -2.6793 0.4021 0 7
-0.4386 -6.0851 -2.6793 0.4021 0 7
-0.3835 -6.0888 -2.6793 0.4021 0 7
-0.3284 -6.0920 -2.6793 0.4021 0 7
-0.2733 -6.0947 -2.6793 0.4021 0 7
-0.2182 -6.0970 -2.6793 0.4021 0 7
-0.1630 -6.0987 -2.6793 0.4021 0 7
-0.1079 -6.0999 -2.6793 0.4021 0 7
-0.0527 -6.1007 -2.6793 0.4021 0 7
0.0025 -6.1009 -2.6793 0.4021 0 7
0.0577 -6.1006 -2.6793 0.4021 0 7
0.1129 -6.0998 -2.6793 0.4021 0 7
0.1681 -6.0986 -2.6793 0.4021 0 7
0.2232 -6.0968 -2.6793 0.4021 0 7
0.2783 -6.0945 -2.6793 0.4021 0 7
0.3335 -6.0917 -2.6793 0.4021 0 7
0.3886 -6.0885 -2.6793 0.4021 0 7
0.4436 -6.0847 -2.6793 0.4021 0 7
0.4986 -6.0805 -2.6793 0.4021 0 7
0.5536 -6.0757 -2.6793 0.4021 0 7
0.6086 -6.0704 -2.6793 0.4021 0 7
0.6634 -6.0647 -2.6793 0.4021 0 7
0.7183 -6.0585 -2.6793 0.4021 0 7
0.7730 -6.0517 -2.6793 0.4021 0 7
0.8277 -6.0445 -2.6793 0.4021 0 7
0.8824 -6.0367 -2.6793 0.4021 0 7
0.9370 -6.0285 -2.6793 0.4021 0 7
0.9915 -6.0198 -2.6793 0.4021 0 7
1.0459 -6.0105 -2.6793 0.4021 0 7
1.1002 -6.0008 -2.6793 0.4021 0 7
1.1544 -5.9907 -2.6793 0.4021 0 7
1.2086 -5.9800 -2.6793 0.4021 0 7
1.2626 -5.9688 -2.6793 0.4021 0 7
1.3166 -5.9571 -2.6793 0.4021 0 7
1.3704 -5.9450 -2.6793 0.4021 0 7
1.4241 -5.9323 -2.6793 0.4021 0 7
1.4777 -5.9192 -2.6793 0.4021 0 7
1.5312 -5.9056 -2.6793 0.4021 0 7
1.5845 -5.8915 -2.6793 0.4021 0 7
1.6378 -5.8769 -2.6793 0.4021 0 7
1.6909 -5.8619 -2.6793 0.4021 0 7
1.7438 -5.8463 -2.6793 0.4021 0 7
1.7966 -5.8303 -2.6793 0.4021 0 7
1.8493 -5.8138 -2.6793 0.4021 0 7
1.9018 -5.7969 -2.6793 0.4021 0 7
1.9542 -5.7794 -2.6793 0.4021 0 7
2.0064 -5.7615 -2.6793 0.4021 0 7
2.0584 -5.7431 -2.6793 0.4021 0 7
2.1103 -5.7243 -2.6793 0.4021 0 7
2.1620 -5.7050 -2.6793 0.4021 0 7
2.2135 -5.6852 -2.6793 0.4021 0 7
2.2648 -5.6649 -2.6793 0.4021 0 7
2.3160 -5.6442 -2.6793 0.4021 0 7
2.3669 -5.6230 -2.6793 0.4021 0 7
2.4177 -5.6014 -2.6793 0.4021 0 7
2.4683 -5.5793 -2.6793 0.4021 0 7
2.5186 -5.5567 -2.6793 0.4021 0 7
2.5688 -5.5337 -2.6793 0.4021 0 7
2.6187 -5.5102 -2.6793 0.4021 0 7
2.6685 -5.4863 -2.6793 0.4021 0 7
2.7180 -5.4620 -2.6793 0.4021 0 7
2.7673 -5.4372 -2.6793 0.4021 0 7
2.8163 -5.4119 -2.6793 0.4021 0 7
2.8652 -5.3862 -2.6793 0.4021 0 7
2.9138 -5.3601 -2.6793 0.4021 0 7
2.9622 -5.3335 -2.6793 0.4021 0 7
3.0103 -5.3065 -2.6793 0.4021 0 7
3.0582 -5.2790 -2.6793 0.4021 0 7
3.1058 -5.2512 -2.6793 0.4021 0 7
3.1532 -5.2229 -2.6793 0.4021 0 7
3.2003 -5.1941 -2.6793 0.4021 0 7
3.2471 -5.1650 -2.6793 0.4021 0 7
3.2937 -5.1354 -2.6793 0.4021 0 7
3.3400 -5.1054 -2.6793 0.4021 0 7
3.3861 -5.0750 -2.6793 0.4021 0 7
3.4318 -5.0441 -2.6793 0.4021 0 7
3.4773 -5.0129 -2.6793 0.4021 0 7
3.5225 -4.9812 -2.6793 0.4021 0 7
3.5674 -4.9492 -2.6793 0.4021 0 7
3.6121 -4.9167 -2.6793 0.4021 0 7
3.6564 -4.8838 -2.6793 0.4021 0 7
3.7004 -4.8505 -2.6793 0.4021 0 7
3.7441 -4.8168 -2.6793 0.4021 0 7
3.7876 -4.7828 -2.6793 0.4021 0 7
3.8307 -4.7483 -2.6793 0.4021 0 7
3.8735 -4.7135 -2.6793 0.4021 0 7
3.9159 -4.6783 -2.6793 0.4021 0 7
3.9581 -4.6426 -2.6793 0.4021 0 7
3.9999 -4.6067 -2.6793 0.4021 0 7
4.0414 -4.5703 -2.6793 0.4021 0 7
4.0826 -4.5335 -2.6793 0.4021 0 7
4.1235 -4.4964 -2.6793 0.4021 0 7
4.1640 -4.4589 -2.6793 0.4021 0 7
4.2041 -4.4211 -2.6793 0.4021 0 7
4.2439 -4.3829 -2.6793 0.4021 0 7
4.2834 -4.3443 -2.6793 0.4021 0 7
4.3225 -4.3054 -2.6793 0.4021 0 7
4.3613 -4.2661 -2.6793 0.4021 0 7
4.3997 -4.2265 -2.6793 0.4021 0 7
4.4378 -4.1865 -2.6793 0.4021 0 7
4.4754 -4.1462 -2.6793 0.4021 0 7
4.5128 -4.1055 -2.6793 0.4021 0 7
4.5497 -4.0646 -2.6793 0.4021 0 7
4.5863 -4.0232 -2.6793 0.4021 0 7
4.6225 -3.9816 -2.6793 0.4021 0 7
4.6583 -3.9396 -2.6793 0.4021 0 7
4.6938 -3.8973 -2.6793 0.4021 0 7
4.7288 -3.8547 -2.6793 0.4021 0 7
4.7635 -3.8118 -2.6793 0.4021 0 7
4.7978 -3.7685 -2.6793 0.4021 0 7
4.8317 -3.7250 -2.6793 0.4021 0 7
4.8652 -3.6811 -2.6793 0.4021 0 7
4.8983 -3.6369 -2.6793 0.4021 0 7
4.9310 -3.5925 -2.6793 0.4021 0 7
4.9633 -3.5478 -2.6793 0.4021 0 7
4.9952 -3.5027 -2.6793 0.4021 0 7
5.0266 -3.4574 -2.6793 0.4021 0 7
5.0577 -3.4118 -2.6793 0.4021 0 7
5.0884 -3.3659 -2.6793 0.4021 0 7
5.1186 -3.3197 -2.6793 0.4021 0 7
5.1484 -3.2733 -2.6793 0.4021 0 7
5.1778 -3.2266 -2.6793 0.4021 0 7
5.2068 -3.1796 -2.6793 0.4021 0 7
5.2354 -3.1324 -2.6793 0.4021 0 7
5.2635 -3.0849 -2.6793 0.4021 0 7
5.2912 -3.0371 -2.6793 0.4021 0 7
5.3184 -2.9892 -2.6793 0.4021 0 7
5.3452 -2.9409 -2.6793 0.4021 0 7
5.3716 -2.8925 -2.6793 0.4021 0 7
5.3976 -2.8438 -2.6793 0.4021 0 7
5.4231 -2.7948 -2.6793 0.4021 0 7
5.4481 -2.7456 -2.6793 0.4021 0 7
5.4727 -2.6963 -2.6793 0.4021 0 7
5.4969 -2.6466 -2.6793 0.4021 0 7
5.5206 -2.5968 -2.6793 0.4021 0 7
5.5439 -2.5468 -2.6793 0.4021 0 7
5.5667 -2.4965 -2.6793 0.4021 0 7
5.5891 -2.4461 -2.6793 0.4021 0 7
5.6109 -2.3954 -2.6793 0.4021 0 7
5.6324 -2.3445 -2.6793 0.4021 0 7
5.6534 -2.2935 -2.6793 0.4021 0 7
5.6739 -2.2423 -2.6793 0.4021 0 7
5.6939 -2.1909 -2.6793 0.4021 0 7
5.7135 -2.1393 -2.6793 0.4021 0 7
5.7326 -2.0875 -2.6793 0.4021 0 7
5.7513 -2.0356 -2.6793 0.4021 0 7
5.7695 -1.9835 -2.6793 0.4021 0 7
5.7872 -1.9312 -2.6793 0.4021 0 7
5.8044 -1.8787 -2.6793 0.4021 0 7
5.8212 -1.8262 -2.6793 0.4021 0 7
5.8374 -1.7734 -2.6793 0.4021 0 7
5.8532 -1.7206 -2.6793 0.4021 0 7
5.8686 -1.6676 -2.6793 0.4021 0 7
5.8834 -1.6144 -2.6793 0.4021 0 7
5.8978 -1.5611 -2.6793 0.4021 0 7
5.9116 -1.5077 -2.6793 0.4021 0 7
5.9250 -1.4542 -2.6793 0.4021 0 7
5.9379 -1.4005 -2.6793 0.4021 0 7
5.9504 -1.3467 -2.6793 0.4021 0 7
5.9623 -1.2929 -2.6793 0.4021 0 7
5.9738 -1.2389 -2.6793 0.4021 0 7
5.9847 -1.1848 -2.6793 0.4021 0 7
5.9952 -1.1306 -2.6793 0.4021 0 7
6.0052 -1.0763 -2.6793 0.4021 0 7
6.0147 -1.0220 -2.6793 0.4021 0 7
6.0237 -0.9675 -2.6793 0.4021 0 7
6.0322 -0.9130 -2.6793 0.4021 0 7
6.0402 -0.8584 -2.6793 0.4021 0 7
6.0477 -0.8037 -2.6793 0.4021 0 7
6.0547 -0.7490 -2.6793 0.4021 0 7
6.0613 -0.6942 -2.6793 0.4021 0 7
6.0673 -0.6393 -2.6793 0.4021 0 7
6.0728 -0.5844 -2.6793 0.4021 0 7
6.0779 -0.5295 -2.6793 0.4021 0 7
6.0824 -0.4745 -2.6793 0.4021 0 7
6.0864 -0.4194 -2.6793 0.4021 0 7
6.0900 -0.3644 -2.6793 0.4021 0 7
6.0930 -0.3093 -2.6793 0.4021 0 7
6.0956 -0.2541 -2.6793 0.4021 0 7
6.0976 -0.1990 -2.6793 0.4021 0 7
6.0992 -0.1438 -2.6793 0.4021 0 7
6.1002 -0.0886 -2.6793 0.4021 0 7
6.1008 -0.0334 -2.6793 0.4021 0 7
6.1008 0.0217 -2.6793 0.4021 0 7
6.1004 0.0769 -2.6793 0.4021 0 7
6.0994 0.1321 -2.6793 0.4021 0 7
6.0980 0.1873 -2.6793 0.4021 0 7
6.0961 0.2424 -2.6793 0.4021 0 7
6.0936 0.2975 -2.6793 0.4021 0 7
6.0907 0.3527 -2.6793 0.4021 0 7
6.0872 0.4078 -2.6793 0.4021 0 7
6.0833 0.4628 -2.6793 0.4021 0 7
6.0789 0.5178 -2.6793 0.4021 0 7
6.0739 0.5728 -2.6793 0.4021 0 7
6.0685 0.6277 -2.6793 0.4021 0 7
6.0626 0.6825 -2.6793 0.4021 0 7
6.0561 0.7373 -2.6793 0.4021 0 7
6.0492 0.7921 -2.6793 0.4021 0 7
6.0418 0.8468 -2.6793 0.4021 0 7
6.0339 0.9014 -2.6793 0.4021 0 7
6.0255 0.9560 -2.6793 0.4021 0 7
6.0166 1.0104 -2.6793 0.4021 0 7
6.0072 1.0648 -2.6793 0.4021 0 7
5.9974 1.1191 -2.6793 0.4021 0 7
5.9870 1.1733 -2.6793 0.4021 0 7
5.9761 1.2274 -2.6793 0.4021 0 7
5.9648 1.2814 -2.6793 0.4021 0 7
5.9529 1.3353 -2.6793 0.4021 0 7
5.9406 1.3891 -2.6793 0.4021 0 7
5.9278 1.4428 -2.6793 0.4021 0 7
5.9145 1.4964 -2.6793 0.4021 0 7
5.9008 1.5498 -2.6793 0.4021 0 7
5.8865 1.6031 -2.6793 0.4021 0 7
5.8718 1.6563 -2.6793 0.4021 0 7
5.8565 1.7093 -2.6793 0.4021 0 7
5.8408 1.7622 -2.6793 0.4021 0 7
5.8246 1.8150 -2.6793 0.4021 0 7
5.8080 1.8676 -2.6793 0.4021 0 7
5.7909 1.9201 -2.6793 0.4021 0 7
5.7733 1.9724 -2.6793 0.4021 0 7
5.7552 2.0245 -2.6793 0.4021 0 7
5.7366 2.0765 -2.6793 0.4021 0 7
5.7176 2.1283 -2.6793 0.4021 0 7
5.6981 2.1799 -2.6793 0.4021 0 7
5.6782 2.2314 -2.6793 0.4021 0 7
5.6578 2.2826 -2.6793 0.4021 0 7
5.6369 2.3337 -2.6793 0.4021 0 7
5.6155 2.3846 -2.6793 0.4021 0 7
5.5937 2.4353 -2.6793 0.4021 0 7
5.5715 2.4858 -2.6793 0.4021 0 7
5.5488 2.5361 -2.6793 0.4021 0 7
5.5256 2.5862 -2.6793 0.4021 0 7
5.5020 2.6361 -2.6793 0.4021 0 7
5.4779 2.6857 -2.6793 0.4021 0 7
5.4534 2.7352 -2.6793 0.4021 0 7
5.4284 2.7844 -2.6793 0.4021 0 7
5.4030 2.8334 -2.6793 0.4021 0 7
5.7458 -0.0000 -2.6793 0.4226 0 7
5.7456 0.0520 -2.6793 0.4226 0 7
5.7449 0.1039 -2.6793 0.4226 0 7
5.7437 0.1559 -2.6793 0.4226 0 7
5.7421 0.2079 -2.6793 0.4226 0 7
5.7400 0.2598 -2.6793 0.4226 0 7
5.7374 0.3117 -2.6793 0.4226 0 7
5.7343 0.3636 -2.6793 0.4226 0 7
5.7308 0.4154 -2.6793 0.4226 0 7
5.7268 0.4673 -2.6793 0.4226 0 7
5.7223 0.5191 -2.6793 0.4226 0 7
5.7174 0.5708 -2.6793 0.4226 0 7
5.7120 0.6225 -2.6793 0.4226 0 7
5.7062 0.6741 -2.6793 0.4226 0 7
5.6998 0.7257 -2.6793 0.4226 0 7
5.6930 0.7772 -2.6793 0.4226 0 7
5.6858 0.8287 -2.6793 0.4226 0 7
5.6780 0.8801 -2.6793 0.4226 0 7
5.6698 0.9314 -2.6793 0.4226 0 7
5.6612 0.9827 -2.6793 0.4226 0 7
5.6521 1.0338 -2.6793 0.4226 0 7
5.6425 1.0849 -2.6793 0.4226 0 7
5.6324 1.1359 -2.6793 0.4226 0 7
5.6219 1.1868 -2.6793 0.4226 0 7
5.6110 1.2376 -2.6793 0.4226 0 7
5.5995 1.2883 -2.6793 0.4226 0 7
5.5876 1.3389 -2.6793 0.4226 0 7
5.5753 1.3894 -2.6793 0.4226 0 7
5.5625 1.4398 -2.6793 0.4226 0 7
5.5493 1.4900 -2.6793 0.4226 0 7
5.5356 1.5402 -2.6793 0.4226 0 7
5.5214 1.5902 -2.6793 0.4226 0 7
5.5068 1.6401 -2.6793 0.4226 0 7
5.4917 1.6898 -2.6793 0.4226 0 7
5.4762 1.7394 -2.6793 0.4226 0 7
5.4603 1.7889 -2.6793 0.4226 0 7
5.4439 1.8382 -2.6793 0.4226 0 7
5.4270 1.8874 -2.6793 0.4226 0 7
5.4097 1.9364 -2.6793 0.4226 0 7
5.3920 1.9852 -2.6793 0.4226 0 7
5.3738 2.0339 -2.6793 0.4226 0 7
5.3552 2.0824 -2.6793 0.4226 0 7
5.3361 2.1308 -2.6793 0.4226 0 7
5.3166 2.1790 -2.6793 0.4226 0 7
5.2967 2.2270 -2.6793 0.4226 0 7
5.2763 2.2748 -2.6793 0.4226 0 7
5.2556 2.3225 -2.6793 0.4226 0 7
5.2343 2.3699 -2.6793 0.4226 0 7
5.2127 2.4171 -2.6793 0.4226 0 7
5.1906 2.4642 -2.6793 0.4226 0 7
5.1681 2.5110 -2.6793 0.4226 0 7
5.1452 2.5577 -2.6793 0.4226 0 7
5.1218 2.6041 -2.6793 0.4226 0 7
5.0981 2.6504 -2.6793 0.4226 0 7
5.0739 2.6964 -2.6793 0.4226 0 7
5.0493 2.7421 -2.6793 0.4226 0 7
5.0243 2.7877 -2.6793 0.4226 0 7
4.9989 2.8330 -2.6793 0.4226 0 7
4.9730 2.8782 -2.6793 0.4226 0 7
4.9468 2.9230 -2.6793 0.4226 0 7
4.9201 2.9676 -2.6793 0.4226 0 7
4.8931 3.0120 -2.6793 0.4226 0 7
4.8656 3.0562 -2.6793 0.4226 0 7
4.8378 3.1000 -2.6793 0.4226 0 7
4.8096 3.1437 -2.6793 0.4226 0 7
4.7809 3.1871 -2.6793 0.4226 0 7
4.7519 3.2302 -2.6793 0.4226 0 7
4.7225 3.2730 -2.6793 0.4226 0 7
4.6927 3.3156 -2.6793 0.4226 0 7
4.6625 3.3579 -2.6793 0.4226 0 7
4.6320 3.4000 -2.6793 0.4226 0 7
4.6010 3.4417 -2.6793 0.4226 0 7
4.5697 3.4832 -2.6793 0.4226 0 7
4.5380 3.5244 -2.6793 0.4226 0 7
4.5059 3.5653 -2.6793 0.4226 0 7
4.4735 3.6059 -2.6793 0.4226 0 7
4.4407 3.6462 -2.6793 0.4226 0 7
4.4075 3.6862 -2.6793 0.4226 0 7
4.3740 3.7259 -2.6793 0.4226 0 7
4.3401 3.7654 -2.6793 0.4226 0 7
4.3059 3.8045 -2.6793 0.4226 0 7
4.2713 3.8433 -2.6793 0.4226 0 7
4.2363 3.8817 -2.6793 0.4226 0 7
4.2011 3.9199 -2.6793 0.4226 0 7
4.1654 3.9577 -2.6793 0.4226 0 7
4.1295 3.9953 -2.6793 0.4226 0 7
4.0932 4.0325 -2.6793 0.4226 0 7
4.0565 4.0693 -2.6793 0.4226 0 7
4.0195 4.1058 -2.6793 0.4226 0 7
3.9822 4.1420 -2.6793 0.4226 0 7
3.9446 4.1779 -2.6793 0.4226 0 7
3.9067 4.2134 -2.6793 0.4226 0 7
3.8684 4.2486 -2.6793 0.4226 0 7
3.8298 4.2834 -2.6793 0.4226 0 7
3.7909 4.3178 -2.6793 0.4226 0 7
3.7517 4.3520 -2.6793 0.4226 0 7
3.7122 4.3857 -2.6793 0.4226 0 7
3.6723 4.4191 -2.6793 0.4226 0 7
3.6322 4.4521 -2.6793 0.4226 0 7
3.5918 4.4848 -2.6793 0.4226 0 7
3.5511 4.5171 -2.6793 0.4226 0 7
3.5101 4.5491 -2.6793 0.4226 0 7
3.4688 4.5806 -2.6793 0.4226 0 7
3.4272 4.6118 -2.6793 0.4226 0 7
3.3854 4.6426 -2.6793 0.4226 0 7
3.3432 4.6731 -2.6793 0.4226 0 7
3.3008 4.7031 -2.6793 0.4226 0 7
3.2581 4.7328 -2.6793 0.4226 0 7
3.2152 4.7621 -2.6793 0.4226 0 7
3.1720 4.7909 -2.6793 0.4226 0 7
3.1285 4.8194 -2.6793 0.4226 0 7
3.0848 4.8475 -2.6793 0.4226 0 7
3.0408 4.8753 -2.6793 0.4226 0 7
2.9966 4.9026 -2.6793 0.4226 0 7
2.9521 4.9295 -2.6793 0.4226 0 7
2.9074 4.9560 -2.6793 0.4226 0 7
2.8625 4.9821 -2.6793 0.4226 0 7
2.8173 5.0077 -2.6793 0.4226 0 7
2.7719 5.0330 -2.6793 0.4226 0 7
2.7262 5.0579 -2.6793 0.4226 0 7
2.6804 5.0823 -2.6793 0.4226 0 7
2.6343 5.1064 -2.6793 0.4226 0 7
2.5880 5.1300 -2.6793 0.4226 0 7
2.5415 5.1532 -2.6793 0.4226 0 7
2.4947 5.1760 -2.6793 0.4226 0 7
2.4478 5.1983 -2.6793 0.4226 0 7
2.4007 5.2203 -2.6793 0.4226 0 7
2.3534 5.2418 -2.6793 0.4226 0 7
2.3059 5.2628 -2.6793 0.4226 0 7
2.2582 5.2835 -2.6793 0.4226 0 7
2.2103 5.3037 -2.6793 0.4226 0 7
2.1622 5.3235 -2.6793 0.4226 0 7
2.1140 5.3428 -2.6793 0.4226 0 7
2.0656 5.3617 -2.6793 0.4226 0 7
2.0170 5.3802 -2.6793 0.4226 0 7
1.9682 5.3982 -2.6793 0.4226 0 7
1.9193 5.4158 -2.6793 0.4226 0 7
1.8703 5.4329 -2.6793 0.4226 0 7
1.8210 5.4496 -2.6793 0.4226 0 7
1.7717 5.4659 -2.6793 0.4226 0 7
1.7222 5.4817 -2.6793 0.4226 0 7
1.6725 5.4970 -2.6793 0.4226 0 7
1.6227 5.5119 -2.6793 0.4226 0 7
1.5728 5.5264 -2.6793 0.4226 0 7
1.5227 5.5404 -2.6793 0.4226 0 7
1.4725 5.5539 -2.6793 0.4226 0 7
1.4223 5.5670 -2.6793 0.4226 0 7
1.3718 5.5796 -2.6793 0.4226 0 7
1.3213 5.5918 -2.6793 0.4226 0 7
1.2707 5.6036 -2.6793 0.4226 0 7
1.2199 5.6148 -2.6793 0.4226 0 7
1.1691 5.6256 -2.6793 0.4226 0 7
1.1182 5.6360 -2.6793 0.4226 0 7
1.0671 5.6459 -2.6793 0.4226 0 7
1.0160 5.6553 -2.6793 0.4226 0 7
0.9648 5.6642 -2.6793 0.4226 0 7
0.9135 5.6727 -2.6793 0.4226 0 7
0.8622 5.6808 -2.6793 0.4226 0 7
0.8108 5.6883 -2.6793 0.4226 0 7
0.7593 5.6954 -2.6793 0.4226 0 7
0.7077 5.7021 -2.6793 0.4226 0 7
0.6561 5.7082 -2.6793 0.4226 0 7
0.6045 5.7139 -2.6793 0.4226 0 7
0.5528 5.7192 -2.6793 0.4226 0 7
0.5010 5.7239 -2.6793 0.4226 0 7
0.4492 5.7282 -2.6793 0.4226 0 7
0.3974 5.7321 -2.6793 0.4226 0 7
0.3455 5.7354 -2.6793 0.4226 0 7
0.2936 5.7383 -2.6793 0.4226 0 7
0.2417 5.7407 -2.6793 0.4226 0 7
0.1898 5.7427 -2.6793 0.4226 0 7
0.1378 5.7442 -2.6793 0.4226 0 7
0.0858 5.7452 -2.6793 0.4226 0 7
0.0339 5.7457 -2.6793 0.4226 0 7
-0.0181 5.7458 -2.6793 0.4226 0 7
-0.0701 5.7454 -2.6793 0.4226 0 7
-0.1220 5.7445 -2.6793 0.4226 0 7
-0.1740 5.7432 -2.6793 0.4226 0 7
-0.2259 5.7414 -2.6793 0.4226 0 7
-0.2779 5.7391 -2.6793 0.4226 0 7
-0.3298 5.7363 -2.6793 0.4226 0 7
-0.3817 5.7331 -2.6793 0.4226 0 7
-0.4335 5.7295 -2.6793 0.4226 0 7
-0.4853 5.7253 -2.6793 0.4226 0 7
-0.5371 5.7207 -2.6793 0.4226 0 7
-0.5888 5.7156 -2.6793 0.4226 0 7
-0.6405 5.7100 -2.6793 0.4226 0 7
-0.6921 5.7040 -2.6793 0.4226 0 7
-0.7437 5.6975 -2.6793 0.4226 0 7
-0.7952 5.6905 -2.6793 0.4226 0 7
-0.8466 5.6831 -2.6793 0.4226 0 7
-0.8980 5.6752 -2.6793 0.4226 0 7
-0.9493 5.6669 -2.6793 0.4226 0 7
-1.0005 5.6581 -2.6793 0.4226 0 7
-1.0516 5.6488 -2.6793 0.4226 0 7
-1.1027 5.6390 -2.6793 0.4226 0 7
-1.1537 5.6288 -2.6793 0.4226 0 7
-1.2045 5.6182 -2.6793 0.4226 0 7
-1.2553 5.6070 -2.6793 0.4226 0 7
-1.3060 5.5954 -2.6793 0.4226 0 7
-1.3565 5.5834 -2.6793 0.4226 0 7
-1.4070 5.5709 -2.6793 0.4226 0 7
-1.4573 5.5579 -2.6793 0.4226 0 7
-1.5075 5.5445 -2.6793 0.4226 0 7
-1.5576 5.5307 -2.6793 0.4226 0 7
-1.6076 5.5163 -2.6793 0.4226 0 7
-1.6574 5.5016 -2.6793 0.4226 0 7
-1.7071 5.4864 -2.6793 0.4226 0 7
-1.7567 5.4707 -2.6793 0.4226 0 7
-1.8061 5.4546 -2.6793 0.4226 0 7
-1.8553 5.4380 -2.6793 0.4226 0 7
-1.9045 5.4210 -2.6793 0.4226 0 7
-1.9534 5.4036 -2.6793 0.4226 0 7
-2.0022 5.3857 -2.6793 0.4226 0 7
-2.0508 5.3673 -2.6793 0.4226 0 7
-2.0993 5.3486 -2.6793 0.4226 0 7
-2.1476 5.3294 -2.6793 0.4226 0 7
-2.1957 5.3097 -2.6793 0.4226 0 7
-2.2437 5.2896 -2.6793 0.4226 0 7
-2.2914 5.2691 -2.6793 0.4226 0 7
-2.3390 5.2482 -2.6793 0.4226 0 7
-2.3864 5.2268 -2.6793 0.4226 0 7
-2.4336 5.2050 -2.6793 0.4226 0 7
-2.4805 5.1828 -2.6793 0.4226 0 7
-2.5273 5.1601 -2.6793 0.4226 0 7
-2.5739 5.1371 -2.6793 0.4226 0 7
-2.6203 5.1136 -2.6793 0.4226 0 7
-2.6664 5.0897 -2.6793 0.4226 0 7
-2.7123 5.0653 -2.6793 0.4226 0 7
-2.7580 5.0406 -2.6793 0.4226 0 7
-2.8035 5.0154 -2.6793 0.4226 0 7
-2.8488 4.9899 -2.6793 0.4226 0 7
-2.8938 4.9639 -2.6793 0.4226 0 7
-2.9386 4.9375 -2.6793 0.4226 0 7
-2.9831 4.9107 -2.6793 0.4226 0 7
-3.0274 4.8836 -2.6793 0.4226 0 7
-3.0715 4.8560 -2.6793 0.4226 0 7
-3.1153 4.8280 -2.6793 0.4226 0 7
-3.1588 4.7996 -2.6793 0.4226 0 7
-3.2021 4.7708 -2.6793 0.4226 0 7
-3.2451 4.7417 -2.6793 0.4226 0 7
-3.2879 4.7121 -2.6793 0.4226 0 7
-3.3304 4.6822 -2.6793 0.4226 0 7
-3.3726 4.6519 -2.6793 0.4226 0 7
-3.4145 4.6212 -2.6793 0.4226 0 7
-3.4562 4.5901 -2.6793 0.4226 0 7
-3.4976 4.5587 -2.6793 0.4226 0 7
-3.5387 4.5268 -2.6793 0.4226 0 7
-3.5795 4.4946 -2.6793 0.4226 0 7
-3.6200 4.4621 -2.6793 0.4226 0 7
-3.6602 4.4292 -2.6793 0.4226 0 7
-3.7001 4.3959 -2.6793 0.4226 0 7
-3.7397 4.3622 -2.6793 0.4226 0 7
-3.7790 4.3282 -2.6793 0.4226 0 7
-3.8180 4.2939 -2.6793 0.4226 0 7
-3.8567 4.2591 -2.6793 0.4226 0 7
-3.8951 4.2241 -2.6793 0.4226 0 7
-3.9331 4.1887 -2.6793 0.4226 0 7
-3.9708 4.1529 -2.6793 0.4226 0 7
-4.0082 4.1168 -2.6793 0.4226 0 7
-4.0453 4.0804 -2.6793 0.4226 0 7
-4.0821 4.0436 -2.6793 0.4226 0 7
-4.1185 4.0066 -2.6793 0.4226 0 7
-4.1546 3.9691 -2.6793 0.4226 0 7
-4.1903 3.9314 -2.6793 0.4226 0 7
-4.2257 3.8933 -2.6793 0.4226 0 7
-4.2607 3.8550 -2.6793 0.4226 0 7
-4.2954 3.8162 -2.6793 0.4226 0 7
-4.3298 3.7772 -2.6793 0.4226 0 7
-4.3638 3.7379 -2.6793 0.4226 0 7
-4.3974 3.6983 -2.6793 0.4226 0 7
-4.4307 3.6584 -2.6793 0.4226 0 7
-4.4636 3.6181 -2.6793 0.4226 0 7
-4.4961 3.5776 -2.6793 0.4226 0 7
-4.5283 3.5368 -2.6793 0.4226 0 7
-4.5601 3.4957 -2.6793 0.4226 0 7
-4.5915 3.4543 -2.6793 0.4226 0 7
-4.6226 3.4126 -2.6793 0.4226 0 7
-4.6533 3.3707 -2.6793 0.4226 0 7
-4.6836 3.3285 -2.6793 0.4226 0 7
-4.7135 3.2859 -2.6793 0.4226 0 7
-4.7430 3.2432 -2.6793 0.4226 0 7
-4.7722 3.2001 -2.6793 0.4226 0 7
-4.8009 3.1568 -2.6793 0.4226 0 7
-4.8293 3.1133 -2.6793 0.4226 0 7
-4.8572 3.0695 -2.6793 0.4226 0 7
-4.8848 3.0254 -2.6793 0.4226 0 7
-4.9120 2.9811 -2.6793 0.4226 0 7
-4.9387 2.9365 -2.6793 0.4226 0 7
-4.9651 2.8917 -2.6793 0.4226 0 7
-4.9911 2.8467 -2.6793 0.4226 0 7
-5.0166 2.8015 -2.6793 0.4226 0 7
-5.0417 2.7560 -2.6793 0.4226 0 7
-5.0665 2.7103 -2.6793 0.4226 0 7
-5.0908 2.6643 -2.6793 0.4226 0 7
-5.1146 2.6182 -2.6793 0.4226 0 7
-5.1381 2.5718 -2.6793 0.4226 0 7
-5.1612 2.5252 -2.6793 0.4226 0 7
-5.1838 2.4784 -2.6793 0.4226 0 7
-5.2060 2.4314 -2.6793 0.4226 0 7
-5.2278 2.3842 -2.6793 0.4226 0 7
-5.2492 2.3368 -2.6793 0.4226 0 7
-5.2701 2.2893 -2.6793 0.4226 0 7
-5.2906 2.2415 -2.6793 0.4226 0 7
-5.3106 2.1936 -2.6793 0.4226 0 7
-5.3302 2.1454 -2.6793 0.4226 0 7
-5.3494 2.0971 -2.6793 0.4226 0 7
-5.3682 2.0487 -2.6793 0.4226 0 7
-5.3865 2.0000 -2.6793 0.4226 0 7
-5.4044 1.9512 -2.6793 0.4226 0 7
-5.4218 1.9022 -2.6793 0.4226 0 7
-5.4388 1.8531 -2.6793 0.4226 0 7
-5.4553 1.8038 -2.6793 0.4226 0 7
-5.4714 1.7544 -2.6793 0.4226 0 7
-5.4871 1.7049 -2.6793 0.4226 0 7
-5.5023 1.6551 -2.6793 0.4226 0 7
-5.5170 1.6053 -2.6793 0.4226 0 7
-5.5313 1.5553 -2.6793 0.4226 0 7
-5.5452 1.5052 -2.6793 0.4226 0 7
-5.5585 1.4550 -2.6793 0.4226 0 7
-5.5715 1.4047 -2.6793 0.4226 0 7
-5.5840 1.3542 -2.6793 0.4226 0 7
-5.5960 1.3037 -2.6793 0.4226 0 7
-5.6075 1.2530 -2.6793 0.4226 0 7
-5.6186 1.2022 -2.6793 0.4226 0 7
-5.6293 1.1513 -2.6793 0.4226 0 7
-5.6395 1.1004 -2.6793 0.4226 0 7
-5.6492 1.0493 -2.6793 0.4226 0 7
-1.8680 0.3295 -0.8845 0.2274 132 10
-1.8707 0.3126 -0.8844 0.2983 132 10
-1.8728 0.2955 -0.8841 0.2984 132 10
-1.8746 0.2785 -0.8838 0.2985 132 10
-1.8763 0.2614 -0.8834 0.2987 132 10
-1.8777 0.2443 -0.8830 0.2988 132 10
-1.8790 0.2272 -0.8826 0.2989 132 10
-1.8800 0.2101 -0.8821 0.2991 132 10
-1.8808 0.1930 -0.8816 0.2993 132 10
-1.8814 0.1758 -0.8811 0.2994 132 10
-1.8817 0.1587 -0.8806 0.2996 132 10
-1.8819 0.1416 -0.8800 0.2998 132 10
-1.8818 0.1245 -0.8794 0.3000 132 10
-1.8815 0.1074 -0.8788 0.3002 132 10
-1.8810 0.0903 -0.8781 0.3004 132 10
-1.8803 0.0732 -0.8775 0.3007 132 10
-1.8794 0.0562 -0.8768 0.3009 132 10
-1.8782 0.0391 -0.8760 0.3012 132 10
-1.8769 0.0221 -0.8753 0.3014 132 10
-1.8753 0.0051 -0.8745 0.3017 132 10
-1.8760 -0.0118 -0.8748 0.3016 132 10
-1.8774 -0.0288 -0.8756 0.3013 132 10
-1.8787 -0.0458 -0.8763 0.3011 132 10
-1.8798 -0.0629 -0.8770 0.3008 132 10
-1.8806 -0.0800 -0.8777 0.3006 132 10
-1.8812 -0.0970 -0.8784 0.3004 132 10
-1.8817 -0.1141 -0.8790 0.3001 132 10
-1.8818 -0.1312 -0.8797 0.2999 132 10
-1.8818 -0.1483 -0.8802 0.2997 132 10
-1.8816 -0.1655 -0.8808 0.2995 132 10
-1.8812 -0.1826 -0.8813 0.2994 132 10
-1.8805 -0.1997 -0.8818 0.2992 132 10
-1.8796 -0.2168 -0.8823 0.2990 132 10
-1.8785 -0.2339 -0.8827 0.2989 132 10
-1.8772 -0.2510 -0.8832 0.2987 132 10
-1.8757 -0.2681 -0.8835 0.2986 132 10
-1.8739 -0.2852 -0.8839 0.2985 132 10
-1.8720 -0.3023 -0.8842 0.2984 132 10
-1.8695 -0.3192 -0.8844 0.2871 132 10
-1.8783 -0.3383 -0.8899 0.2261 132 10
-5.6454 -1.0695 -2.6793 0.4226 0 7
-5.6355 -1.1205 -2.6793 0.4226 0 7
-5.6252 -1.1714 -2.6793 0.4226 0 7
-5.6143 -1.2223 -2.6793 0.4226 0 7
-5.6030 -1.2730 -2.6793 0.4226 0 7
-5.5913 -1.3236 -2.6793 0.4226 0 7
-5.5791 -1.3741 -2.6793 0.4226 0 7
-5.5664 -1.4246 -2.6793 0.4226 0 7
-5.5533 -1.4748 -2.6793 0.4226 0 7
-5.5397 -1.5250 -2.6793 0.4226 0 7
-5.5257 -1.5750 -2.6793 0.4226 0 7
-5.5113 -1.6250 -2.6793 0.4226 0 7
-5.4963 -1.6748 -2.6793 0.4226 0 7
-5.4810 -1.7244 -2.6793 0.4226 0 7
-5.4651 -1.7739 -2.6793 0.4226 0 7
-5.4489 -1.8233 -2.6793 0.4226 0 7
-5.4321 -1.8725 -2.6793 0.4226 0 7
-5.4150 -1.9215 -2.6793 0.4226 0 7
-5.3974 -1.9705 -2.6793 0.4226 0 7
-5.3793 -2.0192 -2.6793 0.4226 0 7
-5.3609 -2.0678 -2.6793 0.4226 0 7
-5.3419 -2.1162 -2.6793 0.4226 0 7
-5.3226 -2.1644 -2.6793 0.4226 0 7
-5.3028 -2.2125 -2.6793 0.4226 0 7
-5.2825 -2.2604 -2.6793 0.4226 0 7
-5.2619 -2.3080 -2.6793 0.4226 0 7
-5.2408 -2.3555 -2.6793 0.4226 0 7
-5.2193 -2.4029 -2.6793 0.4226 0 7
-5.1973 -2.4500 -2.6793 0.4226 0 7
-5.1750 -2.4969 -2.6793 0.4226 0 7
-5.1521 -2.5436 -2.6793 0.4226 0 7
-5.1289 -2.5901 -2.6793 0.4226 0 7
-5.1053 -2.6364 -2.6793 0.4226 0 7
-5.0812 -2.6824 -2.6793 0.4226 0 7
-5.0568 -2.7283 -2.6793 0.4226 0 7
-5.0319 -2.7739 -2.6793 0.4226 0 7
-5.0066 -2.8193 -2.6793 0.4226 0 7
-4.9809 -2.8645 -2.6793 0.4226 0 7
-4.9548 -2.9094 -2.6793 0.4226 0 7
-4.9282 -2.9542 -2.6793 0.4226 0 7
-4.9013 -2.9986 -2.6793 0.4226 0 7
-4.8740 -3.0428 -2.6793 0.4226 0 7
-4.8463 -3.0868 -2.6793 0.4226 0 7
-4.8182 -3.1305 -2.6793 0.4226 0 7
-4.7896 -3.1739 -2.6793 0.4226 0 7
-4.7607 -3.2171 -2.6793 0.4226 0 7
-4.7314 -3.2601 -2.6793 0.4226 0 7
-4.7017 -3.3027 -2.6793 0.4226 0 7
-4.6717 -3.3451 -2.6793 0.4226 0 7
-4.6412 -3.3873 -2.6793 0.4226 0 7
-4.6104 -3.4291 -2.6793 0.4226 0 7
-4.5792 -3.4707 -2.6793 0.4226 0 7
-4.5476 -3.5119 -2.6793 0.4226 0 7
-4.5157 -3.5529 -2.6793 0.4226 0 7
-4.4833 -3.5936 -2.6793 0.4226 0 7
-4.4507 -3.6340 -2.6793 0.4226 0 7
-4.4176 -3.6741 -2.6793 0.4226 0 7
-4.3842 -3.7140 -2.6793 0.4226 0 7
-4.3504 -3.7534 -2.6793 0.4226 0 7
-4.3163 -3.7926 -2.6793 0.4226 0 7
-4.2818 -3.8315 -2.6793 0.4226 0 7
-4.2470 -3.8701 -2.6793 0.4226 0 7
-4.2118 -3.9084 -2.6793 0.4226 0 7
-4.1762 -3.9463 -2.6793 0.4226 0 7
-4.1404 -3.9839 -2.6793 0.4226 0 7
-4.1042 -4.0212 -2.6793 0.4226 0 7
-4.0676 -4.0582 -2.6793 0.4226 0 7
-4.0308 -4.0948 -2.6793 0.4226 0 7
-3.9936 -4.1311 -2.6793 0.4226 0 7
-3.9560 -4.1671 -2.6793 0.4226 0 7
-3.9182 -4.2027 -2.6793 0.4226 0 7
-3.8800 -4.2379 -2.6793 0.4226 0 7
-3.8415 -4.2729 -2.6793 0.4226 0 7
-3.8027 -4.3074 -2.6793 0.4226 0 7
-3.7636 -4.3417 -2.6793 0.4226 0 7
-3.7242 -4.3755 -2.6793 0.4226 0 7
-3.6844 -4.4090 -2.6793 0.4226 0 7
-3.6444 -4.4422 -2.6793 0.4226 0 7
-3.6041 -4.4750 -2.6793 0.4226 0 7
-3.5634 -4.5074 -2.6793 0.4226 0 7
-3.5225 -4.5394 -2.6793 0.4226 0 7
-3.4813 -4.5711 -2.6793 0.4226 0 7
-3.4398 -4.6024 -2.6793 0.4226 0 7
-3.3980 -4.6333 -2.6793 0.4226 0 7
-3.3560 -4.6639 -2.6793 0.4226 0 7
-3.3137 -4.6940 -2.6793 0.4226 0 7
-3.2711 -4.7238 -2.6793 0.4226 0 7
-3.2282 -4.7532 -2.6793 0.4226 0 7
-3.1851 -4.7822 -2.6793 0.4226 0 7
-3.1417 -4.8109 -2.6793 0.4226 0 7
-3.0980 -4.8391 -2.6793 0.4226 0 7
-3.0541 -4.8669 -2.6793 0.4226 0 7
-3.0100 -4.8943 -2.6793 0.4226 0 7
-2.9656 -4.9214 -2.6793 0.4226 0 7
-2.9210 -4.9480 -2.6793 0.4226 0 7
-2.8761 -4.9742 -2.6793 0.4226 0 7
-2.8310 -5.0000 -2.6793 0.4226 0 7
-2.7856 -5.0254 -2.6793 0.4226 0 7
-2.7401 -5.0504 -2.6793 0.4226 0 7
-2.6943 -5.0750 -2.6793 0.4226 0 7
-2.6483 -5.0992 -2.6793 0.4226 0 7
-2.6020 -5.1229 -2.6793 0.4226 0 7
-2.5556 -5.1462 -2.6793 0.4226 0 7
-2.5089 -5.1691 -2.6793 0.4226 0 7
-2.4621 -5.1916 -2.6793 0.4226 0 7
