ply
format ascii 1.0
element vertex 1408
property float32 x
property float32 y
property float32 z
property float32 CosAngle
property uint32 ObjIdx
property uint32 ObjTag
end_header
6.1838 3.5024 -2.7464 0.3702 0 8
6.1500 3.5572 -2.7456 0.3703 0 8
6.0892 3.5960 -2.7329 0.6444 0 8
5.9967 3.6150 -2.7059 0.6508 0 8
5.9059 3.6335 -2.6797 0.6572 0 8
5.8168 3.6517 -2.6542 0.6635 0 8
5.7294 3.6696 -2.6293 0.6698 0 8
5.6453 3.6882 -2.6060 0.6938 0 8
5.5996 3.7311 -2.6003 0.3605 0 8
5.5656 3.7816 -2.6003 0.3605 0 8
5.5311 3.8318 -2.6003 0.3605 0 8
5.4962 3.8818 -2.6003 0.3605 0 8
5.4608 3.9313 -2.6003 0.3605 0 8
5.4250 3.9806 -2.6003 0.3605 0 8
5.3888 4.0296 -2.6003 0.3605 0 8
5.3521 4.0782 -2.6003 0.3605 0 8
5.3149 4.1265 -2.6003 0.3605 0 8
5.2774 4.1744 -2.6003 0.3605 0 8
5.2394 4.2220 -2.6003 0.3605 0 8
5.2009 4.2693 -2.6003 0.3605 0 8
5.1621 4.3162 -2.6003 0.3605 0 8
5.1228 4.3627 -2.6003 0.3605 0 8
5.0831 4.4089 -2.6003 0.3605 0 8
5.0430 4.4548 -2.6003 0.3605 0 8
5.0024 4.5002 -2.6003 0.3605 0 8
4.9615 4.5453 -2.6003 0.3605 0 8
4.9201 4.5901 -2.6003 0.3605 0 8
4.8784 4.6344 -2.6003 0.3605 0 8
4.8362 4.6784 -2.6003 0.3605 0 8
4.7937 4.7220 -2.6003 0.3605 0 8
4.7507 4.7652 -2.6003 0.3605 0 8
4.7074 4.8080 -2.6003 0.3605 0 8
4.6637 4.8504 -2.6003 0.3605 0 8
6.6722 0.0000 -2.7527 0.3814 0 7
6.6720 0.0604 -2.7527 0.3814 0 7
6.6711 0.1208 -2.7527 0.3814 0 7
6.6698 0.1812 -2.7527 0.3814 0 7
6.6679 0.2416 -2.7527 0.3814 0 7
6.6654 0.3019 -2.7527 0.3814 0 7
6.6624 0.3622 -2.7527 0.3814 0 7
6.6588 0.4225 -2.7527 0.3814 0 7
6.6547 0.4828 -2.7527 0.3814 0 6
6.6501 0.5430 -2.7527 0.3814 0 6
6.6449 0.6032 -2.7527 0.3814 0 7
6.6392 0.6633 -2.7527 0.3814 0 7
6.6329 0.7234 -2.7527 0.3814 0 7
6.6261 0.7834 -2.7527 0.3814 0 7
6.6187 0.8434 -2.7527 0.3814 0 7
6.6108 0.9032 -2.7527 0.3814 0 7
6.6024 0.9630 -2.7527 0.3814 0 7
6.5934 1.0228 -2.7527 0.3814 0 7
6.5838 1.0824 -2.7527 0.3814 0 7
6.5738 1.1420 -2.7527 0.3814 0 7
6.5632 1.2014 -2.7527 0.3814 0 7
6.5520 1.2608 -2.7527 0.3814 0 7
6.5403 1.3201 -2.7527 0.3814 0 7
6.5281 1.3792 -2.7527 0.3814 0 7
6.5154 1.4383 -2.7527 0.3814 0 7
6.5021 1.4972 -2.7527 0.3814 0 7
6.4883 1.5560 -2.7527 0.3814 0 7
6.4739 1.6146 -2.7527 0.3814 0 7
6.4590 1.6732 -2.7527 0.3814 0 7
6.4436 1.7316 -2.7527 0.3814 0 7
6.4277 1.7898 -2.7527 0.3814 0 7
6.4112 1.8480 -2.7527 0.3814 0 7
6.3942 1.9059 -2.7527 0.3814 0 7
6.3767 1.9637 -2.7527 0.3814 0 7
6.3587 2.0214 -2.7527 0.3814 0 7
6.3401 2.0789 -2.7527 0.3814 0 7
6.3210 2.1362 -2.7527 0.3814 0 7
6.3014 2.1933 -2.7527 0.3814 0 7
6.2813 2.2502 -2.7527 0.3814 0 7
6.2607 2.3070 -2.7527 0.3814 0 7
6.2396 2.3636 -2.7527 0.3814 0 7
6.2179 2.4200 -2.7527 0.3814 0 7
6.1957 2.4762 -2.7527 0.3814 0 7
6.1731 2.5322 -2.7527 0.3814 0 7
6.1499 2.5879 -2.7527 0.3814 0 7
6.1262 2.6435 -2.7527 0.3814 0 7
6.1020 2.6989 -2.7527 0.3814 0 7
6.0774 2.7540 -2.7527 0.3814 0 7
6.0522 2.8089 -2.7527 0.3814 0 7
6.0265 2.8636 -2.7527 0.3814 0 7
6.0003 2.9180 -2.7527 0.3814 0 7
5.9737 2.9722 -2.7527 0.3814 0 7
5.9465 3.0261 -2.7527 0.3814 0 7
5.9189 3.0799 -2.7527 0.3814 0 7
5.8908 3.1333 -2.7527 0.3814 0 7
5.8617 3.1863 -2.7525 0.3908 0 8
5.8309 3.2383 -2.7517 0.3909 0 8
5.7997 3.2900 -2.7509 0.3910 0 8
5.7680 3.3414 -2.7502 0.3911 0 8
5.7359 3.3925 -2.7494 0.3912 0 8
5.7034 3.4433 -2.7486 0.3913 0 8
5.6704 3.4938 -2.7478 0.3914 0 8
5.6370 3.5441 -2.7471 0.3915 0 8
5.6032 3.5940 -2.7463 0.3917 0 8
5.5689 3.6435 -2.7456 0.3918 0 8
5.5172 3.6814 -2.7364 0.6809 0 8
5.4352 3.6983 -2.7123 0.6870 0 8
5.3546 3.7148 -2.6887 0.6930 0 8
5.2754 3.7311 -2.6658 0.6989 0 8
5.1975 3.7470 -2.6434 0.7048 0 8
5.1208 3.7626 -2.6216 0.7107 0 8
5.0496 3.7812 -2.6027 0.7350 0 8
5.0108 3.8234 -2.6003 0.3814 0 8
4.9759 3.8686 -2.6003 0.3814 0 8
4.9407 3.9135 -2.6003 0.3814 0 8
4.9051 3.9580 -2.6003 0.3814 0 8
4.8690 4.0023 -2.6003 0.3814 0 8
4.8326 4.0462 -2.6003 0.3814 0 8
4.7958 4.0898 -2.6003 0.3814 0 8
4.7586 4.1330 -2.6003 0.3814 0 8
4.7210 4.1759 -2.6003 0.3814 0 8
4.6830 4.2185 -2.6003 0.3814 0 8
4.6446 4.2607 -2.6003 0.3814 0 8
4.6058 4.3026 -2.6003 0.3814 0 8
4.5667 4.3441 -2.6003 0.3814 0 8
4.5272 4.3853 -2.6003 0.3814 0 8
4.4873 4.4261 -2.6003 0.3814 0 8
4.4470 4.4665 -2.6003 0.3814 0 8
4.4064 4.5066 -2.6003 0.3814 0 8
4.3654 4.5463 -2.6003 0.3814 0 8
4.3241 4.5856 -2.6003 0.3814 0 8
4.2824 4.6246 -2.6003 0.3814 0 8
4.2404 4.6631 -2.6003 0.3814 0 8
4.1980 4.7013 -2.6003 0.3814 0 8
4.1553 4.7391 -2.6003 0.3814 0 8
4.1122 4.7766 -2.6003 0.3814 0 8
4.0688 4.8136 -2.6003 0.3814 0 8
4.0251 4.8502 -2.6003 0.3814 0 8
3.9810 4.8865 -2.6003 0.3814 0 8
3.9366 4.9223 -2.6003 0.3814 0 8
3.8919 4.9577 -2.6003 0.3814 0 8
3.8468 4.9928 -2.6003 0.3814 0 8
3.8015 5.0274 -2.6003 0.3814 0 8
3.7558 5.0616 -2.6003 0.3814 0 8
3.7098 5.0954 -2.6003 0.3814 0 8
3.6635 5.1288 -2.6003 0.3814 0 8
3.6170 5.1617 -2.6003 0.3814 0 8
3.5701 5.1942 -2.6003 0.3814 0 8
3.5229 5.2264 -2.6003 0.3814 0 8
3.4755 5.2580 -2.6003 0.3814 0 8
3.4277 5.2893 -2.6003 0.3814 0 8
3.3797 5.3201 -2.6003 0.3814 0 8
3.3314 5.3505 -2.6003 0.3814 0 8
3.2828 5.3804 -2.6003 0.3814 0 8
3.2340 5.4099 -2.6003 0.3814 0 8
3.1849 5.4390 -2.6003 0.3814 0 8
3.1355 5.4676 -2.6003 0.3814 0 8
3.0859 5.4957 -2.6003 0.3814 0 8
3.0360 5.5234 -2.6003 0.3814 0 8
2.9859 5.5507 -2.6003 0.3814 0 8
2.9355 5.5775 -2.6003 0.3814 0 8
2.8849 5.6038 -2.6003 0.3814 0 8
2.8341 5.6297 -2.6003 0.3814 0 8
2.7830 5.6551 -2.6003 0.3814 0 8
2.7317 5.6801 -2.6003 0.3814 0 8
2.6802 5.7046 -2.6003 0.3814 0 8
2.6284 5.7286 -2.6003 0.3814 0 8
2.5764 5.7522 -2.6003 0.3814 0 8
2.5243 5.7753 -2.6003 0.3814 0 8
2.4719 5.7979 -2.6003 0.3814 0 8
2.4193 5.8200 -2.6003 0.3814 0 8
2.3665 5.8417 -2.6003 0.3814 0 8
2.3135 5.8629 -2.6003 0.3814 0 8
2.2604 5.8836 -2.6003 0.3814 0 8
2.2070 5.9038 -2.6003 0.3814 0 8
2.1535 5.9235 -2.6003 0.3814 0 8
2.0998 5.9428 -2.6003 0.3814 0 8
2.0459 5.9616 -2.6003 0.3814 0 8
1.9918 5.9798 -2.6003 0.3814 0 8
1.9376 5.9976 -2.6003 0.3814 0 8
1.8832 6.0149 -2.6003 0.3814 0 8
1.8287 6.0317 -2.6003 0.3814 0 8
1.7740 6.0480 -2.6003 0.3814 0 8
1.7192 6.0638 -2.6003 0.3814 0 8
1.6642 6.0792 -2.6003 0.3814 0 8
1.6092 6.0940 -2.6003 0.3814 0 8
1.5539 6.1083 -2.6003 0.3814 0 8
1.4986 6.1221 -2.6003 0.3814 0 8
1.4431 6.1354 -2.6003 0.3814 0 8
1.3875 6.1482 -2.6003 0.3814 0 8
1.3318 6.1605 -2.6003 0.3814 0 8
1.2759 6.1723 -2.6003 0.3814 0 8
1.2200 6.1836 -2.6003 0.3814 0 8
1.1640 6.1944 -2.6003 0.3814 0 8
1.1079 6.2047 -2.6003 0.3814 0 8
1.0517 6.2145 -2.6003 0.3814 0 8
0.9954 6.2238 -2.6003 0.3814 0 8
0.9390 6.2325 -2.6003 0.3814 0 8
0.8825 6.2408 -2.6003 0.3814 0 8
0.8260 6.2485 -2.6003 0.3814 0 8
0.7694 6.2557 -2.6003 0.3814 0 8
0.7127 6.2624 -2.6003 0.3814 0 8
0.6560 6.2686 -2.6003 0.3814 0 8
0.5992 6.2743 -2.6003 0.3814 0 8
0.5424 6.2795 -2.6003 0.3814 0 8
0.4855 6.2841 -2.6003 0.3814 0 8
0.4286 6.2883 -2.6003 0.3814 0 8
0.3717 6.2919 -2.6003 0.3814 0 8
0.3147 6.2950 -2.6003 0.3814 0 8
0.2577 6.2976 -2.6003 0.3814 0 8
0.2007 6.2996 -2.6003 0.3814 0 8
0.1437 6.3012 -2.6003 0.3814 0 8
0.0866 6.3022 -2.6003 0.3814 0 8
0.0296 6.3028 -2.6003 0.3814 0 8
-0.0275 6.3028 -2.6003 0.3814 0 8
-0.0846 6.3023 -2.6003 0.3814 0 8
-0.1416 6.3013 -2.6003 0.3814 0 8
-0.1986 6.2997 -2.6003 0.3814 0 8
-0.2557 6.2977 -2.6003 0.3814 0 8
-0.3127 6.2951 -2.6003 0.3814 0 8
-0.3696 6.2920 -2.6003 0.3814 0 8
-0.4266 6.2884 -2.6003 0.3814 0 8
-0.4835 6.2843 -2.6003 0.3814 0 8
-0.5403 6.2796 -2.6003 0.3814 0 8
-0.5972 6.2745 -2.6003 0.3814 0 8
-0.6539 6.2688 -2.6003 0.3814 0 8
-0.7107 6.2627 -2.6003 0.3814 0 8
-0.7673 6.2560 -2.6003 0.3814 0 8
-0.8239 6.2488 -2.6003 0.3814 0 8
-0.8805 6.2410 -2.6003 0.3814 0 8
-0.9369 6.2328 -2.6003 0.3814 0 8
-0.9933 6.2241 -2.6003 0.3814 0 8
-1.0496 6.2148 -2.6003 0.3814 0 8
-1.1058 6.2051 -2.6003 0.3814 0 8
-1.1620 6.1948 -2.6003 0.3814 0 8
-1.2180 6.1840 -2.6003 0.3814 0 8
-1.2739 6.1728 -2.6003 0.3814 0 8
-1.3297 6.1610 -2.6003 0.3814 0 8
-1.3855 6.1487 -2.6003 0.3814 0 8
-1.4411 6.1359 -2.6003 0.3814 0 8
-1.4966 6.1226 -2.6003 0.3814 0 8
-1.5519 6.1088 -2.6003 0.3814 0 8
-1.6071 6.0945 -2.6003 0.3814 0 8
-1.4562 5.3260 -2.2780 0.3920 0 5
-1.4757 5.2113 -2.2345 0.3996 0 5
-1.5014 5.1246 -2.2031 0.8529 0 5
-1.5542 5.1323 -2.2124 0.8493 0 5
-1.6075 5.1401 -2.2219 0.8457 0 5
-1.6612 5.1479 -2.2317 0.8420 0 5
-1.7155 5.1558 -2.2418 0.8382 0 5
-2.0439 5.9622 -2.6003 0.3814 0 8
-2.0978 5.9435 -2.6003 0.3814 0 8
-2.1515 5.9243 -2.6003 0.3814 0 8
-2.2051 5.9045 -2.6003 0.3814 0 8
-2.2584 5.8843 -2.6003 0.3814 0 8
-2.3116 5.8636 -2.6003 0.3814 0 8
-2.3646 5.8425 -2.6003 0.3814 0 8
-2.4174 5.8208 -2.6003 0.3814 0 8
-2.4700 5.7987 -2.6003 0.3814 0 8
-2.5224 5.7761 -2.6003 0.3814 0 8
-2.5746 5.7530 -2.6003 0.3814 0 8
-2.6265 5.7295 -2.6003 0.3814 0 8
-2.6783 5.7055 -2.6003 0.3814 0 8
-2.7298 5.6810 -2.6003 0.3814 0 8
-2.7811 5.6561 -2.6003 0.3814 0 8
-2.8322 5.6307 -2.6003 0.3814 0 8
-2.8831 5.6048 -2.6003 0.3814 0 8
-2.9337 5.5785 -2.6003 0.3814 0 8
-2.9841 5.5517 -2.6003 0.3814 0 8
-3.0342 5.5244 -2.6003 0.3814 0 8
-3.0841 5.4967 -2.6003 0.3814 0 8
-3.1337 5.4686 -2.6003 0.3814 0 8
-3.1831 5.4400 -2.6003 0.3814 0 8
-3.2322 5.4110 -2.6003 0.3814 0 8
-3.2811 5.3815 -2.6003 0.3814 0 8
-3.3297 5.3516 -2.6003 0.3814 0 8
-3.3780 5.3212 -2.6003 0.3814 0 8
-3.4260 5.2904 -2.6003 0.3814 0 8
-3.4738 5.2592 -2.6003 0.3814 0 8
-3.5212 5.2275 -2.6003 0.3814 0 8
-3.5684 5.1954 -2.6003 0.3814 0 8
-3.6153 5.1629 -2.6003 0.3814 0 8
-3.6619 5.1300 -2.6003 0.3814 0 8
-3.7109 5.1003 -2.6022 0.7351 0 8
-3.7840 5.1031 -2.6210 0.7109 0 8
-3.8619 5.1108 -2.6428 0.7050 0 8
-3.9410 5.1185 -2.6651 0.6991 0 8
-4.0215 5.1263 -2.6880 0.6931 0 8
-4.1033 5.1342 -2.7116 0.6871 0 8
-4.1865 5.1422 -2.7357 0.6811 0 8
-4.2482 5.1225 -2.7456 0.3918 0 8
-4.2956 5.0852 -2.7463 0.3917 0 8
-4.3426 5.0475 -2.7471 0.3916 0 8
-4.3893 5.0094 -2.7478 0.3914 0 8
-4.4357 4.9708 -2.7486 0.3913 0 8
-4.4818 4.9319 -2.7494 0.3912 0 8
-4.5275 4.8925 -2.7501 0.3911 0 8
-4.5729 4.8527 -2.7509 0.3910 0 8
-4.6180 4.8124 -2.7517 0.3909 0 8
-4.6627 4.7718 -2.7525 0.3908 0 8
-4.7061 4.7298 -2.7527 0.3814 0 7
-4.7488 4.6870 -2.7527 0.3814 0 7
-4.7910 4.6438 -2.7527 0.3814 0 7
-4.8328 4.6003 -2.7527 0.3814 0 7
-4.8743 4.5564 -2.7527 0.3814 0 7
-4.9153 4.5120 -2.7527 0.3814 0 7
-4.9560 4.4674 -2.7527 0.3814 0 7
-4.9962 4.4223 -2.7527 0.3814 0 7
-5.0360 4.3769 -2.7527 0.3814 0 7
-5.0754 4.3311 -2.7527 0.3814 0 7
-5.1144 4.2850 -2.7527 0.3814 0 7
-5.1530 4.2385 -2.7527 0.3814 0 7
-5.1912 4.1917 -2.7527 0.3814 0 7
-5.2289 4.1446 -2.7527 0.3814 0 7
-5.2662 4.0970 -2.7527 0.3814 0 7
-5.3031 4.0492 -2.7527 0.3814 0 7
-5.3395 4.0010 -2.7527 0.3814 0 7
-5.3756 3.9525 -2.7527 0.3814 0 7
-5.4111 3.9037 -2.7527 0.3814 0 7
-5.4462 3.8546 -2.7527 0.3814 0 7
-5.4809 3.8051 -2.7527 0.3814 0 7
-5.5151 3.7553 -2.7527 0.3814 0 7
-5.5489 3.7053 -2.7527 0.3814 0 7
-5.5822 3.6549 -2.7527 0.3814 0 7
-5.6151 3.6042 -2.7527 0.3814 0 7
-5.6475 3.5532 -2.7527 0.3814 0 7
-5.6794 3.5019 -2.7527 0.3814 0 7
-5.7109 3.4504 -2.7527 0.3814 0 7
-5.7418 3.3985 -2.7527 0.3814 0 7
-5.7724 3.3464 -2.7527 0.3814 0 7
-5.8024 3.2940 -2.7527 0.3814 0 7
-5.8320 3.2414 -2.7527 0.3814 0 7
-5.8611 3.1885 -2.7527 0.3814 0 7
-5.8897 3.1353 -2.7527 0.3814 0 7
-5.9179 3.0818 -2.7527 0.3814 0 7
-5.9455 3.0281 -2.7527 0.3814 0 7
-5.9727 2.9742 -2.7527 0.3814 0 7
-5.9994 2.9200 -2.7527 0.3814 0 7
-6.0256 2.8656 -2.7527 0.3814 0 7
-6.0513 2.8109 -2.7527 0.3814 0 7
-6.0764 2.7560 -2.7527 0.3814 0 7
-6.1012 2.7009 -2.7527 0.3814 0 7
-6.1254 2.6455 -2.7527 0.3814 0 7
-6.1491 2.5900 -2.7527 0.3814 0 7
-6.1723 2.5342 -2.7527 0.3814 0 7
-6.1949 2.4782 -2.7527 0.3814 0 6
-6.2171 2.4221 -2.7527 0.3814 0 6
-6.2388 2.3657 -2.7527 0.3814 0 7
-6.2599 2.3091 -2.7527 0.3814 0 7
-6.2806 2.2523 -2.7527 0.3814 0 7
-6.3007 2.1954 -2.7527 0.3814 0 7
-6.3203 2.1383 -2.7527 0.3814 0 7
-6.3394 2.0810 -2.7527 0.3814 0 7
-6.3580 2.0235 -2.7527 0.3814 0 7
-6.3761 1.9658 -2.7527 0.3814 0 7
-6.3936 1.9080 -2.7527 0.3814 0 7
-6.4106 1.8501 -2.7527 0.3814 0 7
-6.4271 1.7920 -2.7527 0.3814 0 7
-6.4431 1.7337 -2.7527 0.3814 0 7
-6.4585 1.6753 -2.7527 0.3814 0 7
-6.4734 1.6168 -2.7527 0.3814 0 7
-6.4878 1.5581 -2.7527 0.3814 0 7
-6.5016 1.4993 -2.7527 0.3814 0 7
-6.5149 1.4404 -2.7527 0.3814 0 7
-6.5277 1.3814 -2.7527 0.3814 0 7
-6.5399 1.3222 -2.7527 0.3814 0 7
-6.5516 1.2630 -2.7527 0.3814 0 7
-6.5628 1.2036 -2.7527 0.3814 0 7
-6.5734 1.1442 -2.7527 0.3814 0 7
-6.5835 1.0846 -2.7527 0.3814 0 7
-6.5931 1.0250 -2.7527 0.3814 0 7
-6.6021 0.9652 -2.7527 0.3814 0 7
-6.6105 0.9054 -2.7527 0.3814 0 7
-6.6185 0.8456 -2.7527 0.3814 0 7
-6.6258 0.7856 -2.7527 0.3814 0 7
-6.6327 0.7256 -2.7527 0.3814 0 7
-6.6390 0.6655 -2.7527 0.3814 0 7
-6.6447 0.6054 -2.7527 0.3814 0 7
-6.6499 0.5452 -2.7527 0.3814 0 7
-6.6546 0.4850 -2.7527 0.3814 0 7
-6.6587 0.4247 -2.7527 0.3814 0 7
-6.6623 0.3644 -2.7527 0.3814 0 7
-6.6653 0.3041 -2.7527 0.3814 0 7
-6.6678 0.2438 -2.7527 0.3814 0 7
-6.6697 0.1834 -2.7527 0.3814 0 7
-6.6711 0.1230 -2.7527 0.3814 0 7
-6.6720 0.0626 -2.7527 0.3814 0 7
-6.6723 0.0022 -2.7527 0.3814 0 7
-6.6720 -0.0582 -2.7527 0.3814 0 7
-6.6712 -0.1186 -2.7527 0.3814 0 7
-6.6699 -0.1790 -2.7527 0.3814 0 7
-6.6679 -0.2393 -2.7527 0.3814 0 7
-6.6655 -0.2997 -2.7527 0.3814 0 7
-6.6625 -0.3600 -2.7527 0.3814 0 7
-6.6590 -0.4203 -2.7527 0.3814 0 7
-6.6549 -0.4806 -2.7527 0.3814 0 7
-6.6503 -0.5408 -2.7527 0.3814 0 7
-6.6451 -0.6010 -2.7527 0.3814 0 7
-6.6394 -0.6611 -2.7527 0.3814 0 7
-6.6332 -0.7212 -2.7527 0.3814 0 7
-6.6264 -0.7812 -2.7527 0.3814 0 7
-6.6190 -0.8412 -2.7527 0.3814 0 7
-6.6111 -0.9010 -2.7527 0.3814 0 7
-6.6027 -0.9609 -2.7527 0.3814 0 6
-6.5937 -1.0206 -2.7527 0.3814 0 6
-6.5842 -1.0802 -2.7527 0.3814 0 6
-6.5742 -1.1398 -2.7527 0.3814 0 7
-6.5636 -1.1993 -2.7527 0.3814 0 7
-6.5525 -1.2586 -2.7527 0.3814 0 7
-6.5408 -1.3179 -2.7527 0.3814 0 7
-6.5286 -1.3770 -2.7527 0.3814 0 7
-6.5159 -1.4361 -2.7527 0.3814 0 7
-6.5026 -1.4950 -2.7527 0.3814 0 7
-6.4888 -1.5538 -2.7527 0.3814 0 7
-6.4745 -1.6125 -2.7527 0.3814 0 7
-6.4596 -1.6710 -2.7527 0.3814 0 7
-6.4442 -1.7294 -2.7527 0.3814 0 7
-6.4283 -1.7877 -2.7527 0.3814 0 7
-6.4119 -1.8458 -2.7527 0.3814 0 7
-6.3949 -1.9038 -2.7527 0.3814 0 7
-6.3774 -1.9616 -2.7527 0.3814 0 7
-6.3594 -2.0193 -2.7527 0.3814 0 7
-6.3408 -2.0767 -2.7527 0.3814 0 7
-6.3218 -2.1341 -2.7527 0.3814 0 7
-6.3022 -2.1912 -2.7527 0.3814 0 7
-6.2821 -2.2482 -2.7527 0.3814 0 7
-6.2615 -2.3049 -2.7527 0.3814 0 7
-6.2404 -2.3615 -2.7527 0.3814 0 7
-6.2187 -2.4179 -2.7527 0.3814 0 7
-6.1966 -2.4741 -2.7527 0.3814 0 7
-6.1739 -2.5301 -2.7527 0.3814 0 7
-6.1508 -2.5859 -2.7527 0.3814 0 7
-6.1271 -2.6415 -2.7527 0.3814 0 7
-6.1029 -2.6968 -2.7527 0.3814 0 7
-6.0783 -2.7520 -2.7527 0.3814 0 7
-6.0531 -2.8069 -2.7527 0.3814 0 7
-6.0275 -2.8616 -2.7527 0.3814 0 7
-6.0013 -2.9160 -2.7527 0.3814 0 7
-5.9747 -2.9702 -2.7527 0.3814 0 7
-5.9475 -3.0242 -2.7527 0.3814 0 7
-5.9199 -3.0779 -2.7527 0.3814 0 7
-5.8918 -3.1314 -2.7527 0.3814 0 7
-5.8632 -3.1846 -2.7527 0.3814 0 7
-5.8342 -3.2375 -2.7527 0.3814 0 7
-5.8046 -3.2902 -2.7527 0.3814 0 7
-5.7746 -3.3426 -2.7527 0.3814 0 7
-5.7441 -3.3947 -2.7527 0.3814 0 7
-5.7131 -3.4466 -2.7527 0.3814 0 7
-5.6817 -3.4982 -2.7527 0.3814 0 7
-5.6498 -3.5495 -2.7527 0.3814 0 7
-5.6174 -3.6005 -2.7527 0.3814 0 7
-5.5846 -3.6512 -2.7527 0.3814 0 7
-5.5513 -3.7016 -2.7527 0.3814 0 7
-5.5176 -3.7517 -2.7527 0.3814 0 7
-5.4834 -3.8015 -2.7527 0.3814 0 7
-5.4488 -3.8509 -2.7527 0.3814 0 7
-5.4137 -3.9001 -2.7527 0.3814 0 7
-5.3782 -3.9490 -2.7527 0.3814 0 7
-5.3422 -3.9975 -2.7527 0.3814 0 7
-5.3058 -4.0457 -2.7527 0.3814 0 7
-5.2689 -4.0935 -2.7527 0.3814 0 7
-5.2317 -4.1411 -2.7527 0.3814 0 7
-5.1940 -4.1883 -2.7527 0.3814 0 7
-5.1558 -4.2351 -2.7527 0.3814 0 7
-5.1173 -4.2816 -2.7527 0.3814 0 7
-5.0783 -4.3278 -2.7527 0.3814 0 7
-5.0389 -4.3736 -2.7527 0.3814 0 7
-4.9991 -4.4190 -2.7527 0.3814 0 7
-4.9589 -4.4641 -2.7527 0.3814 0 7
-4.9183 -4.5088 -2.7527 0.3814 0 7
-4.8773 -4.5531 -2.7527 0.3814 0 7
-4.8359 -4.5971 -2.7527 0.3814 0 7
-4.7941 -4.6407 -2.7527 0.3814 0 7
-4.7519 -4.6839 -2.7527 0.3814 0 7
-4.7093 -4.7267 -2.7527 0.3814 0 7
-4.6663 -4.7691 -2.7527 0.3814 0 7
-4.6229 -4.8112 -2.7527 0.3814 0 6
-4.5792 -4.8528 -2.7527 0.3814 0 6
-4.5351 -4.8941 -2.7527 0.3814 0 6
-4.4906 -4.9349 -2.7527 0.3814 0 6
-4.4457 -4.9754 -2.7527 0.3814 0 7
-4.4005 -5.0154 -2.7527 0.3814 0 7
-4.3549 -5.0551 -2.7527 0.3814 0 7
-4.3090 -5.0943 -2.7527 0.3814 0 7
-4.2627 -5.1331 -2.7527 0.3814 0 7
-4.2160 -5.1715 -2.7527 0.3814 0 7
-4.1690 -5.2094 -2.7527 0.3814 0 7
-4.1217 -5.2469 -2.7527 0.3814 0 7
-4.0741 -5.2840 -2.7527 0.3814 0 7
-4.0261 -5.3207 -2.7527 0.3814 0 7
-3.9777 -5.3569 -2.7527 0.3814 0 7
-3.9291 -5.3927 -2.7527 0.3814 0 7
-3.8801 -5.4281 -2.7527 0.3814 0 7
-3.8308 -5.4630 -2.7527 0.3814 0 7
-3.7757 -5.4894 -2.7487 0.8867 0 8
-3.7109 -5.5012 -2.7377 0.8903 0 8
-3.6466 -5.5129 -2.7270 0.8938 0 8
-3.5828 -5.5245 -2.7166 0.8972 0 8
-3.5194 -5.5359 -2.7064 0.9006 0 8
-3.4565 -5.5472 -2.6965 0.9039 0 8
-3.3940 -5.5584 -2.6869 0.9071 0 8
-3.3320 -5.5695 -2.6776 0.9102 0 8
-3.2703 -5.5805 -2.6685 0.9133 0 8
-3.2090 -5.5914 -2.6597 0.9164 0 8
-3.1481 -5.6022 -2.6512 0.9193 0 8
-3.0876 -5.6128 -2.6429 0.9222 0 8
-3.0274 -5.6234 -2.6349 0.9250 0 8
-2.9676 -5.6338 -2.6271 0.9278 0 8
-2.9081 -5.6442 -2.6195 0.9304 0 8
-2.8498 -5.6563 -2.6130 0.8907 0 8
-2.7931 -5.6708 -2.6080 0.3814 0 8
-2.7416 -5.6958 -2.6080 0.3814 0 8
-2.6899 -5.7204 -2.6080 0.3814 0 8
-2.6380 -5.7445 -2.6080 0.3814 0 8
-2.5859 -5.7682 -2.6080 0.3814 0 8
-2.5336 -5.7914 -2.6080 0.3814 0 8
-2.4811 -5.8141 -2.6080 0.3814 0 8
-2.4283 -5.8363 -2.6080 0.3814 0 8
-2.3754 -5.8580 -2.6080 0.3814 0 8
-2.3223 -5.8793 -2.6080 0.3814 0 8
-2.2690 -5.9001 -2.6080 0.3814 0 14
-2.2155 -5.9204 -2.6080 0.3814 0 14
-2.1618 -5.9402 -2.6080 0.3814 0 14
-2.1079 -5.9595 -2.6080 0.3814 0 14
-2.0539 -5.9783 -2.6080 0.3814 0 14
-1.9997 -5.9967 -2.6080 0.3814 0 14
-1.9453 -6.0146 -2.6080 0.3814 0 14
-1.8908 -6.0319 -2.6080 0.3814 0 14
-1.8361 -6.0488 -2.6080 0.3814 0 14
-1.7813 -6.0652 -2.6080 0.3814 0 14
-1.7263 -6.0810 -2.6080 0.3814 0 14
-1.6712 -6.0964 -2.6080 0.3814 0 14
-1.6159 -6.1113 -2.6080 0.3814 0 14
-1.5605 -6.1257 -2.6080 0.3814 0 14
-1.5050 -6.1395 -2.6080 0.3814 0 14
-1.4494 -6.1529 -2.6080 0.3814 0 14
-1.3936 -6.1658 -2.6080 0.3814 0 14
-1.3377 -6.1781 -2.6080 0.3814 0 14
-1.2818 -6.1900 -2.6080 0.3814 0 14
-1.2257 -6.2014 -2.6080 0.3814 0 14
-1.1695 -6.2122 -2.6080 0.3814 0 14
-1.1132 -6.2225 -2.6080 0.3814 0 14
-1.0568 -6.2323 -2.6080 0.3814 0 14
-1.0004 -6.2417 -2.6080 0.3814 0 14
-0.9438 -6.2505 -2.6080 0.3814 0 14
-0.8872 -6.2587 -2.6080 0.3814 0 14
-0.8305 -6.2665 -2.6080 0.3814 0 14
-0.7737 -6.2738 -2.6080 0.3814 0 14
-0.7169 -6.2805 -2.6080 0.3814 0 14
-0.6600 -6.2868 -2.6080 0.3814 0 14
-0.6031 -6.2925 -2.6080 0.3814 0 14
-0.5461 -6.2977 -2.6080 0.3814 0 14
-0.4891 -6.3024 -2.6080 0.3814 0 14
-0.4320 -6.3065 -2.6080 0.3814 0 14
-0.3749 -6.3102 -2.6080 0.3814 0 14
-0.3177 -6.3133 -2.6080 0.3814 0 14
-0.2606 -6.3159 -2.6080 0.3814 0 14
-0.2034 -6.3180 -2.6080 0.3814 0 14
-0.1462 -6.3196 -2.6080 0.3814 0 14
-0.0890 -6.3207 -2.6080 0.3814 0 14
-0.0318 -6.3212 -2.6080 0.3814 0 14
0.0255 -6.3213 -2.6080 0.3814 0 14
0.0827 -6.3208 -2.6080 0.3814 0 14
0.1399 -6.3198 -2.6080 0.3814 0 14
0.1971 -6.3182 -2.6080 0.3814 0 14
0.2543 -6.3162 -2.6080 0.3814 0 14
0.3114 -6.3136 -2.6080 0.3814 0 14
0.3686 -6.3106 -2.6080 0.3814 0 14
0.4257 -6.3070 -2.6080 0.3814 0 14
0.4836 -6.3130 -2.6122 0.9067 0 8
0.5398 -6.2982 -2.6080 0.3814 0 8
0.5968 -6.2931 -2.6080 0.3814 0 8
0.6538 -6.2874 -2.6080 0.3814 0 8
0.7106 -6.2812 -2.6080 0.3814 0 8
0.7675 -6.2746 -2.6080 0.3814 0 8
0.8242 -6.2674 -2.6080 0.3814 0 8
0.8809 -6.2596 -2.6080 0.3814 0 8
0.9376 -6.2514 -2.6080 0.3814 0 8
0.9941 -6.2427 -2.6080 0.3814 0 8
1.0524 -6.2442 -2.6125 0.8909 0 8
1.1116 -6.2494 -2.6188 0.9307 0 8
1.1714 -6.2570 -2.6263 0.9280 0 8
1.2317 -6.2646 -2.6341 0.9253 0 8
1.2922 -6.2723 -2.6421 0.9225 0 8
1.3532 -6.2799 -2.6503 0.9196 0 8
1.4145 -6.2875 -2.6588 0.9167 0 8
1.4762 -6.2952 -2.6676 0.9137 0 8
1.5384 -6.3028 -2.6767 0.9106 0 8
1.6009 -6.3105 -2.6860 0.9074 0 8
1.6639 -6.3182 -2.6955 0.9042 0 8
1.7273 -6.3259 -2.7054 0.9009 0 8
1.7911 -6.3336 -2.7155 0.8975 0 8
1.8555 -6.3413 -2.7259 0.8941 0 8
1.9203 -6.3491 -2.7366 0.8906 0 8
1.9857 -6.3569 -2.7476 0.8871 0 8
2.0470 -6.3505 -2.7527 0.3814 0 7
2.1044 -6.3317 -2.7527 0.3814 0 7
2.1616 -6.3124 -2.7527 0.3814 0 7
2.2186 -6.2926 -2.7527 0.3814 0 7
2.2755 -6.2722 -2.7527 0.3814 0 7
2.3322 -6.2514 -2.7527 0.3814 0 7
2.3887 -6.2300 -2.7527 0.3814 0 7
2.4450 -6.2081 -2.7527 0.3814 0 7
2.5011 -6.1857 -2.7527 0.3814 0 7
2.5570 -6.1628 -2.7527 0.3814 0 7
2.6127 -6.1394 -2.7527 0.3814 0 7
2.6682 -6.1155 -2.7527 0.3814 0 7
2.7234 -6.0911 -2.7527 0.3814 0 7
2.7784 -6.0662 -2.7527 0.3814 0 7
2.8332 -6.0408 -2.7527 0.3814 0 6
2.8878 -6.0149 -2.7527 0.3814 0 6
2.9421 -5.9885 -2.7527 0.3814 0 6
2.9962 -5.9617 -2.7527 0.3814 0 6
3.0501 -5.9343 -2.7527 0.3814 0 7
3.1037 -5.9064 -2.7527 0.3814 0 7
3.1570 -5.8781 -2.7527 0.3814 0 7
3.2101 -5.8493 -2.7527 0.3814 0 7
3.2629 -5.8200 -2.7527 0.3814 0 7
3.3154 -5.7902 -2.7527 0.3814 0 7
3.3677 -5.7600 -2.7527 0.3814 0 7
3.4197 -5.7292 -2.7527 0.3814 0 7
3.4715 -5.6980 -2.7527 0.3814 0 7
3.5229 -5.6664 -2.7527 0.3814 0 7
3.5741 -5.6343 -2.7527 0.3814 0 7
3.6249 -5.6017 -2.7527 0.3814 0 7
3.6755 -5.5686 -2.7527 0.3814 0 7
3.7257 -5.5351 -2.7527 0.3814 0 7
3.7757 -5.5012 -2.7527 0.3814 0 7
3.8253 -5.4668 -2.7527 0.3814 0 7
3.8747 -5.4319 -2.7527 0.3814 0 7
3.9237 -5.3966 -2.7527 0.3814 0 7
3.9724 -5.3609 -2.7527 0.3814 0 7
4.0207 -5.3247 -2.7527 0.3814 0 7
4.0688 -5.2881 -2.7527 0.3814 0 7
4.1165 -5.2510 -2.7527 0.3814 0 7
4.1638 -5.2136 -2.7527 0.3814 0 7
4.2109 -5.1757 -2.7527 0.3814 0 7
4.2575 -5.1373 -2.7527 0.3814 0 7
4.3039 -5.0986 -2.7527 0.3814 0 7
4.3499 -5.0594 -2.7527 0.3814 0 7
4.3955 -5.0198 -2.7527 0.3814 0 7
4.4407 -4.9798 -2.7527 0.3814 0 7
4.4856 -4.9394 -2.7527 0.3814 0 7
4.5302 -4.8986 -2.7527 0.3814 0 7
4.5743 -4.8574 -2.7527 0.3814 0 7
4.6181 -4.8158 -2.7527 0.3814 0 7
4.6615 -4.7738 -2.7527 0.3814 0 7
4.7045 -4.7314 -2.7527 0.3814 0 7
4.7472 -4.6886 -2.7527 0.3814 0 7
4.7894 -4.6454 -2.7527 0.3814 0 7
4.8313 -4.6019 -2.7527 0.3814 0 7
4.8727 -4.5580 -2.7527 0.3814 0 7
4.9138 -4.5137 -2.7527 0.3814 0 7
4.9545 -4.4690 -2.7527 0.3814 0 7
4.9947 -4.4240 -2.7527 0.3814 0 7
5.0346 -4.3786 -2.7527 0.3814 0 7
5.0740 -4.3328 -2.7527 0.3814 0 7
5.1130 -4.2867 -2.7527 0.3814 0 7
5.1516 -4.2403 -2.7527 0.3814 0 7
5.1898 -4.1934 -2.7527 0.3814 0 7
5.2275 -4.1463 -2.7527 0.3814 0 7
5.2648 -4.0988 -2.7527 0.3814 0 7
5.3017 -4.0510 -2.7527 0.3814 0 7
5.3382 -4.0028 -2.7527 0.3814 0 7
5.3742 -3.9543 -2.7527 0.3814 0 7
5.4098 -3.9055 -2.7527 0.3814 0 7
5.4449 -3.8564 -2.7527 0.3814 0 7
5.4796 -3.8069 -2.7527 0.3814 0 7
5.5138 -3.7572 -2.7527 0.3814 0 7
5.5476 -3.7071 -2.7527 0.3814 0 7
5.5810 -3.6567 -2.7527 0.3814 0 7
5.6138 -3.6061 -2.7527 0.3814 0 7
5.6462 -3.5551 -2.7527 0.3814 0 7
5.6782 -3.5038 -2.7527 0.3814 0 7
5.7097 -3.4523 -2.7527 0.3814 0 7
5.7407 -3.4005 -2.7527 0.3814 0 7
5.7712 -3.3484 -2.7527 0.3814 0 7
5.8013 -3.2960 -2.7527 0.3814 0 7
5.8309 -3.2433 -2.7527 0.3814 0 7
5.8600 -3.1904 -2.7527 0.3814 0 7
5.8887 -3.1372 -2.7527 0.3814 0 7
5.9169 -3.0838 -2.7527 0.3814 0 7
5.9445 -3.0301 -2.7527 0.3814 0 7
5.9717 -2.9762 -2.7527 0.3814 0 7
5.9984 -2.9220 -2.7527 0.3814 0 7
6.0246 -2.8676 -2.7527 0.3814 0 7
6.0503 -2.8129 -2.7527 0.3814 0 7
6.0755 -2.7580 -2.7527 0.3814 0 7
6.1002 -2.7029 -2.7527 0.3814 0 7
6.1245 -2.6476 -2.7527 0.3814 0 7
6.1482 -2.5920 -2.7527 0.3814 0 7
6.1714 -2.5363 -2.7527 0.3814 0 7
6.1941 -2.4803 -2.7527 0.3814 0 7
6.2163 -2.4241 -2.7527 0.3814 0 7
6.2380 -2.3677 -2.7527 0.3814 0 7
6.2592 -2.3112 -2.7527 0.3814 0 7
6.2798 -2.2544 -2.7527 0.3814 0 7
6.3000 -2.1975 -2.7527 0.3814 0 7
6.3196 -2.1404 -2.7527 0.3814 0 7
6.3387 -2.0831 -2.7527 0.3814 0 7
6.3573 -2.0256 -2.7527 0.3814 0 7
6.3754 -1.9680 -2.7527 0.3814 0 7
6.3930 -1.9102 -2.7527 0.3814 0 7
6.4100 -1.8522 -2.7527 0.3814 0 7
6.4265 -1.7941 -2.7527 0.3814 0 7
6.4425 -1.7359 -2.7527 0.3814 0 7
6.4579 -1.6775 -2.7527 0.3814 0 7
6.4728 -1.6189 -2.7527 0.3814 0 7
6.4872 -1.5603 -2.7527 0.3814 0 7
6.5011 -1.5015 -2.7527 0.3814 0 7
6.5144 -1.4426 -2.7527 0.3814 0 7
6.5272 -1.3836 -2.7527 0.3814 0 7
6.5395 -1.3244 -2.7527 0.3814 0 7
6.5512 -1.2652 -2.7527 0.3814 0 7
6.5624 -1.2058 -2.7527 0.3814 0 7
6.5730 -1.1463 -2.7527 0.3814 0 7
6.5831 -1.0868 -2.7527 0.3814 0 7
6.5927 -1.0272 -2.7527 0.3814 0 7
6.6017 -0.9674 -2.7527 0.3814 0 7
6.6102 -0.9076 -2.7527 0.3814 0 7
6.6181 -0.8478 -2.7527 0.3814 0 7
6.6256 -0.7878 -2.7527 0.3814 0 7
6.6324 -0.7278 -2.7527 0.3814 0 7
6.6387 -0.6677 -2.7527 0.3814 0 7
6.6445 -0.6076 -2.7527 0.3814 0 7
6.6497 -0.5474 -2.7527 0.3814 0 7
6.6544 -0.4872 -2.7527 0.3814 0 7
6.6586 -0.4270 -2.7527 0.3814 0 7
6.6621 -0.3667 -2.7527 0.3814 0 7
6.6652 -0.3063 -2.7527 0.3814 0 7
6.6677 -0.2460 -2.7527 0.3814 0 7
6.6696 -0.1856 -2.7527 0.3814 0 7
6.6711 -0.1252 -2.7527 0.3814 0 7
6.6719 -0.0648 -2.7527 0.3814 0 7
6.6722 -0.0044 -2.7527 0.3814 0 7
6.6720 0.0560 -2.7527 0.3814 0 7
6.6712 0.1164 -2.7527 0.3814 0 7
6.6699 0.1768 -2.7527 0.3814 0 7
6.6680 0.2371 -2.7527 0.3814 0 7
6.6656 0.2975 -2.7527 0.3814 0 7
6.6626 0.3578 -2.7527 0.3814 0 7
6.6591 0.4181 -2.7527 0.3814 0 7
6.6551 0.4784 -2.7527 0.3814 0 6
6.6505 0.5386 -2.7527 0.3814 0 6
6.6453 0.5988 -2.7527 0.3814 0 7
6.6396 0.6589 -2.7527 0.3814 0 7
6.6334 0.7190 -2.7527 0.3814 0 7
6.6266 0.7790 -2.7527 0.3814 0 7
6.6193 0.8390 -2.7527 0.3814 0 7
6.6114 0.8989 -2.7527 0.3814 0 7
6.6030 0.9587 -2.7527 0.3814 0 7
6.5941 1.0184 -2.7527 0.3814 0 7
6.5846 1.0780 -2.7527 0.3814 0 7
6.5745 1.1376 -2.7527 0.3814 0 7
6.5640 1.1971 -2.7527 0.3814 0 7
6.5529 1.2564 -2.7527 0.3814 0 7
6.5412 1.3157 -2.7527 0.3814 0 7
6.5291 1.3749 -2.7527 0.3814 0 7
6.5163 1.4339 -2.7527 0.3814 0 7
6.5031 1.4929 -2.7527 0.3814 0 7
6.4893 1.5517 -2.7527 0.3814 0 7
6.4750 1.6103 -2.7527 0.3814 0 7
6.4601 1.6689 -2.7527 0.3814 0 7
6.4448 1.7273 -2.7527 0.3814 0 7
6.4289 1.7856 -2.7527 0.3814 0 7
6.4124 1.8437 -2.7527 0.3814 0 7
6.3955 1.9017 -2.7527 0.3814 0 7
6.3780 1.9595 -2.7527 0.3814 0 7
6.3600 2.0171 -2.7527 0.3814 0 7
6.3415 2.0746 -2.7527 0.3814 0 7
6.3225 2.1320 -2.7527 0.3814 0 7
6.3029 2.1891 -2.7527 0.3814 0 7
6.2828 2.2461 -2.7527 0.3814 0 7
6.2622 2.3029 -2.7527 0.3814 0 7
6.2411 2.3595 -2.7527 0.3814 0 7
6.2195 2.4159 -2.7527 0.3814 0 7
6.1974 2.4721 -2.7527 0.3814 0 7
6.1748 2.5281 -2.7527 0.3814 0 7
6.1516 2.5839 -2.7527 0.3814 0 7
6.1280 2.6394 -2.7527 0.3814 0 7
6.1038 2.6948 -2.7527 0.3814 0 7
6.0792 2.7499 -2.7527 0.3814 0 7
6.0540 2.8049 -2.7527 0.3814 0 7
6.0284 2.8596 -2.7527 0.3814 0 7
6.0023 2.9140 -2.7527 0.3814 0 7
5.9756 2.9682 -2.7527 0.3814 0 7
5.9485 3.0222 -2.7527 0.3814 0 7
5.9209 3.0759 -2.7527 0.3814 0 7
5.8928 3.1294 -2.7527 0.3814 0 7
5.8639 3.1824 -2.7526 0.3908 0 8
5.8332 3.2344 -2.7518 0.3909 0 8
5.8020 3.2862 -2.7510 0.3910 0 8
5.7704 3.3376 -2.7502 0.3911 0 8
5.7383 3.3888 -2.7494 0.3912 0 8
5.7058 3.4396 -2.7487 0.3913 0 8
5.6729 3.4901 -2.7479 0.3914 0 8
5.6395 3.5404 -2.7471 0.3915 0 8
5.6057 3.5903 -2.7464 0.3916 0 8
5.5714 3.6399 -2.7456 0.3918 0 8
5.5232 3.6802 -2.7382 0.6804 0 8
5.4412 3.6971 -2.7140 0.6865 0 8
5.3605 3.7136 -2.6904 0.6925 0 8
5.2812 3.7299 -2.6674 0.6985 0 8
5.2031 3.7458 -2.6451 0.7044 0 8
5.1264 3.7615 -2.6232 0.7103 0 8
5.0543 3.7794 -2.6037 0.7347 0 8
5.0133 3.8200 -2.6003 0.3814 0 8
4.9785 3.8653 -2.6003 0.3814 0 8
4.9433 3.9102 -2.6003 0.3814 0 8
4.9077 3.9548 -2.6003 0.3814 0 8
4.8717 3.9990 -2.6003 0.3814 0 8
4.8353 4.0430 -2.6003 0.3814 0 8
4.7985 4.0866 -2.6003 0.3814 0 8
4.7613 4.1298 -2.6003 0.3814 0 8
4.7237 4.1728 -2.6003 0.3814 0 8
4.6858 4.2154 -2.6003 0.3814 0 8
4.6474 4.2576 -2.6003 0.3814 0 8
4.6087 4.2995 -2.6003 0.3814 0 8
4.5696 4.3411 -2.6003 0.3814 0 8
4.5301 4.3822 -2.6003 0.3814 0 8
4.4902 4.4231 -2.6003 0.3814 0 8
4.4500 4.4635 -2.6003 0.3814 0 8
4.4094 4.5036 -2.6003 0.3814 0 8
4.3685 4.5434 -2.6003 0.3814 0 8
6.2680 0.0000 -2.7527 0.4021 0 7
6.2678 0.0567 -2.7527 0.4021 0 7
6.2670 0.1135 -2.7527 0.4021 0 7
6.2657 0.1702 -2.7527 0.4021 0 7
6.2639 0.2269 -2.7527 0.4021 0 7
6.2616 0.2836 -2.7527 0.4021 0 7
6.2588 0.3403 -2.7527 0.4021 0 7
6.2554 0.3969 -2.7527 0.4021 0 7
6.2516 0.4535 -2.7527 0.4021 0 7
6.2472 0.5101 -2.7527 0.4021 0 7
6.2424 0.5667 -2.7527 0.4021 0 6
6.2370 0.6231 -2.7527 0.4021 0 6
6.2311 0.6796 -2.7527 0.4021 0 7
6.2247 0.7359 -2.7527 0.4021 0 7
6.2178 0.7923 -2.7527 0.4021 0 7
6.2103 0.8485 -2.7527 0.4021 0 7
6.2024 0.9047 -2.7527 0.4021 0 7
6.1940 0.9608 -2.7527 0.4021 0 7
6.1850 1.0168 -2.7527 0.4021 0 7
6.1755 1.0728 -2.7527 0.4021 0 7
6.1656 1.1287 -2.7527 0.4021 0 7
6.1551 1.1844 -2.7527 0.4021 0 7
6.1441 1.2401 -2.7527 0.4021 0 7
6.1327 1.2957 -2.7527 0.4021 0 7
6.1207 1.3511 -2.7527 0.4021 0 7
6.1082 1.4065 -2.7527 0.4021 0 7
6.0952 1.4617 -2.7527 0.4021 0 7
6.0817 1.5168 -2.7527 0.4021 0 7
6.0677 1.5718 -2.7527 0.4021 0 7
6.0533 1.6267 -2.7527 0.4021 0 7
6.0383 1.6814 -2.7527 0.4021 0 7
6.0228 1.7360 -2.7527 0.4021 0 7
6.0069 1.7905 -2.7527 0.4021 0 7
5.9904 1.8448 -2.7527 0.4021 0 7
5.9735 1.8989 -2.7527 0.4021 0 7
5.9560 1.9529 -2.7527 0.4021 0 7
5.9381 2.0068 -2.7527 0.4021 0 7
5.9197 2.0604 -2.7527 0.4021 0 7
5.9008 2.1139 -2.7527 0.4021 0 7
5.8814 2.1673 -2.7527 0.4021 0 7
5.8616 2.2204 -2.7527 0.4021 0 7
5.8412 2.2734 -2.7527 0.4021 0 7
5.8204 2.3262 -2.7527 0.4021 0 7
5.7991 2.3788 -2.7527 0.4021 0 7
5.7773 2.4312 -2.7527 0.4021 0 7
5.7551 2.4834 -2.7527 0.4021 0 7
5.7324 2.5354 -2.7527 0.4021 0 7
5.7092 2.5871 -2.7527 0.4021 0 7
5.6855 2.6387 -2.7527 0.4021 0 7
5.6614 2.6901 -2.7527 0.4021 0 7
5.6368 2.7412 -2.7527 0.4021 0 7
5.6118 2.7921 -2.7527 0.4021 0 7
5.5863 2.8428 -2.7527 0.4021 0 7
5.5603 2.8933 -2.7527 0.4021 0 7
5.5339 2.9435 -2.7527 0.4021 0 7
5.5070 2.9935 -2.7527 0.4021 0 7
5.4797 3.0432 -2.7527 0.4021 0 7
5.4519 3.0927 -2.7527 0.4021 0 7
5.4237 3.1419 -2.7527 0.4021 0 7
5.3950 3.1909 -2.7527 0.4021 0 7
5.3659 3.2396 -2.7527 0.4021 0 7
5.3353 3.2873 -2.7522 0.4121 0 8
5.3039 3.3346 -2.7514 0.4122 0 8
5.2721 3.3816 -2.7507 0.4123 0 8
5.2400 3.4283 -2.7500 0.4124 0 8
5.2074 3.4748 -2.7493 0.4125 0 8
5.1744 3.5209 -2.7486 0.4126 0 8
5.1411 3.5667 -2.7480 0.4127 0 8
5.1073 3.6122 -2.7473 0.4128 0 8
5.0732 3.6574 -2.7466 0.4129 0 8
5.0386 3.7023 -2.7459 0.4130 0 8
5.0037 3.7468 -2.7453 0.4131 0 8
4.9403 3.7696 -2.7291 0.7198 0 8
4.8678 3.7845 -2.7079 0.7254 0 8
4.7964 3.7992 -2.6872 0.7310 0 8
4.7260 3.8135 -2.6670 0.7366 0 8
4.6567 3.8277 -2.6473 0.7420 0 8
4.5882 3.8416 -2.6281 0.7475 0 8
4.5208 3.8552 -2.6093 0.7528 0 8
4.4703 3.8826 -2.6003 0.4021 0 8
4.4350 3.9229 -2.6003 0.4021 0 8
4.3993 3.9629 -2.6003 0.4021 0 8
4.3632 4.0026 -2.6003 0.4021 0 8
4.3295 4.0445 -2.6020 0.7918 0 8
4.2900 4.0809 -2.6003 0.4021 0 8
4.2529 4.1196 -2.6003 0.4021 0 8
4.2154 4.1579 -2.6003 0.4021 0 8
4.1776 4.1959 -2.6003 0.4021 0 8
4.1395 4.2336 -2.6003 0.4021 0 8
4.1010 4.2709 -2.6003 0.4021 0 8
4.0622 4.3078 -2.6003 0.4021 0 8
4.0230 4.3444 -2.6003 0.4021 0 8
3.9835 4.3806 -2.6003 0.4021 0 8
3.9437 4.4165 -2.6003 0.4021 0 8
3.9035 4.4520 -2.6003 0.4021 0 8
3.8631 4.4872 -2.6003 0.4021 0 8
3.8223 4.5220 -2.6003 0.4021 0 8
3.7812 4.5564 -2.6003 0.4021 0 8
3.7398 4.5904 -2.6003 0.4021 0 8
3.6981 4.6241 -2.6003 0.4021 0 8
3.6561 4.6574 -2.6003 0.4021 0 8
3.6138 4.6903 -2.6003 0.4021 0 8
3.5712 4.7228 -2.6003 0.4021 0 8
3.5283 4.7550 -2.6003 0.4021 0 8
3.4851 4.7867 -2.6003 0.4021 0 8
3.4416 4.8181 -2.6003 0.4021 0 8
3.3979 4.8490 -2.6003 0.4021 0 8
3.3538 4.8796 -2.6003 0.4021 0 8
3.3095 4.9097 -2.6003 0.4021 0 8
3.2649 4.9395 -2.6003 0.4021 0 8
3.2201 4.9689 -2.6003 0.4021 0 8
3.1750 4.9978 -2.6003 0.4021 0 8
3.1296 5.0263 -2.6003 0.4021 0 8
3.0840 5.0545 -2.6003 0.4021 0 8
3.0381 5.0822 -2.6003 0.4021 0 8
2.9920 5.1095 -2.6003 0.4021 0 8
2.9456 5.1363 -2.6003 0.4021 0 8
2.8990 5.1628 -2.6003 0.4021 0 8
2.8521 5.1888 -2.6003 0.4021 0 8
2.8050 5.2144 -2.6003 0.4021 0 8
2.7577 5.2396 -2.6003 0.4021 0 8
2.7102 5.2644 -2.6003 0.4021 0 8
2.6624 5.2887 -2.6003 0.4021 0 8
2.6144 5.3126 -2.6003 0.4021 0 8
2.5662 5.3360 -2.6003 0.4021 0 8
2.5178 5.3590 -2.6003 0.4021 0 8
2.4692 5.3816 -2.6003 0.4021 0 8
2.4204 5.4037 -2.6003 0.4021 0 8
2.3714 5.4254 -2.6003 0.4021 0 8
2.3221 5.4467 -2.6003 0.4021 0 8
2.2727 5.4675 -2.6003 0.4021 0 8
2.2231 5.4878 -2.6003 0.4021 0 8
2.1734 5.5077 -2.6003 0.4021 0 8
2.1234 5.5272 -2.6003 0.4021 0 8
2.0733 5.5461 -2.6003 0.4021 0 8
2.0230 5.5647 -2.6003 0.4021 0 8
1.9726 5.5828 -2.6003 0.4021 0 8
1.9219 5.6004 -2.6003 0.4021 0 8
1.8712 5.6176 -2.6003 0.4021 0 8
1.8202 5.6343 -2.6003 0.4021 0 8
1.7692 5.6505 -2.6003 0.4021 0 8
1.7179 5.6663 -2.6003 0.4021 0 8
1.6666 5.6816 -2.6003 0.4021 0 8
1.6151 5.6965 -2.6003 0.4021 0 8
1.5634 5.7109 -2.6003 0.4021 0 8
1.5117 5.7248 -2.6003 0.4021 0 8
1.4598 5.7382 -2.6003 0.4021 0 8
1.4078 5.7512 -2.6003 0.4021 0 8
1.3556 5.7637 -2.6003 0.4021 0 8
1.3034 5.7758 -2.6003 0.4021 0 8
1.2511 5.7873 -2.6003 0.4021 0 8
1.1986 5.7984 -2.6003 0.4021 0 8
1.1461 5.8090 -2.6003 0.4021 0 8
1.0935 5.8192 -2.6003 0.4021 0 8
1.0408 5.8288 -2.6003 0.4021 0 8
0.9879 5.8380 -2.6003 0.4021 0 8
0.9350 5.8467 -2.6003 0.4021 0 8
0.8821 5.8549 -2.6003 0.4021 0 8
0.8291 5.8627 -2.6003 0.4021 0 8
0.7759 5.8700 -2.6003 0.4021 0 8
0.7228 5.8767 -2.6003 0.4021 0 8
0.6696 5.8830 -2.6003 0.4021 0 8
0.6163 5.8889 -2.6003 0.4021 0 8
0.5629 5.8942 -2.6003 0.4021 0 8
0.5096 5.8991 -2.6003 0.4021 0 8
0.4561 5.9034 -2.6003 0.4021 0 8
0.4027 5.9073 -2.6003 0.4021 0 8
0.3492 5.9107 -2.6003 0.4021 0 8
0.2957 5.9136 -2.6003 0.4021 0 8
0.2421 5.9161 -2.6003 0.4021 0 8
0.1885 5.9180 -2.6003 0.4021 0 8
0.1350 5.9195 -2.6003 0.4021 0 8
0.0814 5.9205 -2.6003 0.4021 0 8
0.0278 5.9209 -2.6003 0.4021 0 8
-0.0258 5.9210 -2.6003 0.4021 0 8
-0.0794 5.9205 -2.6003 0.4021 0 8
-0.1330 5.9195 -2.6003 0.4021 0 8
-0.1866 5.9181 -2.6003 0.4021 0 8
-0.2402 5.9161 -2.6003 0.4021 0 8
-0.2937 5.9137 -2.6003 0.4021 0 8
-0.3472 5.9108 -2.6003 0.4021 0 8
-0.4007 5.9074 -2.6003 0.4021 0 8
-0.4542 5.9036 -2.6003 0.4021 0 8
-0.5076 5.8992 -2.6003 0.4021 0 8
-0.5610 5.8944 -2.6003 0.4021 0 8
-0.6143 5.8891 -2.6003 0.4021 0 8
-0.6676 5.8833 -2.6003 0.4021 0 8
-0.7208 5.8770 -2.6003 0.4021 0 8
-0.7740 5.8702 -2.6003 0.4021 0 8
-0.8271 5.8630 -2.6003 0.4021 0 8
-0.8802 5.8552 -2.6003 0.4021 0 8
-0.9331 5.8470 -2.6003 0.4021 0 8
-0.9860 5.8383 -2.6003 0.4021 0 8
-1.0388 5.8292 -2.6003 0.4021 0 8
-1.0916 5.8195 -2.6003 0.4021 0 8
-1.1442 5.8094 -2.6003 0.4021 0 8
-1.1967 5.7988 -2.6003 0.4021 0 8
-1.2492 5.7877 -2.6003 0.4021 0 8
-1.3015 5.7762 -2.6003 0.4021 0 8
-1.3538 5.7642 -2.6003 0.4021 0 8
-1.4059 5.7517 -2.6003 0.4021 0 8
-1.4579 5.7387 -2.6003 0.4021 0 8
-1.5098 5.7253 -2.6003 0.4021 0 8
-1.4523 5.3119 -2.4184 0.3893 0 5
-1.4718 5.1977 -2.3724 0.3968 0 5
-1.4995 5.1184 -2.3423 0.8458 0 5
-1.5523 5.1260 -2.3522 0.8423 0 5
-1.6055 5.1338 -2.3623 0.8387 0 5
-1.6592 5.1415 -2.3727 0.8350 0 5
-1.7133 5.1494 -2.3834 0.8312 0 5
-1.7680 5.1573 -2.3943 0.8274 0 5
-1.9707 5.5834 -2.6003 0.4021 0 8
-2.0212 5.5654 -2.6003 0.4021 0 8
-2.0715 5.5468 -2.6003 0.4021 0 8
-2.1216 5.5279 -2.6003 0.4021 0 8
-2.1716 5.5084 -2.6003 0.4021 0 8
-2.2213 5.4885 -2.6003 0.4021 0 8
-2.2709 5.4682 -2.6003 0.4021 0 8
-2.3204 5.4474 -2.6003 0.4021 0 8
-2.3696 5.4262 -2.6003 0.4021 0 8
-2.4186 5.4045 -2.6003 0.4021 0 8
-2.4674 5.3824 -2.6003 0.4021 0 8
-2.5160 5.3599 -2.6003 0.4021 0 8
-2.5645 5.3369 -2.6003 0.4021 0 8
-2.6127 5.3134 -2.6003 0.4021 0 8
-2.6607 5.2896 -2.6003 0.4021 0 8
-2.7084 5.2653 -2.6003 0.4021 0 8
-2.7560 5.2405 -2.6003 0.4021 0 8
-2.8033 5.2154 -2.6003 0.4021 0 8
-2.8504 5.1898 -2.6003 0.4021 0 8
-2.8973 5.1638 -2.6003 0.4021 0 8
-2.9439 5.1373 -2.6003 0.4021 0 8
-2.9903 5.1105 -2.6003 0.4021 0 8
-3.0364 5.0832 -2.6003 0.4021 0 8
-3.0823 5.0555 -2.6003 0.4021 0 8
-3.1279 5.0274 -2.6003 0.4021 0 8
-3.1836 5.0150 -2.6088 0.7530 0 8
-3.2521 5.0218 -2.6275 0.7476 0 8
-3.3215 5.0287 -2.6467 0.7422 0 8
-3.3919 5.0356 -2.6664 0.7367 0 8
-3.4634 5.0426 -2.6866 0.7312 0 8
-3.5360 5.0496 -2.7073 0.7256 0 8
-3.6096 5.0567 -2.7285 0.7200 0 8
-3.6777 5.0547 -2.7453 0.4131 0 8
-3.7242 5.0224 -2.7459 0.4130 0 8
-3.7704 4.9897 -2.7466 0.4129 0 8
-3.8164 4.9566 -2.7473 0.4128 0 8
-3.8620 4.9230 -2.7479 0.4127 0 8
-3.9074 4.8891 -2.7486 0.4126 0 8
-3.9525 4.8548 -2.7493 0.4125 0 8
-3.9973 4.8200 -2.7500 0.4124 0 8
-4.0418 4.7848 -2.7507 0.4123 0 8
-4.0860 4.7493 -2.7514 0.4122 0 8
-4.1299 4.7133 -2.7521 0.4121 0 8
-4.1733 4.6767 -2.7527 0.4021 0 7
-4.2155 4.6388 -2.7527 0.4021 0 7
-4.2573 4.6004 -2.7527 0.4021 0 7
-4.2988 4.5617 -2.7527 0.4021 0 7
-4.3399 4.5226 -2.7527 0.4021 0 7
-4.3806 4.4831 -2.7527 0.4021 0 7
-4.4210 4.4433 -2.7527 0.4021 0 7
-4.4611 4.4031 -2.7527 0.4021 0 7
-4.5008 4.3625 -2.7527 0.4021 0 7
-4.5401 4.3216 -2.7527 0.4021 0 7
-4.5790 4.2803 -2.7527 0.4021 0 7
-4.6176 4.2387 -2.7527 0.4021 0 7
-4.6557 4.1967 -2.7527 0.4021 0 7
-4.6935 4.1544 -2.7527 0.4021 0 7
-4.7310 4.1117 -2.7527 0.4021 0 7
-4.7680 4.0688 -2.7527 0.4021 0 7
-4.8046 4.0254 -2.7527 0.4021 0 7
-4.8409 3.9818 -2.7527 0.4021 0 7
-4.8767 3.9378 -2.7527 0.4021 0 7
-4.9121 3.8935 -2.7527 0.4021 0 7
-4.9472 3.8488 -2.7527 0.4021 0 7
-4.9818 3.8039 -2.7527 0.4021 0 7
-5.0161 3.7586 -2.7527 0.4021 0 7
-5.0499 3.7131 -2.7527 0.4021 0 7
-5.0833 3.6672 -2.7527 0.4021 0 7
-5.1163 3.6211 -2.7527 0.4021 0 7
-5.1489 3.5746 -2.7527 0.4021 0 7
-5.1810 3.5278 -2.7527 0.4021 0 7
-5.2127 3.4808 -2.7527 0.4021 0 7
-5.2440 3.4335 -2.7527 0.4021 0 7
-5.2748 3.3860 -2.7527 0.4021 0 7
-5.3053 3.3380 -2.7527 0.4021 0 7
-5.3353 3.2898 -2.7527 0.4021 0 7
-5.3649 3.2414 -2.7527 0.4021 0 7
-5.3940 3.1927 -2.7527 0.4021 0 7
-5.4227 3.1437 -2.7527 0.4021 0 7
-5.4509 3.0945 -2.7527 0.4021 0 7
-5.4787 3.0450 -2.7527 0.4021 0 7
-5.5060 2.9953 -2.7527 0.4021 0 7
-5.5329 2.9453 -2.7527 0.4021 0 7
-5.5594 2.8951 -2.7527 0.4021 0 7
-5.5854 2.8447 -2.7527 0.4021 0 7
-5.6109 2.7940 -2.7527 0.4021 0 7
-5.6359 2.7431 -2.7527 0.4021 0 7
-5.6605 2.6919 -2.7527 0.4021 0 7
-5.6847 2.6406 -2.7527 0.4021 0 7
-5.7083 2.5890 -2.7527 0.4021 0 7
-5.7315 2.5373 -2.7527 0.4021 0 7
-5.7543 2.4853 -2.7527 0.4021 0 7
-5.7765 2.4331 -2.7527 0.4021 0 6
-5.7983 2.3807 -2.7527 0.4021 0 6
-5.8196 2.3281 -2.7527 0.4021 0 7
-5.8405 2.2753 -2.7527 0.4021 0 7
-5.8608 2.2224 -2.7527 0.4021 0 7
-5.8807 2.1692 -2.7527 0.4021 0 7
-5.9001 2.1159 -2.7527 0.4021 0 7
-5.9190 2.0624 -2.7527 0.4021 0 7
-5.9375 2.0087 -2.7527 0.4021 0 7
-5.9554 1.9549 -2.7527 0.4021 0 7
-5.9729 1.9009 -2.7527 0.4021 0 7
-5.9898 1.8468 -2.7527 0.4021 0 7
-6.0063 1.7925 -2.7527 0.4021 0 7
-6.0223 1.7380 -2.7527 0.4021 0 7
-6.0377 1.6834 -2.7527 0.4021 0 7
-6.0527 1.6287 -2.7527 0.4021 0 7
-6.0672 1.5738 -2.7527 0.4021 0 7
-6.0812 1.5188 -2.7527 0.4021 0 7
-6.0947 1.4637 -2.7527 0.4021 0 7
-6.1077 1.4085 -2.7527 0.4021 0 7
-6.1202 1.3532 -2.7527 0.4021 0 7
-6.1322 1.2977 -2.7527 0.4021 0 7
-6.1437 1.2421 -2.7527 0.4021 0 7
-6.1547 1.1865 -2.7527 0.4021 0 7
-6.1652 1.1307 -2.7527 0.4021 0 7
-6.1752 1.0748 -2.7527 0.4021 0 7
-6.1847 1.0189 -2.7527 0.4021 0 7
-6.1936 0.9629 -2.7527 0.4021 0 7
-6.2021 0.9068 -2.7527 0.4021 0 7
-6.2101 0.8506 -2.7527 0.4021 0 7
-6.2175 0.7943 -2.7527 0.4021 0 7
-6.2244 0.7380 -2.7527 0.4021 0 7
-6.2309 0.6816 -2.7527 0.4021 0 7
-6.2368 0.6252 -2.7527 0.4021 0 7
-6.2422 0.5687 -2.7527 0.4021 0 7
-6.2471 0.5122 -2.7527 0.4021 0 7
-6.2515 0.4556 -2.7527 0.4021 0 7
-6.2553 0.3990 -2.7527 0.4021 0 7
-6.2587 0.3424 -2.7527 0.4021 0 7
-6.2615 0.2857 -2.7527 0.4021 0 7
-6.2639 0.2290 -2.7527 0.4021 0 7
-6.2657 0.1723 -2.7527 0.4021 0 7
-6.2670 0.1156 -2.7527 0.4021 0 7
-6.2678 0.0588 -2.7527 0.4021 0 7
-6.2680 0.0021 -2.7527 0.4021 0 7
-6.2678 -0.0547 -2.7527 0.4021 0 7
-6.2671 -0.1114 -2.7527 0.4021 0 7
-6.2658 -0.1681 -2.7527 0.4021 0 7
-6.2640 -0.2248 -2.7527 0.4021 0 7
-6.2617 -0.2815 -2.7527 0.4021 0 7
-6.2589 -0.3382 -2.7527 0.4021 0 7
-6.2556 -0.3949 -2.7527 0.4021 0 7
-6.2518 -0.4515 -2.7527 0.4021 0 7
-6.2474 -0.5080 -2.7527 0.4021 0 7
-6.2426 -0.5646 -2.7527 0.4021 0 7
-6.2372 -0.6211 -2.7527 0.4021 0 7
-6.2313 -0.6775 -2.7527 0.4021 0 7
-6.2249 -0.7339 -2.7527 0.4021 0 7
-6.2180 -0.7902 -2.7527 0.4021 0 7
-6.2106 -0.8465 -2.7527 0.4021 0 7
-6.2027 -0.9026 -2.7527 0.4021 0 7
-6.1943 -0.9588 -2.7527 0.4021 0 7
-6.1854 -1.0148 -2.7527 0.4021 0 7
-6.1759 -1.0707 -2.7527 0.4021 0 6
-6.1660 -1.1266 -2.7527 0.4021 0 6
-6.1555 -1.1824 -2.7527 0.4021 0 7
-6.1446 -1.2380 -2.7527 0.4021 0 7
-6.1331 -1.2936 -2.7527 0.4021 0 7
-6.1211 -1.3491 -2.7527 0.4021 0 7
-6.1087 -1.4044 -2.7527 0.4021 0 7
-6.0957 -1.4597 -2.7527 0.4021 0 7
-6.0823 -1.5148 -2.7527 0.4021 0 7
-6.0683 -1.5698 -2.7527 0.4021 0 7
-6.0538 -1.6247 -2.7527 0.4021 0 7
-6.0389 -1.6794 -2.7527 0.4021 0 7
-6.0234 -1.7340 -2.7527 0.4021 0 7
-6.0075 -1.7885 -2.7527 0.4021 0 7
-5.9910 -1.8428 -2.7527 0.4021 0 7
-5.9741 -1.8969 -2.7527 0.4021 0 7
-5.9567 -1.9509 -2.7527 0.4021 0 7
-5.9388 -2.0048 -2.7527 0.4021 0 7
-5.9204 -2.0585 -2.7527 0.4021 0 7
-5.9015 -2.1120 -2.7527 0.4021 0 7
-5.8822 -2.1653 -2.7527 0.4021 0 7
-5.8623 -2.2185 -2.7527 0.4021 0 7
-5.8420 -2.2714 -2.7527 0.4021 0 7
-5.8212 -2.3242 -2.7527 0.4021 0 7
-5.7999 -2.3768 -2.7527 0.4021 0 7
-5.7782 -2.4292 -2.7527 0.4021 0 7
-5.7559 -2.4815 -2.7527 0.4021 0 7
-5.7332 -2.5335 -2.7527 0.4021 0 7
-5.7101 -2.5853 -2.7527 0.4021 0 7
-5.6864 -2.6368 -2.7527 0.4021 0 7
-5.6623 -2.6882 -2.7527 0.4021 0 7
-5.6378 -2.7394 -2.7527 0.4021 0 7
-5.6127 -2.7903 -2.7527 0.4021 0 7
-5.5872 -2.8410 -2.7527 0.4021 0 7
-5.5613 -2.8914 -2.7527 0.4021 0 7
-5.5349 -2.9417 -2.7527 0.4021 0 7
-5.5080 -2.9916 -2.7527 0.4021 0 7
-5.4807 -3.0414 -2.7527 0.4021 0 7
-5.4530 -3.0909 -2.7527 0.4021 0 7
-5.4248 -3.1401 -2.7527 0.4021 0 7
-5.3961 -3.1891 -2.7527 0.4021 0 7
-5.3670 -3.2378 -2.7527 0.4021 0 7
-5.3375 -3.2862 -2.7527 0.4021 0 7
-5.3075 -3.3344 -2.7527 0.4021 0 7
-5.2771 -3.3823 -2.7527 0.4021 0 7
-5.2463 -3.4300 -2.7527 0.4021 0 7
-5.2150 -3.4773 -2.7527 0.4021 0 7
-5.1833 -3.5244 -2.7527 0.4021 0 7
-5.1512 -3.5712 -2.7527 0.4021 0 7
-5.1187 -3.6177 -2.7527 0.4021 0 7
-5.0857 -3.6638 -2.7527 0.4021 0 7
-5.0523 -3.7097 -2.7527 0.4021 0 7
-5.0186 -3.7553 -2.7527 0.4021 0 7
-4.9844 -3.8006 -2.7527 0.4021 0 7
-4.9497 -3.8456 -2.7527 0.4021 0 7
-4.9147 -3.8902 -2.7527 0.4021 0 7
-4.8793 -3.9345 -2.7527 0.4021 0 7
-4.8435 -3.9785 -2.7527 0.4021 0 7
-4.8073 -4.0222 -2.7527 0.4021 0 7
-4.7707 -4.0656 -2.7527 0.4021 0 7
-4.7337 -4.1086 -2.7527 0.4021 0 7
-4.6963 -4.1513 -2.7527 0.4021 0 7
-4.6585 -4.1936 -2.7527 0.4021 0 7
-4.6204 -4.2356 -2.7527 0.4021 0 7
-4.5818 -4.2773 -2.7527 0.4021 0 7
-4.5429 -4.3186 -2.7527 0.4021 0 7
-4.5036 -4.3595 -2.7527 0.4021 0 7
-4.4640 -4.4001 -2.7527 0.4021 0 7
-4.4240 -4.4404 -2.7527 0.4021 0 7
-4.3836 -4.4802 -2.7527 0.4021 0 7
-4.3429 -4.5197 -2.7527 0.4021 0 7
-4.3018 -4.5588 -2.7527 0.4021 0 7
-4.2603 -4.5976 -2.7527 0.4021 0 7
-4.2185 -4.6360 -2.7527 0.4021 0 7
-4.1764 -4.6740 -2.7527 0.4021 0 7
-4.1339 -4.7116 -2.7527 0.4021 0 7
-4.0911 -4.7488 -2.7527 0.4021 0 7
-4.0479 -4.7857 -2.7527 0.4021 0 7
-4.0044 -4.8221 -2.7527 0.4021 0 7
-3.9606 -4.8582 -2.7527 0.4021 0 7
-3.9165 -4.8938 -2.7527 0.4021 0 7
-3.8720 -4.9291 -2.7527 0.4021 0 6
-3.8272 -4.9639 -2.7527 0.4021 0 6
-3.7822 -4.9984 -2.7527 0.4021 0 6
-3.7368 -5.0324 -2.7527 0.4021 0 6
-3.6910 -5.0660 -2.7527 0.4021 0 7
-3.6450 -5.0992 -2.7527 0.4021 0 7
-3.5987 -5.1320 -2.7527 0.4021 0 7
-3.5521 -5.1644 -2.7527 0.4021 0 7
-3.5052 -5.1963 -2.7527 0.4021 0 7
-3.4580 -5.2278 -2.7527 0.4021 0 7
-3.4106 -5.2589 -2.7527 0.4021 0 7
-3.3628 -5.2896 -2.7527 0.4021 0 7
-3.3148 -5.3198 -2.7527 0.4021 0 7
-3.2665 -5.3496 -2.7527 0.4021 0 7
-3.2180 -5.3790 -2.7527 0.4021 0 7
-3.1691 -5.4079 -2.7527 0.4021 0 7
-3.1200 -5.4363 -2.7527 0.4021 0 7
-3.0707 -5.4644 -2.7527 0.4021 0 7
-3.0211 -5.4919 -2.7527 0.4021 0 7
-2.9713 -5.5190 -2.7527 0.4021 0 7
-2.9212 -5.5457 -2.7527 0.4021 0 7
-2.8709 -5.5719 -2.7527 0.4021 0 7
-2.8203 -5.5977 -2.7527 0.4021 0 7
-2.7695 -5.6230 -2.7527 0.4021 0 7
-2.7185 -5.6478 -2.7527 0.9335 0 8
-2.6605 -5.6578 -2.7458 0.9359 0 8
-2.6028 -5.6678 -2.7390 0.9382 0 8
-2.5453 -5.6777 -2.7326 0.9404 0 8
-2.4882 -5.6874 -2.7263 0.9426 0 8
-2.4312 -5.6971 -2.7203 0.9446 0 8
-2.3745 -5.7068 -2.7145 0.9466 0 8
-2.3179 -5.7163 -2.7090 0.9486 0 8
-2.2617 -5.7258 -2.7036 0.9505 0 8
-2.2056 -5.7352 -2.6985 0.9523 0 8
-2.1496 -5.7445 -2.6937 0.9540 0 8
-2.0939 -5.7538 -2.6890 0.9556 0 8
-2.0384 -5.7629 -2.6846 0.9572 0 8
-1.9830 -5.7721 -2.6803 0.9587 0 8
-1.9278 -5.7811 -2.6763 0.9602 0 8
-1.8727 -5.7901 -2.6726 0.9615 0 8
-1.8178 -5.7991 -2.6690 0.9628 0 8
-1.7630 -5.8080 -2.6656 0.9640 0 8
-1.7083 -5.8168 -2.6624 0.9652 0 8
-1.6538 -5.8255 -2.6595 0.9662 0 8
-1.5993 -5.8343 -2.6568 0.9672 0 8
-1.5450 -5.8429 -2.6542 0.9682 0 8
-1.4907 -5.8515 -2.6519 0.9690 0 8
-1.4365 -5.8601 -2.6498 0.9698 0 8
-1.3824 -5.8686 -2.6478 0.9705 0 8
-1.3283 -5.8770 -2.6461 0.9711 0 8
-1.2744 -5.8854 -2.6446 0.9717 0 8
-1.2204 -5.8938 -2.6433 0.9722 0 8
-1.1665 -5.9021 -2.6422 0.9726 0 8
-1.1127 -5.9104 -2.6413 0.9729 0 8
-1.0588 -5.9186 -2.6406 0.9732 0 8
-1.0050 -5.9268 -2.6400 0.9734 0 8
-0.9512 -5.9350 -2.6397 0.9735 0 8
-0.8974 -5.9431 -2.6396 0.9735 0 8
-0.8436 -5.9512 -2.6397 0.9735 0 8
-0.7898 -5.9592 -2.6400 0.9734 0 8
-0.7359 -5.9673 -2.6405 0.9732 0 8
-0.6821 -5.9752 -2.6412 0.9729 0 8
-0.6282 -5.9832 -2.6421 0.9726 0 8
-0.5742 -5.9911 -2.6432 0.9722 0 8
-0.5202 -5.9990 -2.6445 0.9717 0 8
-0.4661 -6.0068 -2.6460 0.9712 0 8
-0.4120 -6.0147 -2.6477 0.9706 0 8
-0.3578 -6.0225 -2.6496 0.9699 0 8
-0.3035 -6.0303 -2.6517 0.9691 0 8
-0.2491 -6.0380 -2.6540 0.9682 0 8
-0.1946 -6.0457 -2.6565 0.9673 0 8
-0.1401 -6.0534 -2.6592 0.9663 0 8
-0.0853 -6.0611 -2.6621 0.9653 0 8
-0.0305 -6.0688 -2.6653 0.9641 0 8
0.0245 -6.0764 -2.6686 0.9629 0 8
0.0796 -6.0841 -2.6722 0.9616 0 8
0.1348 -6.0917 -2.6759 0.9603 0 8
0.1903 -6.0993 -2.6799 0.9589 0 8
0.2459 -6.1069 -2.6841 0.9574 0 8
0.3016 -6.1144 -2.6885 0.9558 0 8
0.3576 -6.1220 -2.6932 0.9541 0 8
0.4137 -6.1295 -2.6980 0.9524 0 8
0.4701 -6.1371 -2.7031 0.9506 0 8
0.5266 -6.1446 -2.7084 0.9488 0 8
0.5834 -6.1521 -2.7139 0.9468 0 8
0.6405 -6.1596 -2.7197 0.9448 0 8
0.6977 -6.1671 -2.7257 0.9428 0 8
0.7553 -6.1746 -2.7319 0.9406 0 8
0.8130 -6.1821 -2.7384 0.9384 0 8
0.8711 -6.1896 -2.7451 0.9361 0 8
0.9294 -6.1971 -2.7520 0.9338 0 8
0.9857 -6.1900 -2.7527 0.4021 0 7
1.0417 -6.1809 -2.7527 0.4021 0 7
1.0976 -6.1712 -2.7527 0.4021 0 7
1.1535 -6.1610 -2.7527 0.4021 0 7
1.2092 -6.1503 -2.7527 0.4021 0 7
1.2648 -6.1391 -2.7527 0.4021 0 7
1.3203 -6.1274 -2.7527 0.4021 0 7
1.3757 -6.1152 -2.7527 0.4021 0 7
1.4310 -6.1025 -2.7527 0.4021 0 7
1.4862 -6.0893 -2.7527 0.4021 0 7
1.5413 -6.0756 -2.7527 0.4021 0 7
1.5962 -6.0614 -2.7527 0.4021 0 7
1.6510 -6.0467 -2.7527 0.4021 0 7
1.7057 -6.0315 -2.7527 0.4021 0 7
1.7602 -6.0158 -2.7527 0.4021 0 7
1.8146 -5.9996 -2.7527 0.4021 0 7
1.8689 -5.9829 -2.7527 0.4021 0 7
1.9229 -5.9658 -2.7527 0.4021 0 7
1.9769 -5.9481 -2.7527 0.4021 0 7
2.0306 -5.9300 -2.7527 0.4021 0 7
2.0842 -5.9114 -2.7527 0.4021 0 6
2.1377 -5.8923 -2.7527 0.4021 0 6
2.1909 -5.8727 -2.7527 0.4021 0 6
2.2440 -5.8526 -2.7527 0.4021 0 6
2.2969 -5.8320 -2.7527 0.4021 0 7
2.3496 -5.8110 -2.7527 0.4021 0 7
2.4021 -5.7895 -2.7527 0.4021 0 7
2.4544 -5.7675 -2.7527 0.4021 0 7
2.5065 -5.7451 -2.7527 0.4021 0 7
2.5584 -5.7221 -2.7527 0.4021 0 7
2.6101 -5.6987 -2.7527 0.4021 0 7
2.6616 -5.6749 -2.7527 0.4021 0 7
2.7129 -5.6505 -2.7527 0.4021 0 7
2.7639 -5.6258 -2.7527 0.4021 0 7
2.8147 -5.6005 -2.7527 0.4021 0 7
2.8653 -5.5748 -2.7527 0.4021 0 7
2.9156 -5.5486 -2.7527 0.4021 0 7
2.9657 -5.5220 -2.7527 0.4021 0 7
3.0156 -5.4949 -2.7527 0.4021 0 7
3.0652 -5.4674 -2.7527 0.4021 0 7
3.1146 -5.4394 -2.7527 0.4021 0 7
3.1637 -5.4110 -2.7527 0.4021 0 7
3.2126 -5.3822 -2.7527 0.4021 0 7
3.2612 -5.3529 -2.7527 0.4021 0 7
3.3095 -5.3231 -2.7527 0.4021 0 7
3.3575 -5.2929 -2.7527 0.4021 0 7
3.4053 -5.2623 -2.7527 0.4021 0 7
3.4528 -5.2313 -2.7527 0.4021 0 7
3.5000 -5.1998 -2.7527 0.4021 0 7
3.5470 -5.1679 -2.7527 0.4021 0 7
3.5936 -5.1356 -2.7527 0.4021 0 7
3.6399 -5.1029 -2.7527 0.4021 0 7
3.6860 -5.0697 -2.7527 0.4021 0 7
