ply
format ascii 1.0
element vertex 1355
property float32 x
property float32 y
property float32 z
property float32 CosAngle
property uint32 ObjIdx
property uint32 ObjTag
end_header
-22.5201 1.2313 -2.7435 0.1208 0 7
-22.5303 1.0274 -2.7435 0.1208 0 7
-22.5387 0.8234 -2.7435 0.1208 0 7
-22.5452 0.6193 -2.7435 0.1208 0 7
-22.5499 0.4152 -2.7435 0.1208 0 7
-22.5527 0.2111 -2.7435 0.1208 0 7
-22.5537 0.0069 -2.7435 0.1208 0 7
-22.5529 -0.1973 -2.7435 0.1208 0 7
-22.5502 -0.4014 -2.7435 0.1208 0 7
-22.5456 -0.6055 -2.7435 0.1208 0 7
-22.5392 -0.8096 -2.7435 0.1208 0 7
-22.5309 -1.0136 -2.7435 0.1208 0 7
-22.5208 -1.2175 -2.7435 0.1208 0 7
-22.5089 -1.4213 -2.7435 0.1208 0 6
-22.4951 -1.6251 -2.7435 0.1208 0 7
-22.4795 -1.8286 -2.7435 0.1208 0 7
-22.4620 -2.0321 -2.7435 0.1208 0 7
-22.4427 -2.2353 -2.7435 0.1208 0 7
-22.4215 -2.4384 -2.7435 0.1208 0 7
-22.3985 -2.6412 -2.7435 0.1208 0 7
-22.3737 -2.8439 -2.7435 0.1208 0 7
-22.3470 -3.0463 -2.7435 0.1208 0 7
-22.3186 -3.2485 -2.7435 0.1208 0 7
-22.2882 -3.4504 -2.7435 0.1208 0 7
-22.2561 -3.6520 -2.7435 0.1208 0 7
-22.2221 -3.8534 -2.7435 0.1208 0 7
-22.1863 -4.0544 -2.7435 0.1208 0 7
-22.1487 -4.2550 -2.7435 0.1208 0 7
-22.1093 -4.4554 -2.7435 0.1208 0 7
-22.0680 -4.6553 -2.7435 0.1208 0 7
-22.0250 -4.8549 -2.7435 0.1208 0 7
-21.9801 -5.0541 -2.7435 0.1208 0 7
-21.9335 -5.2529 -2.7435 0.1208 0 7
-21.8850 -5.4512 -2.7435 0.1208 0 7
-21.8348 -5.6491 -2.7435 0.1208 0 7
-21.7828 -5.8465 -2.7435 0.1208 0 7
-21.7289 -6.0435 -2.7435 0.1208 0 7
-21.6733 -6.2399 -2.7435 0.1208 0 7
-21.6160 -6.4359 -2.7435 0.1208 0 7
-21.5568 -6.6313 -2.7435 0.1208 0 7
-21.4959 -6.8262 -2.7435 0.1208 0 7
-21.4332 -7.0205 -2.7435 0.1208 0 7
-21.3688 -7.2142 -2.7435 0.1208 0 7
-21.3026 -7.4074 -2.7435 0.1208 0 7
-21.2347 -7.5999 -2.7435 0.1208 0 7
-21.1650 -7.7918 -2.7435 0.1208 0 7
-21.0936 -7.9831 -2.7435 0.1208 0 7
-21.0205 -8.1737 -2.7435 0.1208 0 7
-20.9456 -8.3637 -2.7435 0.1208 0 7
-20.8691 -8.5530 -2.7435 0.1208 0 7
-20.7908 -8.7415 -2.7435 0.1208 0 7
-20.7108 -8.9294 -2.7435 0.1208 0 7
-20.6291 -9.1165 -2.7435 0.1208 0 7
-20.5457 -9.3029 -2.7435 0.1208 0 7
-20.4607 -9.4885 -2.7435 0.1208 0 7
-20.3739 -9.6733 -2.7435 0.1208 0 7
-20.2855 -9.8574 -2.7435 0.1208 0 7
-20.1955 -10.0406 -2.7435 0.1208 0 7
-20.1038 -10.2230 -2.7435 0.1208 0 7
-20.0104 -10.4046 -2.7435 0.1208 0 7
-19.9154 -10.5853 -2.7435 0.1208 0 7
-19.8187 -10.7651 -2.7435 0.1208 0 7
-19.7205 -10.9441 -2.7435 0.1208 0 7
-19.6206 -11.1222 -2.7435 0.1208 0 7
-19.5191 -11.2993 -2.7435 0.1208 0 7
-19.4160 -11.4756 -2.7435 0.1208 0 7
-19.3113 -11.6509 -2.7435 0.1208 0 7
-19.2051 -11.8252 -2.7435 0.1208 0 7
-19.0972 -11.9986 -2.7435 0.1208 0 7
-18.9878 -12.1710 -2.7435 0.1208 0 7
-18.8769 -12.3424 -2.7435 0.1208 0 7
-18.7644 -12.5128 -2.7435 0.1208 0 7
-18.6503 -12.6821 -2.7435 0.1208 0 7
-18.5348 -12.8504 -2.7435 0.1208 0 7
-18.4177 -13.0177 -2.7435 0.1208 0 7
-18.2991 -13.1839 -2.7435 0.1208 0 7
-18.1790 -13.3490 -2.7435 0.1208 0 7
-18.0574 -13.5130 -2.7435 0.1208 0 7
-17.9343 -13.6759 -2.7435 0.1208 0 7
-17.8098 -13.8377 -2.7435 0.1208 0 7
-17.6838 -13.9984 -2.7435 0.1208 0 7
-17.5563 -14.1579 -2.7435 0.1208 0 7
-17.4275 -14.3162 -2.7435 0.1208 0 7
-17.2971 -14.4734 -2.7435 0.1208 0 7
-17.1654 -14.6294 -2.7435 0.1208 0 7
-17.0323 -14.7842 -2.7435 0.1208 0 7
-16.8978 -14.9378 -2.7435 0.1208 0 7
-16.7618 -15.0901 -2.7435 0.1208 0 7
-16.6245 -15.2412 -2.7435 0.1208 0 7
-16.4859 -15.3911 -2.7435 0.1208 0 7
-16.3459 -15.5397 -2.7435 0.1208 0 7
-16.2045 -15.6871 -2.7435 0.1208 0 7
-16.0619 -15.8331 -2.7435 0.1208 0 7
-15.9179 -15.9778 -2.7435 0.1208 0 7
-15.7726 -16.1213 -2.7435 0.1208 0 7
-15.6260 -16.2634 -2.7435 0.1208 0 7
-15.4781 -16.4042 -2.7435 0.1208 0 7
-15.3290 -16.5437 -2.7435 0.1208 0 7
-15.1786 -16.6817 -2.7435 0.1208 0 7
-15.0270 -16.8185 -2.7435 0.1208 0 7
-14.8741 -16.9538 -2.7435 0.1208 0 7
-14.7200 -17.0878 -2.7435 0.1208 0 7
-14.5647 -17.2203 -2.7435 0.1208 0 7
-14.4083 -17.3514 -2.7435 0.1208 0 7
-14.2506 -17.4812 -2.7435 0.1208 0 7
-14.0917 -17.6095 -2.7435 0.1208 0 7
-13.9318 -17.7363 -2.7435 0.1208 0 7
-13.7706 -17.8617 -2.7435 0.1208 0 7
-13.6084 -17.9856 -2.7435 0.1208 0 7
-13.4347 -18.0943 -2.7414 0.1291 0 8
-13.2569 -18.1966 -2.7386 0.1292 0 8
-13.0759 -18.2939 -2.7353 0.5228 0 8
-12.7256 -18.1489 -2.6963 0.5304 0 8
-12.3852 -18.0080 -2.6586 0.5379 0 8
-12.0540 -17.8709 -2.6221 0.5454 0 8
-11.7509 -17.7663 -2.5911 0.1208 0 8
-11.5896 -17.8720 -2.5911 0.1208 0 8
-11.4273 -17.9762 -2.5911 0.1208 0 8
-11.2642 -18.0789 -2.5911 0.1208 0 8
-11.1000 -18.1801 -2.5911 0.1208 0 8
-10.9350 -18.2798 -2.5911 0.1208 0 8
-10.7691 -18.3781 -2.5911 0.1208 0 8
-10.6023 -18.4748 -2.5911 0.1208 0 8
-10.4346 -18.5700 -2.5911 0.1208 0 8
-10.2661 -18.6637 -2.5911 0.1208 0 8
-10.0967 -18.7559 -2.5911 0.1208 0 8
-9.9265 -18.8465 -2.5911 0.1208 0 8
-9.7555 -18.9356 -2.5911 0.1208 0 8
-9.5836 -19.0232 -2.5911 0.1208 0 8
-9.4110 -19.1091 -2.5911 0.1208 0 8
-9.2377 -19.1936 -2.5911 0.1208 0 8
-9.0635 -19.2764 -2.5911 0.1208 0 8
-8.8887 -19.3577 -2.5911 0.1208 0 8
-8.7131 -19.4373 -2.5911 0.1208 0 8
-8.5367 -19.5154 -2.5911 0.1208 0 8
-8.3597 -19.5919 -2.5911 0.1208 0 8
-8.1820 -19.6667 -2.5911 0.1208 0 8
-8.0037 -19.7400 -2.5911 0.1208 0 8
-7.8246 -19.8117 -2.5911 0.1208 0 8
-7.6450 -19.8817 -2.5911 0.1208 0 8
-7.4647 -19.9501 -2.5911 0.1208 0 8
-7.2838 -20.0168 -2.5911 0.1208 0 8
-7.1023 -20.0820 -2.5911 0.1208 0 8
-6.9202 -20.1454 -2.5911 0.1208 0 8
-6.7375 -20.2072 -2.5911 0.1208 0 8
-6.5543 -20.2674 -2.5911 0.1208 0 8
-6.3706 -20.3259 -2.5911 0.1208 0 8
-6.1863 -20.3828 -2.5911 0.1208 0 8
-6.0015 -20.4379 -2.5911 0.1208 0 8
-5.8163 -20.4914 -2.5911 0.1208 0 8
-5.6305 -20.5432 -2.5911 0.1208 0 8
-5.4444 -20.5933 -2.5911 0.1208 0 8
-5.2577 -20.6418 -2.5911 0.1208 0 8
-5.0706 -20.6885 -2.5911 0.1208 0 8
-4.8832 -20.7336 -2.5911 0.1208 0 8
-4.6952 -20.7770 -2.5911 0.1208 0 8
-4.5070 -20.8186 -2.5911 0.1208 0 8
-4.3183 -20.8585 -2.5911 0.1208 0 8
-4.1293 -20.8968 -2.5911 0.1208 0 8
-3.9400 -20.9333 -2.5911 0.1208 0 8
-3.7503 -20.9680 -2.5911 0.1176 0 8
-3.5609 -21.0044 -2.5915 0.1176 0 8
-3.3711 -21.0391 -2.5919 0.1176 0 8
-3.1810 -21.0720 -2.5923 0.1176 0 8
-2.9906 -21.1031 -2.5927 0.1176 0 8
-2.7999 -21.1325 -2.5931 0.1175 0 8
-2.6088 -21.1601 -2.5934 0.1175 0 8
-2.4175 -21.1860 -2.5938 0.1175 0 8
-2.2259 -21.2100 -2.5942 0.1175 0 8
-1.9307 -20.1531 -2.4627 0.8616 0 19
-1.7508 -20.1989 -2.4662 0.4859 0 19
-1.5341 -19.7795 -2.4132 0.4624 0 19
-1.3769 -20.1121 -2.4522 0.8747 0 19
-1.2648 -21.3036 -2.5960 0.1174 0 8
-1.0721 -21.3169 -2.5963 0.1174 0 8
-0.8791 -21.3285 -2.5966 0.1174 0 8
-0.6861 -21.3382 -2.5970 0.1174 0 8
-0.4930 -21.3462 -2.5973 0.1174 0 8
-0.2998 -21.3523 -2.5976 0.1173 0 8
-0.1065 -21.3567 -2.5979 0.1173 0 8
0.0869 -21.3593 -2.5982 0.1173 0 8
0.2803 -21.3600 -2.5985 0.1173 0 8
0.4737 -21.3590 -2.5988 0.1173 0 8
0.6671 -21.3561 -2.5991 0.1173 0 8
0.8605 -21.3515 -2.5993 0.1173 0 8
1.0538 -21.3450 -2.5996 0.1172 0 8
1.2471 -21.3368 -2.5999 0.1172 0 8
1.4404 -21.3267 -2.6001 0.1172 0 8
1.6335 -21.3149 -2.6004 0.1172 0 8
1.8266 -21.3012 -2.6006 0.1172 0 8
2.0195 -21.2856 -2.6008 0.1172 0 8
2.2123 -21.2683 -2.6011 0.1172 0 8
2.4050 -21.2493 -2.6013 0.1172 0 8
1.7288 -14.1295 -1.7316 0.7317 0 9
1.8414 -13.9968 -1.7173 0.7377 0 9
1.9520 -13.8662 -1.7033 0.7438 0 9
2.0819 -13.8777 -1.7070 0.9461 0 9
2.2143 -13.9007 -1.7122 0.9432 0 9
2.3474 -13.9239 -1.7176 0.9402 0 9
2.5386 -14.2688 -1.7629 0.1722 0 9
3.9386 -21.0322 -2.6029 0.1171 0 8
4.1291 -20.9970 -2.6030 0.1171 0 8
4.3192 -20.9600 -2.6032 0.1171 0 8
4.5091 -20.9213 -2.6033 0.1171 0 8
4.6985 -20.8808 -2.6035 0.1171 0 8
4.0264 -17.1665 -2.1448 0.5781 0 19
4.1489 -16.9955 -2.1281 0.7601 0 19
4.2959 -16.9309 -2.1248 0.7613 0 19
4.4517 -16.9014 -2.1260 0.7112 0 19
4.6229 -16.9278 -2.1345 0.7084 0 19
3.3729 -11.9246 -1.5074 0.8630 0 5
6.0133 -20.5479 -2.6043 0.1170 0 8
6.1993 -20.4933 -2.6044 0.1170 0 8
6.3848 -20.4370 -2.6045 0.1170 0 8
6.5697 -20.3789 -2.6046 0.1170 0 8
6.7541 -20.3191 -2.6046 0.1170 0 8
6.9379 -20.2576 -2.6047 0.1170 0 8
7.1212 -20.1944 -2.6047 0.1170 0 8
7.3038 -20.1295 -2.6048 0.1170 0 8
7.4859 -20.0629 -2.6048 0.1170 0 8
7.6673 -19.9946 -2.6049 0.1170 0 8
7.8481 -19.9246 -2.6049 0.1170 0 8
8.0282 -19.8529 -2.6049 0.1170 0 8
8.2077 -19.7796 -2.6049 0.1170 0 8
8.3864 -19.7046 -2.6050 0.1170 0 8
8.5645 -19.6279 -2.6050 0.1170 0 8
8.7418 -19.5495 -2.6050 0.1170 0 8
8.9184 -19.4695 -2.6049 0.1170 0 8
9.0942 -19.3878 -2.6049 0.1170 0 8
9.2692 -19.3045 -2.6049 0.1170 0 8
9.4435 -19.2196 -2.6049 0.1170 0 8
9.6170 -19.1330 -2.6048 0.1170 0 8
9.7896 -19.0449 -2.6048 0.1170 0 8
9.9614 -18.9551 -2.6047 0.1170 0 8
10.1324 -18.8637 -2.6047 0.1170 0 8
10.3025 -18.7708 -2.6046 0.1170 0 8
10.4717 -18.6762 -2.6045 0.1170 0 8
10.6400 -18.5800 -2.6045 0.1170 0 8
10.8073 -18.4823 -2.6044 0.1171 0 8
10.9738 -18.3830 -2.6043 0.1171 0 8
11.1394 -18.2823 -2.6042 0.1171 0 8
11.3040 -18.1799 -2.6041 0.1171 0 8
9.5163 -15.0004 -2.1609 0.2977 0 19
9.5698 -14.7871 -2.1425 0.6297 0 19
9.6720 -14.6525 -2.1356 0.7695 0 19
9.7992 -14.5568 -2.1345 0.7699 0 19
9.9758 -14.5333 -2.1443 0.6751 0 19
10.2144 -14.5960 -2.1671 0.3757 0 19
12.4281 -17.4214 -2.6031 0.1171 0 8
12.5846 -17.3071 -2.6030 0.1171 0 8
12.7399 -17.1914 -2.6028 0.1171 0 8
12.8942 -17.0743 -2.6026 0.1171 0 8
13.0473 -16.9557 -2.6025 0.1171 0 8
13.1993 -16.8357 -2.6023 0.1171 0 8
13.3502 -16.7143 -2.6021 0.1172 0 8
13.4999 -16.5915 -2.6019 0.1172 0 8
13.6485 -16.4673 -2.6017 0.1172 0 8
13.7959 -16.3417 -2.6015 0.1172 0 8
13.9421 -16.2148 -2.6013 0.1172 0 8
14.0871 -16.0866 -2.6010 0.1172 0 8
14.2309 -15.9570 -2.6008 0.1172 0 8
14.3735 -15.8260 -2.6006 0.1172 0 8
14.5148 -15.6938 -2.6003 0.1172 0 8
14.6549 -15.5603 -2.6001 0.1172 0 8
14.7937 -15.4255 -2.5998 0.1173 0 8
14.9311 -15.2893 -2.5996 0.1173 0 8
15.0674 -15.1520 -2.5993 0.1173 0 8
15.2023 -15.0133 -2.5990 0.1173 0 8
15.3359 -14.8735 -2.5987 0.1173 0 8
15.4682 -14.7325 -2.5984 0.1173 0 8
15.5992 -14.5902 -2.5982 0.1173 0 8
15.7288 -14.4467 -2.5979 0.1173 0 8
15.8571 -14.3021 -2.5975 0.1174 0 8
15.9840 -14.1562 -2.5972 0.1174 0 8
16.1096 -14.0092 -2.5969 0.1174 0 8
16.2337 -13.8611 -2.5966 0.1174 0 8
16.3565 -13.7118 -2.5963 0.1174 0 8
15.5027 -12.7590 -2.4423 0.7337 0 19
15.6273 -12.6260 -2.4438 0.5462 0 19
16.7162 -13.2574 -2.5952 0.1175 0 8
15.9215 -12.3940 -2.4544 0.9760 0 19
16.9488 -12.9490 -2.5945 0.1175 0 8
17.0630 -12.7933 -2.5942 0.1175 0 8
17.1756 -12.6365 -2.5938 0.1175 0 8
17.2868 -12.4787 -2.5934 0.1175 0 8
17.3965 -12.3199 -2.5930 0.1176 0 8
17.5047 -12.1601 -2.5927 0.1176 0 8
17.6114 -11.9993 -2.5923 0.1176 0 8
17.7166 -11.8376 -2.5919 0.1176 0 8
17.8202 -11.6749 -2.5915 0.1176 0 8
17.9224 -11.5112 -2.5911 0.1177 0 8
18.0260 -11.3486 -2.5911 0.1208 0 8
18.1280 -11.1850 -2.5911 0.1208 0 8
18.2285 -11.0204 -2.5911 0.1208 0 8
13.1913 -7.8129 -1.8649 0.9834 0 19
13.2251 -7.6721 -1.8598 0.9908 0 19
13.3057 -7.5587 -1.8615 0.9144 0 19
18.6155 -10.3533 -2.5911 0.1208 0 8
18.7084 -10.1843 -2.5911 0.1208 0 8
18.7999 -10.0146 -2.5911 0.1208 0 8
14.2404 -7.4210 -1.9533 0.6314 0 19
14.1521 -7.2129 -1.9322 0.6383 0 19
14.2763 -7.1141 -1.9403 0.7583 0 19
14.4491 -7.0377 -1.9550 0.7486 0 19
14.6281 -6.9617 -1.9706 0.7426 0 19
19.3158 -8.9791 -2.5911 0.1208 0 8
15.3840 -6.9827 -2.0551 0.6721 0 19
15.2967 -6.7768 -2.0351 0.6786 0 19
15.3873 -6.6509 -2.0391 0.7183 0 19
15.5821 -6.5684 -2.0569 0.7121 0 19
15.7803 -6.4843 -2.0753 0.7058 0 19
19.7748 -7.9173 -2.5911 0.1208 0 8
19.8457 -7.7379 -2.5911 0.1208 0 8
19.9149 -7.5579 -2.5911 0.1208 0 8
19.9825 -7.3774 -2.5911 0.1208 0 8
20.0485 -7.1962 -2.5911 0.1208 0 8
20.1128 -7.0144 -2.5911 0.1208 0 8
20.1755 -6.8320 -2.5911 0.1208 0 8
20.2365 -6.6491 -2.5911 0.1208 0 8
20.2959 -6.4656 -2.5911 0.1208 0 8
20.3536 -6.2816 -2.5911 0.1208 0 8
20.4096 -6.0971 -2.5911 0.1208 0 8
20.4640 -5.9121 -2.5911 0.1208 0 8
20.5166 -5.7266 -2.5911 0.1208 0 8
20.5677 -5.5407 -2.5911 0.1208 0 8
20.6170 -5.3542 -2.5911 0.1208 0 8
20.6646 -5.1674 -2.5911 0.1208 0 8
20.7105 -4.9801 -2.5911 0.1208 0 8
20.7548 -4.7924 -2.5911 0.1208 0 8
20.7973 -4.6044 -2.5911 0.1208 0 8
20.8381 -4.4159 -2.5911 0.1208 0 8
20.8772 -4.2271 -2.5911 0.1208 0 8
20.9146 -4.0379 -2.5911 0.1208 0 8
20.9503 -3.8484 -2.5911 0.1208 0 8
20.9843 -3.6586 -2.5911 0.1208 0 8
21.0166 -3.4685 -2.5911 0.1208 0 8
21.3002 -3.3175 -2.6222 0.5454 0 8
21.6259 -3.1680 -2.6587 0.5379 0 8
21.9609 -3.0142 -2.6964 0.5304 0 8
22.3054 -2.8560 -2.7354 0.5228 0 8
22.3563 -2.6571 -2.7386 0.1292 0 8
22.4023 -2.4571 -2.7414 0.1291 0 8
22.4406 -2.2559 -2.7435 0.1208 0 7
22.4601 -2.0527 -2.7435 0.1208 0 7
22.4778 -1.8493 -2.7435 0.1208 0 7
22.4936 -1.6457 -2.7435 0.1208 0 7
22.5076 -1.4420 -2.7435 0.1208 0 7
22.5197 -1.2382 -2.7435 0.1208 0 7
22.5300 -1.0343 -2.7435 0.1208 0 7
22.5384 -0.8303 -2.7435 0.1208 0 7
22.5450 -0.6262 -2.7435 0.1208 0 7
22.5498 -0.4221 -2.7435 0.1208 0 7
22.5527 -0.2180 -2.7435 0.1208 0 7
22.5537 -0.0138 -2.7435 0.1208 0 6
22.5529 0.1904 -2.7435 0.1208 0 7
22.5503 0.3945 -2.7435 0.1208 0 7
22.5458 0.5986 -2.7435 0.1208 0 7
22.5394 0.8027 -2.7435 0.1208 0 7
22.5312 1.0067 -2.7435 0.1208 0 7
22.5212 1.2106 -2.7435 0.1208 0 7
22.5093 1.4145 -2.7435 0.1208 0 7
22.4956 1.6182 -2.7435 0.1208 0 7
22.4800 1.8218 -2.7435 0.1208 0 7
22.4626 2.0252 -2.7435 0.1208 0 7
22.4434 2.2284 -2.7435 0.1208 0 7
22.4223 2.4315 -2.7435 0.1208 0 7
22.3993 2.6344 -2.7435 0.1208 0 7
22.3746 2.8371 -2.7435 0.1208 0 7
22.3480 3.0395 -2.7435 0.1208 0 7
22.3195 3.2417 -2.7435 0.1208 0 7
22.2893 3.4436 -2.7435 0.1208 0 7
22.2572 3.6452 -2.7435 0.1208 0 7
22.2233 3.8466 -2.7435 0.1208 0 7
22.1876 4.0476 -2.7435 0.1208 0 7
22.1500 4.2483 -2.7435 0.1208 0 7
22.1106 4.4486 -2.7435 0.1208 0 7
22.0695 4.6486 -2.7435 0.1208 0 7
22.0265 4.8482 -2.7435 0.1208 0 7
21.9817 5.0474 -2.7435 0.1208 0 7
21.9351 5.2462 -2.7435 0.1208 0 7
21.8867 5.4445 -2.7435 0.1208 0 7
21.8365 5.6424 -2.7435 0.1208 0 7
21.7845 5.8399 -2.7435 0.1208 0 7
21.7308 6.0368 -2.7435 0.1208 0 7
21.6752 6.2333 -2.7435 0.1208 0 7
21.6179 6.4293 -2.7435 0.1208 0 7
21.5588 6.6247 -2.7435 0.1208 0 7
21.4980 6.8196 -2.7435 0.1208 0 7
21.4354 7.0139 -2.7435 0.1208 0 7
21.3710 7.2077 -2.7435 0.1208 0 6
21.3049 7.4008 -2.7435 0.1208 0 7
21.2370 7.5934 -2.7435 0.1208 0 7
21.1674 7.7854 -2.7435 0.1208 0 7
21.0961 7.9767 -2.7435 0.1208 0 7
21.0230 8.1673 -2.7435 0.1208 0 7
20.9482 8.3573 -2.7435 0.1208 0 7
20.8717 8.5466 -2.7435 0.1208 0 7
20.7934 8.7352 -2.7435 0.1208 0 7
20.7135 8.9231 -2.7435 0.1208 0 7
20.6319 9.1102 -2.7435 0.1208 0 7
20.5486 9.2966 -2.7435 0.1208 0 7
20.4636 9.4822 -2.7435 0.1208 0 7
20.3769 9.6671 -2.7435 0.1208 0 7
20.2886 9.8511 -2.7435 0.1208 0 7
20.1985 10.0344 -2.7435 0.1208 0 7
20.1069 10.2169 -2.7435 0.1208 0 7
20.0136 10.3985 -2.7435 0.1208 0 7
19.9186 10.5792 -2.7435 0.1208 0 7
19.8220 10.7591 -2.7435 0.1208 0 7
19.7238 10.9381 -2.7435 0.1208 0 7
19.6240 11.1162 -2.7435 0.1208 0 7
19.5226 11.2934 -2.7435 0.1208 0 7
19.4195 11.4696 -2.7435 0.1208 0 7
19.3149 11.6450 -2.7435 0.1208 0 7
19.2087 11.8193 -2.7435 0.1208 0 7
19.1009 11.9927 -2.7435 0.1208 0 7
18.9916 12.1652 -2.7435 0.1208 0 7
18.8807 12.3366 -2.7435 0.1208 0 7
18.7682 12.5070 -2.7435 0.1208 0 7
18.6542 12.6764 -2.7435 0.1208 0 7
18.5387 12.8447 -2.7435 0.1208 0 7
18.4217 13.0120 -2.7435 0.1208 0 7
18.3031 13.1783 -2.7435 0.1208 0 7
18.1831 13.3434 -2.7435 0.1208 0 6
18.0615 13.5075 -2.7435 0.1208 0 7
17.9385 13.6704 -2.7435 0.1208 0 7
17.8140 13.8323 -2.7435 0.1208 0 7
17.6881 13.9930 -2.7435 0.1208 0 7
17.5607 14.1525 -2.7435 0.1208 0 7
17.4318 14.3109 -2.7435 0.1208 0 7
17.3016 14.4681 -2.7435 0.1208 0 7
17.1699 14.6241 -2.7435 0.1208 0 7
17.0368 14.7790 -2.7435 0.1208 0 7
16.9008 14.9312 -2.7432 0.1259 0 8
16.7457 15.0663 -2.7401 0.1260 0 8
16.5896 15.1999 -2.7369 0.1262 0 8
16.1873 15.1031 -2.6930 0.3469 0 8
15.6740 14.8918 -2.6299 0.3552 0 8
15.3089 14.8110 -2.5911 0.1208 0 8
15.1742 14.9489 -2.5911 0.1208 0 8
15.0383 15.0857 -2.5911 0.1208 0 8
14.9011 15.2212 -2.5911 0.1208 0 8
14.7627 15.3555 -2.5911 0.1208 0 8
14.6231 15.4885 -2.5911 0.1208 0 8
14.4823 15.6202 -2.5911 0.1208 0 8
14.3403 15.7507 -2.5911 0.1208 0 8
14.1971 15.8798 -2.5911 0.1208 0 8
14.0528 16.0077 -2.5911 0.1208 0 8
13.9073 16.1343 -2.5911 0.1208 0 8
13.7606 16.2595 -2.5911 0.1208 0 8
13.6129 16.3834 -2.5911 0.1208 0 8
13.4640 16.5060 -2.5911 0.1208 0 8
13.3140 16.6272 -2.5911 0.1208 0 8
13.1630 16.7470 -2.5911 0.1208 0 8
13.0108 16.8655 -2.5911 0.1208 0 8
12.8576 16.9826 -2.5911 0.1208 0 8
12.7034 17.0983 -2.5911 0.1208 0 8
12.5480 17.2126 -2.5911 0.1208 0 8
9.8367 13.7532 -2.0568 0.4633 0 9
9.5484 13.6088 -2.0222 0.4712 0 9
9.2696 13.4691 -1.9889 0.4791 0 9
8.9692 13.2886 -1.9502 0.4869 0 9
9.6094 14.5188 -2.1179 0.8606 0 9
11.5951 17.8684 -2.5911 0.1208 0 8
11.4328 17.9727 -2.5911 0.1208 0 8
11.2697 18.0754 -2.5911 0.1208 0 8
8.4929 13.9005 -1.9815 0.8754 0 9
8.3269 13.9103 -1.9721 0.8796 0 9
8.1625 13.9200 -1.9629 0.8837 0 9
7.9995 13.9296 -1.9540 0.8878 0 9
7.9131 14.0726 -1.9639 0.8260 0 9
7.8334 14.2309 -1.9760 0.8210 0 9
7.7527 14.3911 -1.9884 0.8158 0 9
9.9322 18.8435 -2.5911 0.1208 0 8
9.7613 18.9326 -2.5911 0.1208 0 8
9.5895 19.0202 -2.5911 0.1208 0 22
7.6540 15.5294 -2.1060 0.1208 0 9
9.2435 19.1907 -2.5911 0.1208 0 22
9.0694 19.2736 -2.5911 0.1208 0 22
6.6931 14.5644 -1.9498 0.7746 0 9
6.6234 14.7635 -1.9683 0.7689 0 9
6.5381 14.9338 -1.9830 0.7632 0 9
4.5897 10.7472 -1.4215 0.9102 0 5
8.1881 19.6643 -2.5911 0.1208 0 22
8.0097 19.7376 -2.5911 0.1208 0 22
7.8307 19.8093 -2.5911 0.1208 0 22
7.6510 19.8794 -2.5911 0.1208 0 22
7.4708 19.9478 -2.5911 0.1208 0 22
7.2899 20.0146 -2.5911 0.1208 0 22
7.1084 20.0798 -2.5911 0.1208 0 22
6.9264 20.1433 -2.5911 0.1208 0 22
6.7437 20.2052 -2.5911 0.1208 0 22
6.5605 20.2654 -2.5911 0.1208 0 8
6.3768 20.3240 -2.5911 0.1208 0 8
6.1926 20.3809 -2.5911 0.1208 0 8
6.0078 20.4361 -2.5911 0.1208 0 8
5.8226 20.4896 -2.5911 0.1208 0 8
5.6368 20.5415 -2.5911 0.1208 0 8
5.4507 20.5917 -2.5911 0.1208 0 8
5.2640 20.6402 -2.5911 0.1208 0 8
5.0770 20.6870 -2.5911 0.1208 0 8
4.8895 20.7321 -2.5911 0.1208 0 8
4.7016 20.7755 -2.5911 0.1208 0 8
4.5133 20.8172 -2.5911 0.1208 0 8
18.9778 0.0000 -2.7435 0.1431 0 7
18.9771 0.1718 -2.7435 0.1431 0 7
18.9747 0.3436 -2.7435 0.1431 0 7
18.9709 0.5154 -2.7435 0.1431 0 7
18.9654 0.6871 -2.7435 0.1431 0 7
18.9584 0.8587 -2.7435 0.1431 0 7
18.9499 1.0303 -2.7435 0.1431 0 7
18.9398 1.2018 -2.7435 0.1431 0 7
18.9281 1.3732 -2.7435 0.1431 0 7
18.9149 1.5445 -2.7435 0.1431 0 7
18.9001 1.7157 -2.7435 0.1431 0 7
18.8838 1.8867 -2.7435 0.1431 0 7
18.8660 2.0576 -2.7435 0.1431 0 7
18.8466 2.2283 -2.7435 0.1431 0 7
18.8256 2.3988 -2.7435 0.1431 0 7
18.8031 2.5691 -2.7435 0.1431 0 7
18.7791 2.7392 -2.7435 0.1431 0 7
18.7536 2.9091 -2.7435 0.1431 0 7
18.7264 3.0787 -2.7435 0.1431 0 7
18.6978 3.2481 -2.7435 0.1431 0 7
18.6676 3.4173 -2.7435 0.1431 0 7
18.6359 3.5861 -2.7435 0.1431 0 7
18.6027 3.7547 -2.7435 0.1431 0 7
18.5680 3.9229 -2.7435 0.1431 0 7
18.5317 4.0909 -2.7435 0.1431 0 7
18.4939 4.2585 -2.7435 0.1431 0 7
18.4546 4.4257 -2.7435 0.1431 0 7
18.4138 4.5926 -2.7435 0.1431 0 7
18.3714 4.7591 -2.7435 0.1431 0 7
18.3276 4.9252 -2.7435 0.1431 0 7
18.2823 5.0909 -2.7435 0.1431 0 7
18.2354 5.2562 -2.7435 0.1431 0 7
18.1871 5.4211 -2.7435 0.1431 0 7
18.1373 5.5855 -2.7435 0.1431 0 7
18.0860 5.7494 -2.7435 0.1431 0 6
18.0332 5.9129 -2.7435 0.1431 0 7
17.9789 6.0759 -2.7435 0.1431 0 7
17.9232 6.2384 -2.7435 0.1431 0 7
17.8660 6.4004 -2.7435 0.1431 0 7
17.8073 6.5619 -2.7435 0.1431 0 7
17.7472 6.7228 -2.7435 0.1431 0 7
17.6856 6.8832 -2.7435 0.1431 0 7
17.6226 7.0430 -2.7435 0.1431 0 7
17.5581 7.2023 -2.7435 0.1431 0 7
17.4922 7.3609 -2.7435 0.1431 0 7
17.4248 7.5190 -2.7435 0.1431 0 7
17.3560 7.6764 -2.7435 0.1431 0 7
17.2858 7.8332 -2.7435 0.1431 0 7
17.2142 7.9894 -2.7435 0.1431 0 7
17.1412 8.1449 -2.7435 0.1431 0 7
17.0667 8.2997 -2.7435 0.1431 0 7
16.9909 8.4539 -2.7435 0.1431 0 7
16.9137 8.6073 -2.7435 0.1431 0 7
16.8351 8.7601 -2.7435 0.1431 0 7
16.7551 8.9121 -2.7435 0.1431 0 7
16.6737 9.0635 -2.7435 0.1431 0 7
16.5910 9.2140 -2.7435 0.1431 0 7
16.5069 9.3638 -2.7435 0.1431 0 7
16.4214 9.5129 -2.7435 0.1431 0 7
16.3346 9.6612 -2.7435 0.1431 0 7
16.2465 9.8086 -2.7435 0.1431 0 7
16.1571 9.9553 -2.7435 0.1431 0 7
16.0663 10.1011 -2.7435 0.1431 0 7
15.9742 10.2462 -2.7435 0.1431 0 7
15.8808 10.3904 -2.7435 0.1431 0 7
15.7861 10.5337 -2.7435 0.1431 0 7
15.6901 10.6762 -2.7435 0.1431 0 7
15.5928 10.8178 -2.7435 0.1431 0 7
15.4942 10.9585 -2.7435 0.1431 0 7
15.3944 11.0983 -2.7435 0.1431 0 7
15.2933 11.2372 -2.7435 0.1431 0 7
15.1909 11.3752 -2.7435 0.1431 0 7
15.0873 11.5122 -2.7435 0.1431 0 7
14.9825 11.6483 -2.7435 0.1431 0 7
14.8764 11.7835 -2.7435 0.1431 0 7
14.7691 11.9177 -2.7435 0.1431 0 7
14.6606 12.0509 -2.7435 0.1431 0 7
14.5510 12.1831 -2.7435 0.1431 0 7
14.4401 12.3143 -2.7435 0.1431 0 7
14.3280 12.4446 -2.7435 0.1431 0 7
14.2148 12.5737 -2.7435 0.1431 0 7
14.1004 12.7019 -2.7435 0.1431 0 7
13.9848 12.8290 -2.7435 0.1431 0 7
13.8681 12.9551 -2.7435 0.1431 0 7
13.7502 13.0801 -2.7435 0.1431 0 7
13.6313 13.2041 -2.7435 0.1431 0 7
13.5112 13.3269 -2.7435 0.1431 0 7
13.3852 13.4439 -2.7425 0.1492 0 8
13.2505 13.5517 -2.7399 0.1494 0 8
13.1149 13.6583 -2.7373 0.1495 0 8
12.8751 13.6538 -2.7130 0.4080 0 8
12.5032 13.5022 -2.6602 0.4161 0 8
12.1453 13.3563 -2.6097 0.4241 0 8
11.9380 13.3694 -2.5911 0.1431 0 8
11.8165 13.4769 -2.5911 0.1431 0 8
11.6940 13.5834 -2.5911 0.1431 0 8
11.5705 13.6887 -2.5911 0.1431 0 8
11.4461 13.7929 -2.5911 0.1431 0 8
11.3208 13.8959 -2.5911 0.1431 0 8
11.1945 13.9978 -2.5911 0.1431 0 8
11.0674 14.0986 -2.5911 0.1431 0 8
10.9393 14.1982 -2.5911 0.1431 0 8
10.8103 14.2966 -2.5911 0.1431 0 8
10.6804 14.3939 -2.5911 0.1431 0 8
9.9558 13.6743 -2.4452 0.4545 0 9
9.7217 13.6100 -2.4179 0.1431 0 9
9.5292 13.5992 -2.4005 0.4703 0 9
9.2510 13.4598 -2.3610 0.4782 0 9
8.9818 13.3250 -2.3230 0.4860 0 9
8.7212 13.1944 -2.2864 0.4938 0 9
8.4685 13.0678 -2.2511 0.5015 0 9
8.2236 12.9451 -2.2171 0.5092 0 9
7.9859 12.8261 -2.1842 0.5169 0 9
7.7552 12.7105 -2.1525 0.5245 0 9
7.6273 12.7593 -2.1490 0.8345 0 9
7.5554 12.9029 -2.1615 0.8297 0 9
7.4827 13.0481 -2.1744 0.8247 0 9
7.4091 13.1951 -2.1876 0.8198 0 9
7.3345 13.3439 -2.2012 0.8147 0 9
7.2590 13.4945 -2.2151 0.8096 0 9
7.1826 13.6471 -2.2294 0.8044 0 9
7.1052 13.8017 -2.2441 0.7991 0 9
7.0267 13.9584 -2.2591 0.7938 0 9
6.9472 14.1171 -2.2745 0.7884 0 9
6.8665 14.2781 -2.2904 0.7830 0 9
6.7848 14.4414 -2.3066 0.7775 0 9
6.7018 14.6069 -2.3233 0.7719 0 9
6.6177 14.7749 -2.3404 0.7663 0 9
6.5322 14.9455 -2.3579 0.7606 0 9
4.5813 10.7459 -1.6887 0.9078 0 5
6.8797 16.5507 -2.5911 0.1431 0 8
6.7296 16.6123 -2.5911 0.1431 0 8
6.5789 16.6726 -2.5911 0.1431 0 8
6.4277 16.7314 -2.5911 0.1431 0 8
6.2760 16.7889 -2.5911 0.1431 0 8
6.1238 16.8451 -2.5911 0.1431 0 8
5.9710 16.8998 -2.5911 0.1431 0 8
5.8178 16.9532 -2.5911 0.1431 0 8
5.6641 17.0051 -2.5911 0.1431 0 8
5.5099 17.0557 -2.5911 0.1431 0 8
5.3553 17.1049 -2.5911 0.1431 0 8
5.2002 17.1527 -2.5911 0.1431 0 22
5.0447 17.1991 -2.5911 0.1431 0 22
4.8888 17.2440 -2.5911 0.1431 0 22
4.7325 17.2876 -2.5911 0.1431 0 22
4.5758 17.3297 -2.5911 0.1431 0 22
4.4188 17.3704 -2.5911 0.1431 0 22
4.2614 17.4097 -2.5911 0.1431 0 22
4.1036 17.4476 -2.5911 0.1431 0 22
3.9455 17.4840 -2.5911 0.1431 0 22
3.7870 17.5190 -2.5911 0.1431 0 22
3.6283 17.5526 -2.5911 0.1431 0 22
3.4692 17.5847 -2.5911 0.1431 0 22
3.3099 17.6154 -2.5911 0.1431 0 22
3.1503 17.6446 -2.5911 0.1431 0 22
2.9905 17.6724 -2.5911 0.1431 0 22
2.8303 17.6987 -2.5911 0.1431 0 22
2.6700 17.7237 -2.5911 0.1431 0 22
2.5095 17.7471 -2.5911 0.1431 0 22
2.3487 17.7691 -2.5911 0.1431 0 22
2.1877 17.7896 -2.5911 0.1431 0 22
2.0266 17.8087 -2.5911 0.1431 0 22
1.8653 17.8263 -2.5911 0.1431 0 22
1.7039 17.8425 -2.5911 0.1431 0 22
1.5423 17.8572 -2.5911 0.1431 0 22
1.3805 17.8704 -2.5911 0.1431 0 22
1.2187 17.8821 -2.5911 0.1431 0 22
1.0568 17.8925 -2.5911 0.1431 0 8
0.8948 17.9013 -2.5911 0.1431 0 8
0.7327 17.9087 -2.5911 0.1431 0 8
0.5705 17.9146 -2.5911 0.1431 0 8
0.4083 17.9190 -2.5911 0.1431 0 8
0.2461 17.9219 -2.5911 0.1431 0 8
0.0839 17.9234 -2.5911 0.1431 0 8
-0.0784 17.9235 -2.5911 0.1431 0 8
-0.2407 17.9220 -2.5911 0.1431 0 8
-0.4029 17.9191 -2.5911 0.1431 0 8
-0.5651 17.9147 -2.5911 0.1431 0 8
-0.7272 17.9089 -2.5911 0.1431 0 8
-0.8893 17.9015 -2.5911 0.1431 0 8
-1.0513 17.8928 -2.5911 0.1431 0 8
-1.2133 17.8825 -2.5911 0.1431 0 8
-1.3751 17.8708 -2.5911 0.1431 0 8
-1.5368 17.8576 -2.5911 0.1431 0 8
-1.6984 17.8430 -2.5911 0.1431 0 8
-1.8599 17.8269 -2.5911 0.1431 0 8
-2.0212 17.8093 -2.5911 0.1431 0 8
-2.1823 17.7903 -2.5911 0.1431 0 8
-2.3433 17.7698 -2.5911 0.1431 0 8
-2.5040 17.7479 -2.5911 0.1431 0 8
-2.6646 17.7245 -2.5911 0.1431 0 8
-2.8249 17.6996 -2.5911 0.1431 0 8
-2.9850 17.6733 -2.5911 0.1431 0 8
-3.1449 17.6456 -2.5911 0.1431 0 8
-3.3045 17.6164 -2.5911 0.1431 0 8
-3.4638 17.5858 -2.5911 0.1431 0 8
-3.6229 17.5537 -2.5911 0.1431 0 8
-3.7817 17.5202 -2.5911 0.1431 0 8
-3.9400 17.4853 -2.5911 0.1431 0 8
-4.0983 17.4488 -2.5911 0.1431 0 8
-4.2560 17.4110 -2.5911 0.1431 0 8
-4.4134 17.3718 -2.5911 0.1431 0 8
-4.5704 17.3312 -2.5911 0.1431 0 8
-4.7273 17.2890 -2.5911 0.1431 0 8
-4.8837 17.2454 -2.5911 0.1431 0 8
-5.0395 17.2006 -2.5911 0.1431 0 8
-5.1950 17.1543 -2.5911 0.1431 0 8
-5.3501 17.1065 -2.5911 0.1431 0 8
-5.5047 17.0574 -2.5911 0.1431 0 8
-5.6589 17.0069 -2.5911 0.1431 0 8
-5.8126 16.9549 -2.5911 0.1431 0 8
-5.9659 16.9016 -2.5911 0.1431 0 8
-6.1186 16.8469 -2.5911 0.1431 0 8
-6.2709 16.7908 -2.5911 0.1431 0 8
-6.4226 16.7334 -2.5911 0.1431 0 8
-6.5738 16.6746 -2.5911 0.1431 0 8
-6.7245 16.6144 -2.5911 0.1431 0 8
-6.8746 16.5528 -2.5911 0.1431 0 8
-7.0242 16.4899 -2.5911 0.1431 0 8
-7.1732 16.4257 -2.5911 0.1431 0 8
-7.3216 16.3600 -2.5911 0.1431 0 8
-7.4694 16.2931 -2.5911 0.1431 0 8
-7.6166 16.2248 -2.5911 0.1431 0 8
-7.7631 16.1552 -2.5911 0.1431 0 8
-7.9091 16.0842 -2.5911 0.1431 0 8
-8.0544 16.0120 -2.5911 0.1431 0 8
-8.1990 15.9384 -2.5911 0.1431 0 8
-8.3429 15.8635 -2.5911 0.1431 0 8
-8.4862 15.7874 -2.5911 0.1431 0 8
-8.6288 15.7099 -2.5911 0.1431 0 8
-8.7706 15.6312 -2.5911 0.1431 0 8
-9.4217 16.4410 -2.7393 0.1412 0 8
-9.5804 16.3725 -2.7423 0.1410 0 8
-9.7325 16.2923 -2.7435 0.1431 0 7
-9.8796 16.2035 -2.7435 0.1431 0 7
-10.0259 16.1134 -2.7435 0.1431 0 7
-10.1713 16.0220 -2.7435 0.1431 0 7
-10.3159 15.9292 -2.7435 0.1431 0 7
-10.4597 15.8352 -2.7435 0.1431 0 7
-10.6026 15.7399 -2.7435 0.1431 0 7
-10.7447 15.6432 -2.7435 0.1431 0 7
-10.8859 15.5453 -2.7435 0.1431 0 7
-11.0261 15.4461 -2.7435 0.1431 0 7
-11.1655 15.3457 -2.7435 0.1431 0 7
-11.3040 15.2440 -2.7435 0.1431 0 6
-11.4415 15.1410 -2.7435 0.1431 0 7
-11.5781 15.0368 -2.7435 0.1431 0 7
-11.7138 14.9314 -2.7435 0.1431 0 7
-11.8484 14.8248 -2.7435 0.1431 0 7
-11.9822 14.7169 -2.7435 0.1431 0 7
-12.1149 14.6078 -2.7435 0.1431 0 7
-12.2466 14.4976 -2.7435 0.1431 0 7
-12.3774 14.3861 -2.7435 0.1431 0 7
-12.5071 14.2735 -2.7435 0.1431 0 7
-12.6358 14.1596 -2.7435 0.1431 0 7
-12.7634 14.0447 -2.7435 0.1431 0 7
-12.8901 13.9286 -2.7435 0.1431 0 7
-13.0156 13.8113 -2.7435 0.1431 0 7
-13.1401 13.6929 -2.7435 0.1431 0 7
-13.2635 13.5734 -2.7435 0.1431 0 7
-13.3859 13.4528 -2.7435 0.1431 0 7
-13.5071 13.3310 -2.7435 0.1431 0 7
-13.6272 13.2082 -2.7435 0.1431 0 7
-13.7462 13.0844 -2.7435 0.1431 0 7
-13.8641 12.9594 -2.7435 0.1431 0 7
-13.9808 12.8333 -2.7435 0.1431 0 7
-14.0965 12.7062 -2.7435 0.1431 0 6
-14.2109 12.5781 -2.7435 0.1431 0 7
-14.3242 12.4489 -2.7435 0.1431 0 7
-14.4363 12.3188 -2.7435 0.1431 0 7
-14.5472 12.1876 -2.7435 0.1431 0 7
-14.6570 12.0554 -2.7435 0.1431 0 7
-14.7655 11.9222 -2.7435 0.1431 0 7
-14.8728 11.7880 -2.7435 0.1431 0 7
-14.9789 11.6529 -2.7435 0.1431 0 7
-15.0838 11.5168 -2.7435 0.1431 0 7
-15.1874 11.3798 -2.7435 0.1431 0 7
-15.2898 11.2419 -2.7435 0.1431 0 7
-15.3910 11.1030 -2.7435 0.1431 0 7
-15.4909 10.9632 -2.7435 0.1431 0 6
-15.5895 10.8225 -2.7435 0.1431 0 6
-15.6869 10.6809 -2.7435 0.1431 0 6
-15.7829 10.5385 -2.7435 0.1431 0 6
-15.8776 10.3952 -2.7435 0.1431 0 7
-15.9711 10.2511 -2.7435 0.1431 0 7
-16.0632 10.1061 -2.7435 0.1431 0 7
-16.1540 9.9602 -2.7435 0.1431 0 7
-16.2435 9.8136 -2.7435 0.1431 0 7
-16.3317 9.6661 -2.7435 0.1431 0 7
-16.4185 9.5179 -2.7435 0.1431 0 6
-16.5040 9.3689 -2.7435 0.1431 0 6
-16.5882 9.2191 -2.7435 0.1431 0 7
-16.6709 9.0685 -2.7435 0.1431 0 7
-16.7523 8.9173 -2.7435 0.1431 0 7
-16.8324 8.7653 -2.7435 0.1431 0 7
-16.9110 8.6125 -2.7435 0.1431 0 7
-16.9883 8.4591 -2.7435 0.1431 0 7
-17.0642 8.3049 -2.7435 0.1431 0 6
-17.1387 8.1501 -2.7435 0.1431 0 6
-17.2118 7.9946 -2.7435 0.1431 0 7
-17.2834 7.8385 -2.7435 0.1431 0 7
-17.3537 7.6817 -2.7435 0.1431 0 7
-17.4225 7.5243 -2.7435 0.1431 0 7
-17.4899 7.3663 -2.7435 0.1431 0 6
-17.5559 7.2077 -2.7435 0.1431 0 6
-17.6204 7.0484 -2.7435 0.1431 0 6
-17.6835 6.8886 -2.7435 0.1431 0 6
-17.7451 6.7283 -2.7435 0.1431 0 7
-17.8053 6.5673 -2.7435 0.1431 0 7
-17.8640 6.4059 -2.7435 0.1431 0 7
-17.9213 6.2439 -2.7435 0.1431 0 7
-17.9771 6.0814 -2.7435 0.1431 0 7
-18.0314 5.9184 -2.7435 0.1431 0 6
-18.0842 5.7550 -2.7435 0.1431 0 6
-18.1356 5.5910 -2.7435 0.1431 0 6
-18.1855 5.4266 -2.7435 0.1431 0 6
-18.2338 5.2618 -2.7435 0.1431 0 7
-18.2807 5.0965 -2.7435 0.1431 0 7
-18.3261 4.9308 -2.7435 0.1431 0 7
-18.3700 4.7647 -2.7435 0.1431 0 7
-18.4124 4.5982 -2.7435 0.1431 0 7
-18.4533 4.4314 -2.7435 0.1431 0 7
-18.4926 4.2641 -2.7435 0.1431 0 7
-18.5305 4.0965 -2.7435 0.1431 0 7
-18.5668 3.9286 -2.7435 0.1431 0 7
-18.6016 3.7604 -2.7435 0.1431 0 7
-18.6349 3.5918 -2.7435 0.1431 0 7
-18.6666 3.4230 -2.7435 0.1431 0 7
-18.6968 3.2539 -2.7435 0.1431 0 7
-18.7255 3.0845 -2.7435 0.1431 0 7
-18.7527 2.9148 -2.7435 0.1431 0 7
-18.7783 2.7450 -2.7435 0.1431 0 7
-18.8024 2.5749 -2.7435 0.1431 0 7
-18.8249 2.4046 -2.7435 0.1431 0 7
-18.8459 2.2340 -2.7435 0.1431 0 7
-18.8654 2.0633 -2.7435 0.1431 0 7
-18.8833 1.8925 -2.7435 0.1431 0 7
-18.8996 1.7214 -2.7435 0.1431 0 7
-18.9144 1.5503 -2.7435 0.1431 0 7
-18.9277 1.3790 -2.7435 0.1431 0 7
-18.9394 1.2076 -2.7435 0.1431 0 7
-18.9495 1.0361 -2.7435 0.1431 0 7
-18.9581 0.8645 -2.7435 0.1431 0 7
-18.9652 0.6929 -2.7435 0.1431 0 7
-18.9707 0.5211 -2.7435 0.1431 0 7
-18.9746 0.3494 -2.7435 0.1431 0 7
-18.9770 0.1776 -2.7435 0.1431 0 7
-18.9778 0.0058 -2.7435 0.1431 0 7
-18.9771 -0.1660 -2.7435 0.1431 0 7
-18.9748 -0.3378 -2.7435 0.1431 0 7
-18.9710 -0.5095 -2.7435 0.1431 0 7
-18.9656 -0.6812 -2.7435 0.1431 0 7
-18.9587 -0.8529 -2.7435 0.1431 0 7
-18.9502 -1.0245 -2.7435 0.1431 0 7
-18.9401 -1.1960 -2.7435 0.1431 0 7
-18.9285 -1.3674 -2.7435 0.1431 0 7
-18.9154 -1.5387 -2.7435 0.1431 0 7
-18.9007 -1.7099 -2.7435 0.1431 0 7
-18.8844 -1.8809 -2.7435 0.1431 0 7
-18.8666 -2.0518 -2.7435 0.1431 0 7
-18.8473 -2.2225 -2.7435 0.1431 0 7
-18.8264 -2.3930 -2.7435 0.1431 0 7
-18.8039 -2.5633 -2.7435 0.1431 0 7
-18.7800 -2.7334 -2.7435 0.1431 0 7
-18.7545 -2.9033 -2.7435 0.1431 0 7
-18.7274 -3.0730 -2.7435 0.1431 0 7
-18.6988 -3.2424 -2.7435 0.1431 0 7
-18.6687 -3.4116 -2.7435 0.1431 0 7
-18.6370 -3.5804 -2.7435 0.1431 0 7
-18.6039 -3.7490 -2.7435 0.1431 0 7
-18.5692 -3.9172 -2.7435 0.1431 0 7
-18.5329 -4.0852 -2.7435 0.1431 0 7
-18.4952 -4.2528 -2.7435 0.1431 0 7
-18.4560 -4.4200 -2.7435 0.1431 0 7
-18.4152 -4.5869 -2.7435 0.1431 0 7
-18.3729 -4.7534 -2.7435 0.1431 0 7
-18.3291 -4.9196 -2.7435 0.1431 0 7
-18.2838 -5.0853 -2.7435 0.1431 0 7
-18.2371 -5.2506 -2.7435 0.1431 0 7
-18.1888 -5.4155 -2.7435 0.1431 0 7
-18.1390 -5.5799 -2.7435 0.1431 0 7
-18.0877 -5.7439 -2.7435 0.1431 0 7
-18.0350 -5.9074 -2.7435 0.1431 0 7
-17.9808 -6.0704 -2.7435 0.1431 0 7
-17.9251 -6.2329 -2.7435 0.1431 0 7
-17.8679 -6.3950 -2.7435 0.1431 0 7
-17.8093 -6.5564 -2.7435 0.1431 0 7
-17.7492 -6.7174 -2.7435 0.1431 0 7
-17.6877 -6.8778 -2.7435 0.1431 0 7
-17.6247 -7.0376 -2.7435 0.1431 0 7
-17.5603 -7.1969 -2.7435 0.1431 0 7
-17.4944 -7.3556 -2.7435 0.1431 0 7
-17.4271 -7.5136 -2.7435 0.1431 0 7
-17.3584 -7.6711 -2.7435 0.1431 0 7
-17.2882 -7.8279 -2.7435 0.1431 0 7
-17.2166 -7.9841 -2.7435 0.1431 0 7
-17.1437 -8.1396 -2.7435 0.1431 0 7
-17.0693 -8.2945 -2.7435 0.1431 0 7
-16.9935 -8.4487 -2.7435 0.1431 0 7
-16.9163 -8.6022 -2.7435 0.1431 0 7
-16.8378 -8.7549 -2.7435 0.1431 0 7
-16.7578 -8.9070 -2.7435 0.1431 0 7
-16.6765 -9.0583 -2.7435 0.1431 0 7
-16.5938 -9.2090 -2.7435 0.1431 0 7
-16.5098 -9.3588 -2.7435 0.1431 0 7
-16.4244 -9.5078 -2.7435 0.1431 0 7
-16.3376 -9.6561 -2.7435 0.1431 0 7
-16.2495 -9.8037 -2.7435 0.1431 0 7
-16.1601 -9.9503 -2.7435 0.1431 0 7
-16.0694 -10.0962 -2.7435 0.1431 0 7
-15.9773 -10.2413 -2.7435 0.1431 0 7
-15.8840 -10.3855 -2.7435 0.1431 0 7
-15.7893 -10.5289 -2.7435 0.1431 0 7
-15.6933 -10.6714 -2.7435 0.1431 0 7
-15.5961 -10.8130 -2.7435 0.1431 0 7
-15.4976 -10.9537 -2.7435 0.1431 0 7
-15.3978 -11.0936 -2.7435 0.1431 0 7
-15.2967 -11.2325 -2.7435 0.1431 0 7
-15.1944 -11.3705 -2.7435 0.1431 0 7
-15.0908 -11.5076 -2.7435 0.1431 0 7
-14.9861 -11.6438 -2.7435 0.1431 0 7
-14.8800 -11.7789 -2.7435 0.1431 0 7
-14.7728 -11.9132 -2.7435 0.1431 0 7
-14.6643 -12.0464 -2.7435 0.1431 0 7
-14.5547 -12.1787 -2.7435 0.1431 0 7
-14.4439 -12.3099 -2.7435 0.1431 0 7
-14.3318 -12.4402 -2.7435 0.1431 0 7
-14.2186 -12.5694 -2.7435 0.1431 0 7
-14.1043 -12.6976 -2.7435 0.1431 0 7
-13.9887 -12.8247 -2.7435 0.1431 0 7
-13.8721 -12.9508 -2.7435 0.1431 0 7
-13.7543 -13.0759 -2.7435 0.1431 0 7
-13.6353 -13.1999 -2.7435 0.1431 0 7
-13.5153 -13.3228 -2.7435 0.1431 0 7
-13.3941 -13.4446 -2.7435 0.1431 0 7
-13.2719 -13.5653 -2.7435 0.1431 0 7
-13.1485 -13.6849 -2.7435 0.1431 0 7
-13.0241 -13.8033 -2.7435 0.1431 0 7
-12.8986 -13.9207 -2.7435 0.1431 0 7
-12.7721 -14.0369 -2.7435 0.1431 0 7
-12.6445 -14.1519 -2.7435 0.1431 0 7
-12.5158 -14.2658 -2.7435 0.1431 0 7
-12.3862 -14.3785 -2.7435 0.1431 0 7
-12.2555 -14.4900 -2.7435 0.1431 0 7
-12.1238 -14.6004 -2.7435 0.1431 0 7
-11.9912 -14.7096 -2.7435 0.1431 0 7
-11.8575 -14.8175 -2.7435 0.1431 0 7
-11.7229 -14.9242 -2.7435 0.1431 0 7
-11.5873 -15.0297 -2.7435 0.1431 0 7
-11.4508 -15.1340 -2.7435 0.1431 0 7
-11.3133 -15.2371 -2.7435 0.1431 0 7
-11.1749 -15.3389 -2.7435 0.1431 0 7
-11.0356 -15.4394 -2.7435 0.1431 0 7
-10.8954 -15.5387 -2.7435 0.1431 0 7
-10.7543 -15.6367 -2.7435 0.1431 0 7
-10.6123 -15.7334 -2.7435 0.1431 0 7
-10.4694 -15.8288 -2.7435 0.1431 0 7
-10.3257 -15.9229 -2.7435 0.1431 0 7
-10.1811 -16.0157 -2.7435 0.1431 0 7
-10.0357 -16.1072 -2.7435 0.1431 0 7
-9.8895 -16.1974 -2.7435 0.1431 0 7
-9.7425 -16.2863 -2.7435 0.1431 0 7
-9.5901 -16.3661 -2.7422 0.1529 0 8
-9.4340 -16.4390 -2.7400 0.1530 0 8
-9.2774 -16.5107 -2.7378 0.1532 0 8
-9.1114 -16.5645 -2.7329 0.6200 0 8
-8.8617 -16.4617 -2.7026 0.6270 0 8
-8.6174 -16.3610 -2.6732 0.6339 0 8
-8.3783 -16.2625 -2.6446 0.6407 0 8
-8.1442 -16.1660 -2.6168 0.6475 0 8
-7.9189 -16.0794 -2.5911 0.1431 0 8
-7.7730 -16.1504 -2.5911 0.1431 0 8
-7.6265 -16.2201 -2.5911 0.1431 0 8
-7.4794 -16.2885 -2.5911 0.1431 0 8
-7.3316 -16.3555 -2.5911 0.1431 0 8
-7.1833 -16.4212 -2.5911 0.1431 0 8
-7.0343 -16.4856 -2.5911 0.1431 0 8
-6.8848 -16.5486 -2.5911 0.1431 0 8
-6.7347 -16.6103 -2.5911 0.1431 0 8
-6.5840 -16.6705 -2.5911 0.1431 0 8
-6.4329 -16.7295 -2.5911 0.1431 0 8
-6.2812 -16.7870 -2.5911 0.1431 0 8
-6.1289 -16.8432 -2.5911 0.1431 0 8
-5.9762 -16.8980 -2.5911 0.1431 0 8
-5.8230 -16.9514 -2.5911 0.1431 0 8
-5.6693 -17.0034 -2.5911 0.1431 0 8
-5.5152 -17.0540 -2.5911 0.1431 0 8
-5.3605 -17.1033 -2.5911 0.1431 0 8
-5.2055 -17.1511 -2.5911 0.1431 0 8
-5.0500 -17.1975 -2.5911 0.1431 0 8
-4.8941 -17.2425 -2.5911 0.1431 0 8
-4.7378 -17.2861 -2.5911 0.1431 0 8
-4.5811 -17.3283 -2.5911 0.1431 0 8
-4.4241 -17.3690 -2.5911 0.1431 0 8
-4.2667 -17.4084 -2.5911 0.1431 0 8
-4.1089 -17.4463 -2.5911 0.1431 0 8
-3.9508 -17.4828 -2.5911 0.1431 0 8
-3.7924 -17.5178 -2.5911 0.1431 0 8
-3.6336 -17.5514 -2.5911 0.1431 0 8
-3.4746 -17.5836 -2.5911 0.1431 0 8
-3.3153 -17.6143 -2.5911 0.1431 0 8
-3.1557 -17.6436 -2.5911 0.1431 0 8
-2.9959 -17.6715 -2.5911 0.1431 0 8
-2.8358 -17.6979 -2.5911 0.1431 0 8
-2.6754 -17.7228 -2.5911 0.1431 0 8
-2.5149 -17.7463 -2.5911 0.1431 0 8
-2.3541 -17.7683 -2.5911 0.1431 0 8
-2.1932 -17.7889 -2.5911 0.1431 0 8
-2.0321 -17.8081 -2.5911 0.1431 0 8
-1.8708 -17.8257 -2.5911 0.1431 0 8
-1.7093 -17.8419 -2.5911 0.1431 0 8
-1.5477 -17.8567 -2.5911 0.1431 0 8
-1.3860 -17.8700 -2.5911 0.1431 0 8
-1.2242 -17.8818 -2.5911 0.1431 0 8
-1.0623 -17.8921 -2.5911 0.1431 0 8
-0.9003 -17.9010 -2.5911 0.1431 0 8
-0.7382 -17.9084 -2.5911 0.1431 0 8
-0.5760 -17.9144 -2.5911 0.1431 0 8
-0.4138 -17.9188 -2.5911 0.1431 0 8
-0.2516 -17.9218 -2.5911 0.1431 0 8
-0.0894 -17.9234 -2.5911 0.1431 0 8
0.0729 -17.9235 -2.5911 0.1431 0 8
0.2352 -17.9221 -2.5911 0.1431 0 8
0.3974 -17.9192 -2.5911 0.1431 0 8
0.5596 -17.9149 -2.5911 0.1431 0 8
0.7217 -17.9091 -2.5911 0.1431 0 8
0.8838 -17.9018 -2.5911 0.1431 0 8
0.8205 -14.0378 -2.0328 0.2837 0 9
1.2078 -17.8829 -2.5911 0.1431 0 8
1.1455 -14.9465 -2.1670 0.2665 0 9
1.5313 -17.8581 -2.5911 0.1431 0 8
1.6929 -17.8435 -2.5911 0.1431 0 8
1.8544 -17.8274 -2.5911 0.1431 0 8
2.0157 -17.8099 -2.5911 0.1431 0 8
1.7256 -14.1031 -2.0540 0.7308 0 9
1.8379 -13.9708 -2.0370 0.7369 0 9
1.9484 -13.8407 -2.0206 0.7429 0 9
2.0795 -13.8611 -2.0262 0.9444 0 9
2.2116 -13.8841 -2.0324 0.9415 0 9
2.3446 -13.9072 -2.0388 0.9385 0 9
2.5349 -14.2480 -2.0921 0.1720 0 9
3.2991 -17.6174 -2.5911 0.1431 0 8
3.4585 -17.5868 -2.5911 0.1431 0 8
3.6175 -17.5548 -2.5911 0.1431 0 8
3.7763 -17.5213 -2.5911 0.1431 0 8
3.0633 -13.6137 -2.0172 0.1214 0 9
3.4171 -14.5688 -2.1633 0.1431 0 9
4.2507 -17.4123 -2.5911 0.1431 0 8
4.3328 -17.0763 -2.5468 0.4913 0 19
4.4921 -17.0548 -2.5496 0.5106 0 19
4.7220 -17.2908 -2.5911 0.1394 0 8
3.3724 -11.9232 -1.7913 0.8605 0 5
5.0346 -17.2036 -2.5913 0.1394 0 8
5.1903 -17.1578 -2.5914 0.1394 0 8
5.3456 -17.1106 -2.5914 0.1394 0 8
5.5004 -17.0619 -2.5915 0.1394 0 8
5.6548 -17.0118 -2.5916 0.1394 0 8
5.8086 -16.9603 -2.5916 0.1394 0 8
5.9620 -16.9073 -2.5917 0.1394 0 8
6.1150 -16.8529 -2.5917 0.1394 0 8
6.2674 -16.7971 -2.5917 0.1394 0 8
6.4192 -16.7399 -2.5918 0.1394 0 8
6.5706 -16.6813 -2.5918 0.1394 0 8
6.7214 -16.6212 -2.5918 0.1394 0 8
6.8716 -16.5598 -2.5918 0.1394 0 8
7.0212 -16.4970 -2.5918 0.1394 0 8
7.1703 -16.4327 -2.5918 0.1394 0 8
7.3188 -16.3671 -2.5918 0.1394 0 8
7.4666 -16.3002 -2.5918 0.1394 0 8
7.6138 -16.2318 -2.5918 0.1394 0 8
7.7604 -16.1621 -2.5918 0.1394 0 8
7.9063 -16.0910 -2.5918 0.1394 0 8
8.0515 -16.0186 -2.5917 0.1394 0 8
8.1961 -15.9448 -2.5917 0.1394 0 8
8.3400 -15.8697 -2.5917 0.1394 0 8
8.4831 -15.7933 -2.5916 0.1394 0 8
8.6256 -15.7155 -2.5916 0.1394 0 8
8.7673 -15.6364 -2.5915 0.1394 0 8
8.9083 -15.5560 -2.5914 0.1394 0 8
9.0485 -15.4743 -2.5914 0.1394 0 8
9.1879 -15.3913 -2.5913 0.1394 0 8
9.3266 -15.3070 -2.5912 0.1394 0 8
9.4644 -15.2215 -2.5911 0.1394 0 8
9.6015 -15.1346 -2.5910 0.1394 0 8
9.7383 -15.0473 -2.5911 0.1431 0 8
9.8741 -14.9586 -2.5911 0.1431 0 8
9.8721 -14.6651 -2.5556 0.7417 0 19
10.1433 -14.7774 -2.5911 0.1431 0 8
10.2767 -14.6849 -2.5911 0.1431 0 8
10.4092 -14.5913 -2.5911 0.1431 0 8
10.5408 -14.4965 -2.5911 0.1431 0 8
10.6716 -14.4004 -2.5911 0.1431 0 8
10.8015 -14.3033 -2.5911 0.1431 0 8
10.9306 -14.2049 -2.5911 0.1431 0 8
11.0587 -14.1054 -2.5911 0.1431 0 8
11.1860 -14.0047 -2.5911 0.1431 0 8
11.3123 -13.9028 -2.5911 0.1431 0 8
11.4377 -13.7998 -2.5911 0.1431 0 8
11.5621 -13.6957 -2.5911 0.1431 0 8
11.6856 -13.5905 -2.5911 0.1431 0 8
11.8082 -13.4842 -2.5911 0.1431 0 8
11.9298 -13.3767 -2.5911 0.1431 0 8
12.0504 -13.2682 -2.5911 0.1431 0 8
12.1700 -13.1586 -2.5911 0.1431 0 8
12.2886 -13.0478 -2.5911 0.1431 0 8
12.4062 -12.9361 -2.5911 0.1431 0 8
12.5228 -12.8232 -2.5911 0.1431 0 8
12.6384 -12.7094 -2.5911 0.1431 0 8
12.7529 -12.5944 -2.5911 0.1431 0 8
12.8664 -12.4784 -2.5911 0.1431 0 8
12.9788 -12.3615 -2.5911 0.1431 0 8
13.0902 -12.2435 -2.5911 0.1431 0 8
13.2005 -12.1245 -2.5911 0.1431 0 8
13.3097 -12.0045 -2.5911 0.1431 0 8
13.4179 -11.8836 -2.5911 0.1431 0 8
13.5249 -11.7615 -2.5911 0.1431 0 8
13.6308 -11.6386 -2.5911 0.1431 0 8
13.7356 -11.5147 -2.5911 0.1431 0 8
13.8393 -11.3899 -2.5911 0.1431 0 8
13.9418 -11.2642 -2.5911 0.1431 0 8
14.0432 -11.1375 -2.5911 0.1431 0 8
14.1435 -11.0099 -2.5911 0.1431 0 8
14.2426 -10.8814 -2.5911 0.1431 0 8
14.3405 -10.7521 -2.5911 0.1431 0 8
14.4372 -10.6218 -2.5911 0.1431 0 8
14.5328 -10.4907 -2.5911 0.1431 0 8
14.6272 -10.3587 -2.5911 0.1431 0 8
14.7203 -10.2258 -2.5911 0.1431 0 8
14.8123 -10.0922 -2.5911 0.1431 0 8
14.9031 -9.9577 -2.5911 0.1431 0 8
14.9926 -9.8223 -2.5911 0.1431 0 8
15.0809 -9.6862 -2.5911 0.1431 0 8
15.1680 -9.5493 -2.5911 0.1431 0 8
15.2538 -9.4116 -2.5911 0.1431 0 8
15.3384 -9.2731 -2.5911 0.1431 0 8
13.1913 -7.8129 -2.2163 0.9805 0 19
15.5037 -8.9939 -2.5911 0.1431 0 8
15.5845 -8.8532 -2.5911 0.1431 0 8
15.6640 -8.7118 -2.5911 0.1431 0 8
15.7422 -8.5696 -2.5911 0.1431 0 8
15.8192 -8.4268 -2.5911 0.1431 0 8
14.2404 -7.4210 -2.3214 0.6295 0 19
14.1521 -7.2129 -2.2963 0.6364 0 19
14.2728 -7.1124 -2.3053 0.7522 0 19
14.4491 -7.0377 -2.3234 0.7463 0 19
14.6281 -6.9617 -2.3419 0.7404 0 19
16.2533 -7.5555 -2.5911 0.1431 0 8
15.3840 -6.9827 -2.4423 0.6700 0 19
15.2967 -6.7768 -2.4186 0.6766 0 19
15.3873 -6.6509 -2.4233 0.7161 0 19
15.5821 -6.5684 -2.4445 0.7099 0 19
15.7770 -6.4830 -2.4658 0.7086 0 19
16.6395 -6.6620 -2.5911 0.1431 0 8
16.6992 -6.5111 -2.5911 0.1431 0 8
16.7574 -6.3596 -2.5911 0.1431 0 8
16.8143 -6.2077 -2.5911 0.1431 0 8
16.8698 -6.0552 -2.5911 0.1431 0 8
16.9239 -5.9023 -2.5911 0.1431 0 8
16.9767 -5.7488 -2.5911 0.1431 0 8
17.0280 -5.5949 -2.5911 0.1431 0 8
17.0780 -5.4405 -2.5911 0.1431 0 8
17.1265 -5.2857 -2.5911 0.1431 0 8
17.1744 -5.1306 -2.5912 0.5529 0 8
17.3909 -5.0243 -2.6169 0.6475 0 8
17.6209 -4.9183 -2.6447 0.6407 0 8
17.8557 -4.8101 -2.6733 0.6339 0 8
18.0957 -4.6995 -2.7027 0.6269 0 8
18.3409 -4.5863 -2.7330 0.6200 0 8
18.4138 -4.4278 -2.7378 0.1532 0 8
18.4678 -4.2643 -2.7400 0.1530 0 8
18.5204 -4.1003 -2.7422 0.1529 0 8
18.5656 -3.9343 -2.7435 0.1431 0 7
18.6004 -3.7661 -2.7435 0.1431 0 7
18.6337 -3.5975 -2.7435 0.1431 0 7
18.6655 -3.4287 -2.7435 0.1431 0 7
18.6958 -3.2596 -2.7435 0.1431 0 7
18.7246 -3.0902 -2.7435 0.1431 0 7
18.7518 -2.9206 -2.7435 0.1431 0 7
18.7774 -2.7507 -2.7435 0.1431 0 7
18.8016 -2.5806 -2.7435 0.1431 0 7
18.8241 -2.4103 -2.7435 0.1431 0 7
18.8452 -2.2398 -2.7435 0.1431 0 7
18.8647 -2.0691 -2.7435 0.1431 0 7
18.8827 -1.8982 -2.7435 0.1431 0 7
18.8991 -1.7272 -2.7435 0.1431 0 6
18.9139 -1.5561 -2.7435 0.1431 0 7
18.9273 -1.3848 -2.7435 0.1431 0 7
18.9390 -1.2134 -2.7435 0.1431 0 7
18.9492 -1.0419 -2.7435 0.1431 0 7
18.9579 -0.8703 -2.7435 0.1431 0 7
18.9650 -0.6987 -2.7435 0.1431 0 7
18.9705 -0.5270 -2.7435 0.1431 0 7
18.9745 -0.3552 -2.7435 0.1431 0 7
18.9769 -0.1834 -2.7435 0.1431 0 7
18.9778 -0.0116 -2.7435 0.1431 0 7
18.9772 0.1602 -2.7435 0.1431 0 7
18.9749 0.3320 -2.7435 0.1431 0 7
18.9712 0.5037 -2.7435 0.1431 0 7
18.9658 0.6754 -2.7435 0.1431 0 7
18.9589 0.8471 -2.7435 0.1431 0 7
18.9505 1.0187 -2.7435 0.1431 0 7
18.9405 1.1902 -2.7435 0.1431 0 7
18.9289 1.3616 -2.7435 0.1431 0 7
18.9158 1.5329 -2.7435 0.1431 0 7
18.9012 1.7041 -2.7435 0.1431 0 7
18.8850 1.8751 -2.7435 0.1431 0 7
18.8672 2.0460 -2.7435 0.1431 0 7
18.8479 2.2167 -2.7435 0.1431 0 7
18.8271 2.3872 -2.7435 0.1431 0 7
18.8047 2.5576 -2.7435 0.1431 0 7
18.7808 2.7277 -2.7435 0.1431 0 7
18.7553 2.8976 -2.7435 0.1431 0 7
18.7283 3.0673 -2.7435 0.1431 0 7
18.6998 3.2367 -2.7435 0.1431 0 7
18.6697 3.4058 -2.7435 0.1431 0 7
18.6381 3.5747 -2.7435 0.1431 0 7
18.6050 3.7433 -2.7435 0.1431 0 7
18.5704 3.9115 -2.7435 0.1431 0 7
18.5342 4.0795 -2.7435 0.1431 0 7
18.4965 4.2471 -2.7435 0.1431 0 7
18.4573 4.4144 -2.7435 0.1431 0 7
18.4166 4.5813 -2.7435 0.1431 0 7
18.3744 4.7478 -2.7435 0.1431 0 7
18.3306 4.9140 -2.7435 0.1431 0 7
18.2854 5.0797 -2.7435 0.1431 0 7
18.2387 5.2450 -2.7435 0.1431 0 7
18.1904 5.4099 -2.7435 0.1431 0 7
18.1407 5.5744 -2.7435 0.1431 0 7
18.0895 5.7384 -2.7435 0.1431 0 6
18.0368 5.9019 -2.7435 0.1431 0 7
17.9826 6.0649 -2.7435 0.1431 0 7
17.9270 6.2275 -2.7435 0.1431 0 7
17.8699 6.3895 -2.7435 0.1431 0 7
17.8113 6.5510 -2.7435 0.1431 0 7
17.7513 6.7120 -2.7435 0.1431 0 7
17.6898 6.8724 -2.7435 0.1431 0 7
17.6269 7.0322 -2.7435 0.1431 0 7
17.5625 7.1915 -2.7435 0.1431 0 7
17.4967 7.3502 -2.7435 0.1431 0 7
17.4294 7.5083 -2.7435 0.1431 0 7
17.3607 7.6658 -2.7435 0.1431 0 7
17.2906 7.8226 -2.7435 0.1431 0 7
17.2191 7.9788 -2.7435 0.1431 0 7
17.1462 8.1344 -2.7435 0.1431 0 7
17.0718 8.2893 -2.7435 0.1431 0 7
16.9961 8.4435 -2.7435 0.1431 0 7
16.9189 8.5970 -2.7435 0.1431 0 7
16.8404 8.7498 -2.7435 0.1431 0 7
16.7605 8.9019 -2.7435 0.1431 0 7
16.6793 9.0532 -2.7435 0.1431 0 7
16.5966 9.2039 -2.7435 0.1431 0 7
16.5126 9.3537 -2.7435 0.1431 0 7
16.4272 9.5028 -2.7435 0.1431 0 7
16.3406 9.6512 -2.7435 0.1431 0 7
16.2525 9.7987 -2.7435 0.1431 0 7
16.1632 9.9454 -2.7435 0.1431 0 7
16.0725 10.0913 -2.7435 0.1431 0 7
15.9805 10.2364 -2.7435 0.1431 0 7
15.8871 10.3806 -2.7435 0.1431 0 7
15.7925 10.5240 -2.7435 0.1431 0 7
15.6966 10.6666 -2.7435 0.1431 0 7
15.5994 10.8082 -2.7435 0.1431 0 7
15.5009 10.9490 -2.7435 0.1431 0 7
15.4012 11.0889 -2.7435 0.1431 0 7
15.3002 11.2278 -2.7435 0.1431 0 7
15.1979 11.3659 -2.7435 0.1431 0 7
15.0944 11.5030 -2.7435 0.1431 0 7
14.9896 11.6392 -2.7435 0.1431 0 7
14.8836 11.7744 -2.7435 0.1431 0 7
14.7764 11.9086 -2.7435 0.1431 0 7
14.6680 12.0419 -2.7435 0.1431 0 7
14.5584 12.1742 -2.7435 0.1431 0 7
14.4476 12.3055 -2.7435 0.1431 0 7
14.3356 12.4358 -2.7435 0.1431 0 7
14.2225 12.5650 -2.7435 0.1431 0 7
14.1081 12.6933 -2.7435 0.1431 0 7
13.9927 12.8205 -2.7435 0.1431 0 7
13.8760 12.9466 -2.7435 0.1431 0 7
13.7583 13.0717 -2.7435 0.1431 0 7
13.6394 13.1957 -2.7435 0.1431 0 7
13.5193 13.3186 -2.7435 0.1431 0 7
13.3943 13.4366 -2.7427 0.1492 0 8
13.2596 13.5445 -2.7401 0.1493 0 8
13.1241 13.6511 -2.7375 0.1495 0 8
12.9008 13.6643 -2.7166 0.4074 0 8
12.5279 13.5123 -2.6637 0.4155 0 8
12.1691 13.3660 -2.6131 0.4236 0 8
11.9462 13.3621 -2.5911 0.1431 0 8
11.8247 13.4697 -2.5911 0.1431 0 8
11.7023 13.5762 -2.5911 0.1431 0 8
11.5789 13.6816 -2.5911 0.1431 0 8
11.4546 13.7858 -2.5911 0.1431 0 8
11.3293 13.8890 -2.5911 0.1431 0 8
11.2031 13.9910 -2.5911 0.1431 0 8
11.0760 14.0918 -2.5911 0.1431 0 8
10.9480 14.1915 -2.5911 0.1431 0 8
10.8191 14.2900 -2.5911 0.1431 0 8
10.6892 14.3874 -2.5911 0.1431 0 8
9.9760 13.6844 -2.4481 0.4539 0 9
9.7300 13.6041 -2.4179 0.1431 0 9
9.5484 13.6088 -2.4033 0.4698 0 9
9.2696 13.4691 -2.3637 0.4776 0 9
8.9998 13.3340 -2.3256 0.4855 0 9
8.7385 13.2031 -2.2888 0.4933 0 9
8.4854 13.0763 -2.2535 0.5010 0 9
8.2399 12.9533 -2.2193 0.5087 0 9
8.0018 12.8340 -2.1864 0.5164 0 9
7.7706 12.7182 -2.1546 0.5240 0 9
7.6322 12.7497 -2.1481 0.8348 0 9
7.5603 12.8931 -2.1607 0.8300 0 9
7.4876 13.0382 -2.1735 0.8251 0 9
7.4141 13.1851 -2.1867 0.8201 0 9
7.3396 13.3337 -2.2003 0.8150 0 9
7.2642 13.4843 -2.2142 0.8099 0 9
7.1878 13.6367 -2.2284 0.8047 0 9
7.1104 13.7912 -2.2431 0.7995 0 9
7.0320 13.9477 -2.2581 0.7942 0 9
6.9526 14.1063 -2.2735 0.7888 0 9
6.8720 14.2671 -2.2893 0.7834 0 9
6.7903 14.4302 -2.3055 0.7779 0 9
6.7075 14.5957 -2.3221 0.7723 0 9
6.6234 14.7635 -2.3392 0.7666 0 9
6.5381 14.9338 -2.3567 0.7609 0 9
4.5891 10.7459 -1.6892 0.9076 0 5
6.8898 16.5465 -2.5911 0.1431 0 8
6.7398 16.6082 -2.5911 0.1431 0 8
6.5891 16.6685 -2.5911 0.1431 0 8
6.4380 16.7275 -2.5911 0.1431 0 8
6.2863 16.7851 -2.5911 0.1431 0 8
6.1341 16.8413 -2.5911 0.1431 0 8
5.9814 16.8961 -2.5911 0.1431 0 8
5.8282 16.9496 -2.5911 0.1431 0 8
5.6745 17.0017 -2.5911 0.1431 0 8
5.5204 17.0523 -2.5911 0.1431 0 8
5.3658 17.1016 -2.5911 0.1431 0 8
5.2107 17.1495 -2.5911 0.1431 0 22
5.0553 17.1959 -2.5911 0.1431 0 22
4.8994 17.2410 -2.5911 0.1431 0 22
4.7431 17.2847 -2.5911 0.1431 0 22
4.5865 17.3269 -2.5911 0.1431 0 22
4.4294 17.3677 -2.5911 0.1431 0 22
4.2720 17.4071 -2.5911 0.1431 0 22
4.1143 17.4450 -2.5911 0.1431 0 22
3.9562 17.4816 -2.5911 0.1431 0 22
3.7978 17.5167 -2.5911 0.1431 0 22
16.3660 0.0000 -2.7435 0.1653 0 7
16.3654 0.1482 -2.7435 0.1653 0 7
16.3634 0.2963 -2.7435 0.1653 0 7
16.3600 0.4444 -2.7435 0.1653 0 7
16.3553 0.5925 -2.7435 0.1653 0 7
16.3493 0.7405 -2.7435 0.1653 0 7
