ply
format ascii 1.0
element vertex 1340
property float32 x
property float32 y
property float32 z
property float32 CosAngle
property uint32 ObjIdx
property uint32 ObjTag
end_header
-11.0610 27.7592 -1.5998 0.1831 0 9
-11.1074 27.1585 -1.5709 0.6003 0 9
-11.2251 26.7528 -1.5532 0.5701 0 9
-11.0948 25.7859 -1.5029 0.8842 0 9
-11.0470 25.0481 -1.4656 0.8361 0 9
-11.1757 24.7315 -1.4530 0.8345 0 9
-11.3331 24.4869 -1.4445 0.4803 0 9
-11.2834 23.8121 -1.4107 0.5957 0 9
-11.2688 23.2355 -1.3825 0.6895 0 9
-11.1986 22.5685 -1.3488 0.5318 0 9
-11.1932 22.0542 -1.3241 0.8142 0 9
-11.2803 21.7363 -1.3111 0.8123 0 9
-11.3674 21.4276 -1.2986 0.5896 0 9
-11.2787 20.8037 -1.2669 0.5602 0 9
-8.9899 16.2298 -0.9933 0.7960 0 5
-11.3947 20.1391 -1.2388 0.5890 0 9
-11.3863 19.7061 -1.2185 0.8244 0 9
-11.4481 19.4056 -1.2062 0.7245 0 9
-11.6149 19.2875 -1.2054 0.0836 0 9
-11.5842 18.8484 -1.1844 0.3398 0 9
-11.4072 18.1896 -1.1495 0.0799 0 9
-11.3944 17.8091 -1.1319 0.5686 0 9
-11.4367 17.5239 -1.1203 0.5094 0 9
-11.6627 17.5218 -1.1269 0.2795 0 9
-11.7235 17.2724 -1.1176 0.6764 0 9
-11.7896 17.0360 -1.1092 0.9260 0 9
-11.9038 16.8727 -1.1055 0.9291 0 9
-11.8907 16.5345 -1.0903 0.5177 0 9
-11.9521 16.3066 -1.0824 0.8822 0 9
-12.0079 16.0756 -1.0742 0.7446 0 9
-12.1343 15.9419 -1.0726 0.7457 0 9
-12.2522 15.7982 -1.0703 0.9148 0 9
-12.3933 15.6850 -1.0702 0.8398 0 9
-12.3885 15.3906 -1.0577 0.3395 0 9
-12.4429 15.1750 -1.0506 0.0144 0 9
-12.4985 14.9646 -1.0438 0.8962 0 9
-12.5930 14.8034 -1.0405 0.5087 0 9
-12.6692 14.6229 -1.0358 0.8842 0 9
-12.8240 14.5338 -1.0377 0.4886 0 9
-12.8334 14.2819 -1.0280 0.3249 0 9
-12.9991 14.2057 -1.0309 0.8349 0 9
-13.0526 14.0075 -1.0250 0.8397 0 9
-13.0943 13.7998 -1.0185 0.5962 0 9
-13.2096 13.6714 -1.0178 0.7580 0 9
-13.3382 13.5569 -1.0182 0.7785 0 9
-13.5717 13.5468 -1.0266 0.4845 0 9
-13.7247 13.4539 -1.0289 0.3158 0 9
-13.7056 13.1942 -1.0185 0.2983 0 9
-13.8505 13.0942 -1.0204 0.5746 0 9
-14.0503 13.0444 -1.0264 0.5713 0 9
-14.2403 12.9830 -1.0317 0.7343 0 9
-14.3111 12.8123 -1.0284 0.6505 0 9
-14.4821 12.7313 -1.0323 0.5091 0 9
-14.6317 12.6299 -1.0348 0.8101 0 9
-14.8947 12.6236 -1.0453 0.5661 0 9
-15.0520 12.5247 -1.0483 0.9065 0 9
-15.2364 12.4466 -1.0533 0.5558 0 9
-15.3532 12.3121 -1.0536 0.5556 0 9
-15.4693 12.1768 -1.0540 0.6945 0 9
-15.6565 12.0964 -1.0592 0.7331 0 9
-15.8748 12.0373 -1.0666 0.7280 0 9
-16.0458 11.9399 -1.0708 0.3952 0 9
-16.2738 11.8823 -1.0788 0.3643 0 9
-16.4702 11.7987 -1.0847 0.5415 0 9
-16.7059 11.7403 -1.0932 0.9275 0 9
-16.8522 11.6168 -1.0958 0.9910 0 9
-17.0719 11.5419 -1.1033 0.9810 0 9
-17.4365 11.5598 -1.1200 0.6699 0 9
-17.7354 11.5284 -1.1325 0.3906 0 9
-17.8801 11.3937 -1.1351 0.4330 0 9
-18.3093 11.4356 -1.1557 0.8635 0 9
-18.7127 11.4535 -1.1746 0.5477 0 9
-19.1977 11.5129 -1.1984 0.8280 0 9
-19.3026 11.3397 -1.1985 0.9505 0 9
-19.9442 11.4751 -1.2319 0.9588 0 9
-20.4140 11.5008 -1.2544 0.7212 0 9
-20.6777 11.4042 -1.2642 0.6625 0 9
-21.2620 11.4768 -1.2935 0.7773 0 9
-21.9240 11.5792 -1.3274 0.8582 0 9
-22.1243 11.4302 -1.3332 0.8577 0 9
-22.8418 11.5403 -1.3701 0.9647 0 9
-23.5044 11.6093 -1.4035 0.6951 0 9
-23.9012 11.5375 -1.4209 0.9128 0 9
-18.0054 8.4915 -1.0658 0.9985 0 5
-24.9339 11.4845 -1.4697 0.9766 0 9
-26.0564 11.7169 -1.5295 0.7521 0 9
-26.5416 11.6475 -1.5518 0.9931 0 9
-27.2103 11.6486 -1.5846 0.9585 0 9
-27.7281 11.5746 -1.6086 0.9836 0 9
-28.9330 11.7713 -1.6723 0.7676 0 9
-29.7520 11.7919 -1.7134 0.7641 0 9
-30.2730 11.6826 -1.7372 0.2027 0 9
-31.5914 11.8641 -1.8066 0.6042 0 9
-32.7585 11.9654 -1.8671 0.9484 0 9
-33.3014 11.8233 -1.8919 0.9915 0 9
-33.6927 11.6201 -1.9081 0.0535 0 1
-34.4116 11.5207 -1.9428 0.2910 0 1
-35.5723 11.5525 -2.0023 0.2824 0 1
-36.8065 11.5862 -2.0658 0.2737 0 1
-38.1216 11.6222 -2.1337 0.2650 0 1
-37.9943 8.6376 -2.0860 0.2005 0 5
-16.8791 -22.0035 -1.4847 0.1708 0 19
-16.5990 -22.0487 -1.4775 0.9737 0 19
-10.5748 -27.6869 -1.5867 0.6691 0 5
14.4242 -32.8957 -1.9230 0.6463 0 19
14.6912 -32.6968 -1.9191 0.8991 0 19
21.5031 -25.8579 -1.8005 0.8300 0 19
30.1429 -18.1644 -1.8841 0.8687 0 5
33.2673 -16.8968 -1.9976 0.8821 0 10
33.2282 -16.5005 -1.9862 0.8405 0 10
33.2149 -16.1209 -1.9766 0.8991 0 10
33.2415 -15.7638 -1.9696 0.9222 0 10
33.2972 -15.4228 -1.9646 0.8622 0 10
33.6657 -15.2251 -1.9781 0.5579 0 10
34.5569 -15.2530 -2.0223 0.3666 0 10
35.5283 -15.2993 -2.0709 0.3388 0 10
36.4238 -15.2957 -2.1150 0.3971 0 10
17.3809 -5.3395 -0.9734 0.5662 0 9
17.2522 -5.1296 -0.9636 0.9609 0 9
17.2798 -4.9681 -0.9626 0.9674 0 9
17.3768 -4.8262 -0.9655 0.9089 0 9
17.6230 -4.7233 -0.9768 0.5173 0 9
28.6245 -6.5718 -1.5723 0.9800 0 19
30.0323 -6.6095 -1.6463 0.9782 0 19
31.4506 -6.6239 -1.7207 0.9764 0 19
32.8794 -6.6148 -1.7955 0.9744 0 19
26.7348 -5.1274 -1.4574 0.9731 0 5
37.0864 -6.7654 -2.0183 0.9703 0 19
36.4030 -5.6245 -1.9720 0.7513 0 9
36.3241 -5.2763 -1.9651 0.9709 0 9
30.0648 -4.0897 -1.6244 0.8720 0 19
31.5742 -4.0044 -1.7039 0.4729 0 19
35.4474 -4.1702 -1.9108 0.4321 0 19
38.5591 -4.1829 -2.0764 0.4569 0 19
28.7248 11.4898 -1.6563 0.3926 0 19
28.1858 11.5711 -1.6312 0.9146 0 19
17.6425 16.4834 -1.2926 0.6987 0 20
17.3332 16.4907 -1.2808 0.7051 0 20
17.0462 16.5140 -1.2706 0.0535 0 20
16.8485 16.6207 -1.2671 0.7178 0 20
16.8077 16.8832 -1.2754 0.6876 0 20
16.8152 17.1991 -1.2877 0.6811 0 20
16.8227 17.5212 -1.3004 0.6744 0 20
16.8305 17.8497 -1.3134 0.6677 0 20
16.8384 18.1850 -1.3268 0.6610 0 20
17.0181 18.7159 -1.3543 0.6430 0 20
17.0248 19.0670 -1.3685 0.5398 0 20
17.0421 19.4376 -1.3840 0.5337 0 20
17.0466 19.8012 -1.3988 0.3503 0 20
17.0299 20.1477 -1.4123 0.3469 0 20
13.5063 16.2754 -1.1323 0.5687 0 9
13.2672 16.2849 -1.1246 0.8889 0 9
13.1422 16.4329 -1.1265 0.9678 0 9
17.8460 23.1615 -1.5654 0.7909 0 20
17.6658 23.3618 -1.5681 0.6874 0 20
18.8027 30.1935 -1.9043 0.1703 0 20
20.7245 33.9605 -2.1299 0.4963 0 9
18.5255 33.6951 -2.0586 0.5372 0 19
13.8703 25.7777 -1.5672 0.9523 0 9
13.6237 25.8778 -1.5657 0.9767 0 9
34.0743 0.0000 -2.5949 0.0759 0 7
34.0729 0.3083 -2.5949 0.0759 0 7
34.0687 0.6165 -2.5949 0.0759 0 7
34.0617 0.9247 -2.5949 0.0759 0 7
34.0519 1.2329 -2.5949 0.0759 0 7
34.0394 1.5409 -2.5949 0.0759 0 7
34.0241 1.8488 -2.5949 0.0759 0 7
34.0059 2.1566 -2.5949 0.0759 0 7
33.9850 2.4641 -2.5949 0.0759 0 7
33.9614 2.7715 -2.5949 0.0759 0 7
33.9349 3.0786 -2.5949 0.0759 0 7
33.9056 3.3855 -2.5949 0.0759 0 7
33.8736 3.6922 -2.5949 0.0759 0 7
33.8388 3.9985 -2.5949 0.0759 0 7
33.8013 4.3045 -2.5949 0.0759 0 7
33.7610 4.6101 -2.5949 0.0759 0 7
33.7179 4.9154 -2.5949 0.0759 0 7
33.6720 5.2202 -2.5949 0.0759 0 7
33.6234 5.5246 -2.5949 0.0759 0 7
33.5720 5.8286 -2.5949 0.0759 0 7
33.5179 6.1321 -2.5949 0.0759 0 7
33.4470 6.4324 -2.5938 0.0795 0 8
33.3248 6.7221 -2.5889 0.0796 0 8
32.4416 6.8500 -2.5250 0.2363 0 8
31.3199 6.9097 -2.4425 0.0759 0 8
31.2561 7.1928 -2.4425 0.0759 0 8
31.1897 7.4753 -2.4425 0.0759 0 8
31.1208 7.7571 -2.4425 0.0759 0 8
31.0494 8.0384 -2.4425 0.0759 0 8
28.3806 7.6221 -2.2379 0.9590 0 5
30.8988 8.5989 -2.4425 0.0759 0 8
30.8198 8.8781 -2.4425 0.0759 0 8
30.7382 9.1565 -2.4425 0.0759 0 8
30.6541 9.4343 -2.4425 0.0759 0 8
30.5675 9.7112 -2.4425 0.0759 0 8
30.4784 9.9874 -2.4425 0.0759 0 8
30.3868 10.2627 -2.4425 0.0759 0 8
30.2927 10.5372 -2.4425 0.0759 0 8
30.1961 10.8108 -2.4425 0.0759 0 8
30.0971 11.0836 -2.4425 0.0759 0 8
29.9956 11.3554 -2.4425 0.0759 0 8
29.8916 11.6263 -2.4425 0.0759 0 8
29.7852 11.8963 -2.4425 0.0759 0 8
28.1971 11.5589 -2.3207 0.9134 0 19
29.5651 12.4333 -2.4425 0.0759 0 8
29.4514 12.7003 -2.4425 0.0759 0 8
29.3352 12.9662 -2.4425 0.0759 0 8
29.2167 13.2311 -2.4425 0.0759 0 8
29.0958 13.4949 -2.4425 0.0759 0 8
28.9726 13.7575 -2.4425 0.0759 0 8
28.8469 14.0191 -2.4425 0.0759 0 8
28.7189 14.2795 -2.4425 0.0759 0 8
28.5885 14.5388 -2.4425 0.0759 0 8
28.4558 14.7968 -2.4425 0.0759 0 8
28.3208 15.0537 -2.4425 0.0759 0 8
28.1834 15.3093 -2.4425 0.0759 0 8
28.0437 15.5636 -2.4425 0.0759 0 8
27.9018 15.8167 -2.4425 0.0759 0 8
27.7575 16.0685 -2.4425 0.0759 0 8
27.6110 16.3190 -2.4425 0.0759 0 8
18.9018 11.4036 -1.6811 0.5403 0 20
18.5409 11.4159 -1.6581 0.5478 0 20
27.1580 17.0623 -2.4425 0.0759 0 8
27.0025 17.3073 -2.4425 0.0759 0 8
26.8448 17.5509 -2.4425 0.0759 0 8
26.6849 17.7931 -2.4425 0.0759 0 8
26.5229 18.0338 -2.4425 0.0759 0 8
26.3586 18.2730 -2.4425 0.0759 0 8
26.1922 18.5107 -2.4425 0.0759 0 8
26.0237 18.7469 -2.4425 0.0759 0 8
25.8530 18.9816 -2.4425 0.0759 0 8
25.6802 19.2147 -2.4425 0.0759 0 8
25.5053 19.4463 -2.4425 0.0759 0 8
25.3284 19.6762 -2.4425 0.0759 0 8
25.1493 19.9046 -2.4425 0.0759 0 8
24.9682 20.1313 -2.4425 0.0759 0 8
24.7850 20.3564 -2.4425 0.0759 0 8
24.5998 20.5798 -2.4425 0.0759 0 8
24.4126 20.8015 -2.4425 0.0759 0 8
24.2234 21.0215 -2.4425 0.0759 0 8
24.0323 21.2398 -2.4425 0.0759 0 8
23.8391 21.4564 -2.4425 0.0759 0 8
23.6440 21.6712 -2.4425 0.0759 0 8
23.4470 21.8842 -2.4425 0.0759 0 8
17.4723 16.6060 -1.8356 0.7038 0 20
17.1661 16.6132 -1.8192 0.7101 0 20
16.8654 16.6203 -1.8032 0.7164 0 20
16.8073 16.8655 -1.8132 0.6870 0 20
16.8147 17.1811 -1.8307 0.6804 0 20
16.8223 17.5028 -1.8487 0.6738 0 20
16.8300 17.8310 -1.8672 0.6671 0 20
16.8379 18.1658 -1.8862 0.6604 0 20
17.0430 18.7241 -1.9281 0.6536 0 20
17.0514 19.0772 -1.9485 0.6468 0 20
17.0599 19.4378 -1.9695 0.6399 0 20
17.0686 19.8063 -1.9911 0.6329 0 20
17.0774 20.1830 -2.0134 0.6260 0 20
13.4857 16.2337 -1.6072 0.9478 0 9
13.3072 16.3169 -1.6034 0.9781 0 9
13.2032 16.4918 -1.6088 0.4854 0 9
18.2109 23.1735 -2.2444 0.1303 0 20
17.8899 23.1939 -2.2307 0.7858 0 20
17.6995 23.3815 -2.2332 0.6041 0 20
17.6806 23.8010 -2.2579 0.5756 0 20
17.6917 24.2716 -2.2873 0.5682 0 20
18.6569 26.0883 -2.4425 0.0759 0 8
18.4201 26.2560 -2.4425 0.0759 0 8
18.1818 26.4216 -2.4425 0.0759 0 8
17.9420 26.5850 -2.4425 0.0759 0 8
17.7007 26.7463 -2.4425 0.0759 0 8
17.4580 26.9053 -2.4425 0.0759 0 8
17.2139 27.0622 -2.4425 0.0759 0 8
16.9683 27.2168 -2.4425 0.0759 0 8
16.7214 27.3692 -2.4425 0.0759 0 8
16.4731 27.5194 -2.4425 0.0759 0 8
16.2234 27.6673 -2.4425 0.0759 0 8
15.9725 27.8129 -2.4425 0.0759 0 8
14.3409 25.5036 -2.2282 0.8848 0 9
14.0442 25.5134 -2.2178 0.8890 0 9
11.5989 21.5300 -1.8624 0.8912 0 5
11.3529 21.5378 -1.8541 0.4469 0 5
13.1616 25.5263 -2.1871 0.9009 0 9
13.1672 26.1146 -2.2272 0.4192 0 9
13.1885 26.7562 -2.2716 0.4110 0 9
13.9193 28.8952 -2.4425 0.0759 0 8
13.6573 29.0199 -2.4425 0.0759 0 8
13.3942 29.1423 -2.4425 0.0759 0 8
13.1300 29.2623 -2.4425 0.0759 0 8
12.8648 29.3799 -2.4425 0.0759 0 8
12.5984 29.4951 -2.4425 0.0759 0 8
12.3310 29.6079 -2.4425 0.0759 0 8
12.0627 29.7182 -2.4425 0.0759 0 8
11.7933 29.8261 -2.4425 0.0759 0 8
11.5230 29.9316 -2.4425 0.0759 0 8
11.9457 31.8873 -2.5931 0.0720 0 8
11.6646 32.0155 -2.5949 0.0759 0 7
11.3744 32.1197 -2.5949 0.0759 0 7
11.0834 32.2213 -2.5949 0.0759 0 7
10.7914 32.3203 -2.5949 0.0759 0 7
10.4986 32.4166 -2.5949 0.0759 0 7
10.2048 32.5103 -2.5949 0.0759 0 7
9.9103 32.6012 -2.5949 0.0759 0 7
9.6149 32.6896 -2.5949 0.0759 0 7
9.3188 32.7752 -2.5949 0.0759 0 7
9.0219 32.8582 -2.5949 0.0759 0 7
8.7242 32.9385 -2.5949 0.0759 0 7
8.4259 33.0161 -2.5949 0.0759 0 7
8.1268 33.0909 -2.5949 0.0759 0 7
7.8271 33.1631 -2.5949 0.0759 0 7
7.5268 33.2326 -2.5949 0.0759 0 7
7.2258 33.2993 -2.5949 0.0759 0 7
6.9242 33.3633 -2.5949 0.0759 0 7
6.6221 33.4246 -2.5949 0.0759 0 7
6.3194 33.4831 -2.5949 0.0759 0 7
6.0162 33.5389 -2.5949 0.0759 0 7
5.7125 33.5920 -2.5949 0.0759 0 7
5.4084 33.6423 -2.5949 0.0759 0 7
5.1038 33.6899 -2.5949 0.0759 0 7
4.7988 33.7347 -2.5949 0.0759 0 7
4.4934 33.7767 -2.5949 0.0759 0 7
4.1876 33.8160 -2.5949 0.0759 0 7
3.8815 33.8525 -2.5949 0.0759 0 7
3.5750 33.8862 -2.5949 0.0759 0 7
3.2683 33.9171 -2.5949 0.0759 0 7
2.9613 33.9453 -2.5949 0.0759 0 7
2.6541 33.9707 -2.5949 0.0759 0 7
2.3466 33.9934 -2.5949 0.0759 0 7
2.0390 34.0132 -2.5949 0.0759 0 7
1.7312 34.0303 -2.5949 0.0759 0 6
1.4232 34.0445 -2.5949 0.0759 0 6
1.1152 34.0560 -2.5949 0.0759 0 7
0.8070 34.0647 -2.5949 0.0759 0 7
0.4988 34.0706 -2.5949 0.0759 0 7
0.1905 34.0737 -2.5949 0.0759 0 7
-0.1178 34.0741 -2.5949 0.0759 0 7
-0.4261 34.0716 -2.5949 0.0759 0 7
-0.7343 34.0664 -2.5949 0.0759 0 7
-1.0425 34.0583 -2.5949 0.0759 0 7
-1.3506 34.0475 -2.5949 0.0759 0 7
-1.6585 34.0339 -2.5949 0.0759 0 7
-1.9664 34.0175 -2.5949 0.0759 0 7
-2.2741 33.9983 -2.5949 0.0759 0 7
-2.5816 33.9763 -2.5949 0.0759 0 7
-2.8889 33.9516 -2.5949 0.0759 0 7
-3.1959 33.9241 -2.5949 0.0759 0 7
-3.5027 33.8937 -2.5949 0.0759 0 7
-3.8092 33.8607 -2.5949 0.0759 0 7
-4.1154 33.8248 -2.5949 0.0759 0 7
-4.4213 33.7862 -2.5949 0.0759 0 7
-4.7268 33.7448 -2.5949 0.0759 0 7
-5.0319 33.7007 -2.5949 0.0759 0 7
-5.3366 33.6538 -2.5949 0.0759 0 7
-5.6408 33.6041 -2.5949 0.0759 0 7
-5.9446 33.5517 -2.5949 0.0759 0 7
-6.2479 33.4965 -2.5949 0.0759 0 7
-6.5507 33.4387 -2.5949 0.0759 0 7
-6.8530 33.3780 -2.5949 0.0759 0 7
-7.1547 33.3146 -2.5949 0.0759 0 7
-7.4558 33.2486 -2.5949 0.0759 0 7
-7.7427 33.1214 -2.5903 0.0802 0 8
-7.9414 32.6367 -2.5579 0.2707 0 8
-7.9842 31.5664 -2.4796 0.2792 0 8
-8.1457 31.0214 -2.4425 0.0759 0 8
-8.4260 30.9464 -2.4425 0.0759 0 8
-8.7056 30.8689 -2.4425 0.0759 0 8
-8.9845 30.7889 -2.4425 0.0759 0 8
-9.2627 30.7064 -2.4425 0.0759 0 8
-9.5402 30.6213 -2.4425 0.0759 0 8
-9.8168 30.5337 -2.4425 0.0759 0 8
-10.0927 30.4437 -2.4425 0.0759 0 8
-10.3677 30.3511 -2.4425 0.0759 0 8
-10.6418 30.2561 -2.4425 0.0759 0 8
-10.7052 29.5786 -2.3955 0.3645 0 1
-10.7257 28.8178 -2.3416 0.3729 0 1
-10.7454 28.0904 -2.2903 0.3812 0 1
-10.7641 27.3942 -2.2414 0.3895 0 1
-10.7821 26.7269 -2.1947 0.3978 0 1
-10.7993 26.0869 -2.1501 0.4061 0 1
-10.8159 25.4724 -2.1074 0.4143 0 1
-10.8318 24.8816 -2.0666 0.4225 0 1
-10.8471 24.3134 -2.0274 0.4306 0 1
-10.8619 23.7662 -1.9899 0.4388 0 1
-10.8761 23.2388 -1.9539 0.4468 0 1
-10.8898 22.7301 -1.9194 0.4549 0 1
-11.0296 22.4973 -1.9081 0.0759 0 1
-11.5405 23.0104 -1.9603 0.7884 0 9
-11.5476 22.5138 -1.9269 0.9833 0 9
-11.5180 21.9645 -1.8887 0.7164 0 9
-11.3577 21.1903 -1.8309 0.1970 0 9
-11.3238 20.6757 -1.7952 0.3028 0 9
-9.0629 16.1980 -1.4135 0.5994 0 5
-11.3153 19.8011 -1.7368 0.3990 0 9
-11.3899 19.5195 -1.7210 0.4495 0 9
-11.2055 18.8104 -1.6674 0.2875 0 9
-11.4733 18.8696 -1.6818 0.6151 0 9
-11.2727 18.1674 -1.6282 0.2031 0 9
-11.3368 17.9070 -1.6140 0.6148 0 9
-11.4291 17.6965 -1.6043 0.6026 0 9
-11.5526 17.5375 -1.5993 0.4081 0 9
-11.6669 17.3670 -1.5933 0.9378 0 9
-11.7409 17.1401 -1.5821 0.8182 0 9
-11.7735 16.8584 -1.5659 0.2881 0 9
-11.8548 16.6519 -1.5566 0.1115 0 9
-11.9207 16.4278 -1.5457 0.8881 0 9
-12.0273 16.2631 -1.5404 0.8067 0 9
-12.0720 16.0183 -1.5275 0.6889 0 9
-12.1616 15.8370 -1.5206 0.9176 0 9
-12.3376 15.7688 -1.5247 0.1596 0 9
-12.2793 15.4051 -1.5002 0.1173 0 9
-12.3783 15.2443 -1.4954 0.0430 0 9
-12.4846 15.0941 -1.4917 0.3029 0 9
-12.5503 14.8969 -1.4834 0.6097 0 9
-12.6965 14.7967 -1.4848 0.9109 0 9
-12.7328 14.5702 -1.4735 0.8670 0 9
-12.7357 14.3101 -1.4588 0.4632 0 9
-12.8575 14.1864 -1.4580 0.2634 0 9
-13.0064 14.0923 -1.4604 0.6201 0 9
-13.0204 13.8540 -1.4478 0.3658 0 9
-13.2038 13.7968 -1.4543 0.7536 0 9
-13.2246 13.5705 -1.4430 0.7595 0 9
-13.3491 13.4526 -1.4432 0.7658 0 9
-13.5009 13.3616 -1.4465 0.5147 0 9
-13.7688 13.3823 -1.4622 0.7657 0 9
-13.8569 13.2263 -1.4588 0.8500 0 9
-13.9653 13.0904 -1.4577 0.5877 0 9
-14.1393 13.0152 -1.4635 0.7183 0 9
-14.2893 12.9164 -1.4668 0.7585 0 9
-14.4645 12.8388 -1.4728 0.4835 0 9
-14.5916 12.7175 -1.4740 0.6348 0 9
-14.8366 12.6967 -1.4871 0.5140 0 9
-14.9669 12.5754 -1.4887 0.1030 0 9
-15.1218 12.4739 -1.4928 0.1027 0 9
-15.2766 12.3711 -1.4970 0.1024 0 9
-15.4120 12.2515 -1.4993 0.6797 0 9
-15.5861 12.1615 -1.5055 0.1019 0 9
-15.7848 12.0883 -1.5141 0.7857 0 9
-15.9439 11.9829 -1.5189 0.5283 0 9
-16.2666 11.9967 -1.5392 0.3865 0 9
-16.3999 11.8674 -1.5416 0.6917 0 9
-16.5363 11.7396 -1.5444 0.7170 0 9
-16.6227 11.5762 -1.5426 0.6399 0 9
-16.9063 11.5480 -1.5591 0.9939 0 9
-17.1380 11.4802 -1.5709 0.9810 0 9
-17.4689 11.4743 -1.5916 0.6571 0 9
-17.7154 11.4081 -1.6046 0.5554 0 9
-18.0991 11.4249 -1.6299 0.9784 0 9
-18.5208 11.4581 -1.6585 0.6403 0 9
-18.8085 11.4021 -1.6750 0.9758 0 9
-19.1776 11.3898 -1.6986 0.8388 0 9
-19.7816 11.5078 -1.7428 0.6989 0 9
-20.3463 11.5912 -1.7832 0.5225 0 9
-20.6728 11.5307 -1.8026 0.5831 0 9
-21.3529 11.6580 -1.8527 0.6780 0 9
-21.6029 11.5420 -1.8652 0.9704 0 9
-22.2494 11.6299 -1.9119 0.6993 0 9
-22.3093 11.4054 -1.9081 0.0759 0 1
-22.4116 11.2031 -1.9081 0.0759 0 1
-22.9356 11.2069 -1.9440 0.4131 0 1
-23.5042 11.2224 -1.9835 0.4049 0 1
-24.0964 11.2386 -2.0248 0.3966 0 1
-24.7139 11.2555 -2.0680 0.3883 0 1
-25.3583 11.2731 -2.1133 0.3800 0 1
-26.0317 11.2916 -2.1609 0.3716 0 1
-26.7361 11.3108 -2.2107 0.3632 0 1
-27.4739 11.3310 -2.2632 0.3548 0 1
-28.2476 11.3522 -2.3184 0.3464 0 1
-29.0600 11.3744 -2.3765 0.3379 0 1
-29.9143 11.3977 -2.4378 0.3294 0 1
-30.0733 11.1478 -2.4425 0.0759 0 8
-30.1730 10.8753 -2.4425 0.0759 0 8
-30.2701 10.6018 -2.4425 0.0759 0 8
-30.3648 10.3275 -2.4425 0.0759 0 8
-30.4570 10.0524 -2.4425 0.0759 0 8
-30.5467 9.7764 -2.4425 0.0759 0 8
-30.6339 9.4996 -2.4425 0.0759 0 8
-30.7186 9.2221 -2.4425 0.0759 0 8
-30.8008 8.9438 -2.4425 0.0759 0 8
-30.8804 8.6648 -2.4425 0.0759 0 8
-30.9575 8.3850 -2.4425 0.0759 0 8
-31.3467 8.1868 -2.4672 0.2418 0 8
-32.5833 8.1956 -2.5586 0.2332 0 8
-33.0650 7.9994 -2.5906 0.0796 0 8
-33.1900 7.7124 -2.5949 0.0759 0 7
-33.2584 7.4118 -2.5949 0.0759 0 7
-33.3241 7.1106 -2.5949 0.0759 0 7
-33.3871 6.8088 -2.5949 0.0759 0 7
-33.4473 6.5065 -2.5949 0.0759 0 7
-33.5048 6.2036 -2.5949 0.0759 0 7
-33.5595 5.9002 -2.5949 0.0759 0 7
-33.6115 5.5964 -2.5949 0.0759 0 7
-33.6609 5.2921 -2.5949 0.0759 0 6
-33.7073 4.9873 -2.5949 0.0759 0 7
-33.7510 4.6821 -2.5949 0.0759 0 7
-33.7920 4.3766 -2.5949 0.0759 0 7
-33.8302 4.0707 -2.5949 0.0759 0 7
-33.8657 3.7644 -2.5949 0.0759 0 7
-33.8983 3.4579 -2.5949 0.0759 0 7
-33.9282 3.1511 -2.5949 0.0759 0 7
-33.9554 2.8440 -2.5949 0.0759 0 7
-33.9797 2.5366 -2.5949 0.0759 0 7
-34.0013 2.2291 -2.5949 0.0759 0 7
-34.0200 1.9214 -2.5949 0.0759 0 7
-34.0360 1.6135 -2.5949 0.0759 0 7
-34.0492 1.3055 -2.5949 0.0759 0 7
-34.0597 0.9974 -2.5949 0.0759 0 7
-34.0673 0.6892 -2.5949 0.0759 0 7
-34.0721 0.3810 -2.5949 0.0759 0 7
-34.0742 0.0727 -2.5949 0.0759 0 7
-34.0734 -0.2356 -2.5949 0.0759 0 7
-34.0699 -0.5438 -2.5949 0.0759 0 7
-34.0636 -0.8520 -2.5949 0.0759 0 7
-34.0545 -1.1602 -2.5949 0.0759 0 7
-34.0426 -1.4683 -2.5949 0.0759 0 7
-34.0279 -1.7762 -2.5949 0.0759 0 6
-34.0105 -2.0840 -2.5949 0.0759 0 6
-33.9902 -2.3916 -2.5949 0.0759 0 7
-33.9672 -2.6990 -2.5949 0.0759 0 7
-33.9414 -3.0062 -2.5949 0.0759 0 7
-33.9128 -3.3132 -2.5949 0.0759 0 7
-33.8814 -3.6199 -2.5949 0.0759 0 7
-33.8473 -3.9262 -2.5949 0.0759 0 6
-33.8104 -4.2323 -2.5949 0.0759 0 6
-33.7707 -4.5380 -2.5949 0.0759 0 7
-33.7283 -4.8434 -2.5949 0.0759 0 7
-33.6831 -5.1483 -2.5949 0.0759 0 7
-33.6351 -5.4529 -2.5949 0.0759 0 7
-33.5844 -5.7570 -2.5949 0.0759 0 7
-33.5309 -6.0606 -2.5949 0.0759 0 6
-33.4747 -6.3637 -2.5949 0.0759 0 7
-33.4158 -6.6663 -2.5949 0.0759 0 7
-33.3541 -6.9683 -2.5949 0.0759 0 7
-33.2897 -7.2698 -2.5949 0.0759 0 7
-33.2226 -7.5707 -2.5949 0.0759 0 7
-33.1527 -7.8710 -2.5949 0.0759 0 7
-33.0802 -8.1706 -2.5949 0.0759 0 7
-33.0049 -8.4695 -2.5949 0.0759 0 7
-32.9269 -8.7678 -2.5949 0.0759 0 7
-32.8462 -9.0653 -2.5949 0.0759 0 7
-32.7629 -9.3621 -2.5949 0.0759 0 7
-32.6768 -9.6582 -2.5949 0.0759 0 7
-32.5881 -9.9534 -2.5949 0.0759 0 7
-32.4967 -10.2478 -2.5949 0.0759 0 7
-32.4027 -10.5414 -2.5949 0.0759 0 7
-32.3060 -10.8341 -2.5949 0.0759 0 7
-32.2066 -11.1260 -2.5949 0.0759 0 7
-32.1047 -11.4169 -2.5949 0.0759 0 7
-32.0001 -11.7069 -2.5949 0.0759 0 7
-31.8928 -11.9959 -2.5949 0.0759 0 7
-31.7830 -12.2840 -2.5949 0.0759 0 7
-31.6706 -12.5710 -2.5949 0.0759 0 7
-31.5555 -12.8570 -2.5949 0.0759 0 7
-31.4379 -13.1420 -2.5949 0.0759 0 7
-31.3177 -13.4259 -2.5949 0.0759 0 7
-31.1950 -13.7087 -2.5949 0.0759 0 7
-31.0697 -13.9904 -2.5949 0.0759 0 7
-30.9418 -14.2709 -2.5949 0.0759 0 7
-30.8114 -14.5502 -2.5949 0.0759 0 7
-30.6786 -14.8284 -2.5949 0.0759 0 7
-30.5431 -15.1054 -2.5949 0.0759 0 7
-30.4052 -15.3811 -2.5949 0.0759 0 7
-30.2648 -15.6555 -2.5949 0.0759 0 7
-30.1019 -15.9181 -2.5931 0.0841 0 8
-29.9092 -16.1642 -2.5890 0.0843 0 8
-29.4874 -16.2826 -2.5652 0.5055 0 8
-28.9012 -16.3019 -2.5269 0.5132 0 8
-28.3322 -16.3206 -2.4900 0.5208 0 8
-27.7795 -16.3387 -2.4543 0.5283 0 8
-27.4975 -16.5095 -2.4425 0.0759 0 8
-27.3471 -16.7576 -2.4425 0.0759 0 8
-27.1943 -17.0043 -2.4425 0.0759 0 8
-27.0394 -17.2497 -2.4425 0.0759 0 8
-26.8822 -17.4936 -2.4425 0.0759 0 8
-26.7228 -17.7361 -2.4425 0.0759 0 8
-26.5613 -17.9771 -2.4425 0.0759 0 8
-26.3976 -18.2167 -2.4425 0.0759 0 8
-26.2317 -18.4548 -2.4425 0.0759 0 8
-26.0636 -18.6913 -2.4425 0.0759 0 8
-25.8935 -18.9264 -2.4425 0.0759 0 8
-22.5865 -16.8248 -2.1448 0.7879 0 5
-25.5468 -19.3918 -2.4425 0.0759 0 8
-25.3703 -19.6221 -2.4425 0.0759 0 8
-25.1917 -19.8509 -2.4425 0.0759 0 8
-25.0111 -20.0780 -2.4425 0.0759 0 8
-24.8284 -20.3034 -2.4425 0.0759 0 8
-24.6437 -20.5272 -2.4425 0.0759 0 8
-24.4570 -20.7494 -2.4425 0.0759 0 8
-24.2682 -20.9698 -2.4425 0.0759 0 8
-24.0775 -21.1885 -2.4425 0.0759 0 8
-23.8848 -21.4054 -2.4425 0.0759 0 8
-23.6902 -21.6207 -2.4425 0.0759 0 8
-23.4936 -21.8341 -2.4425 0.0759 0 8
-23.2951 -22.0458 -2.4425 0.0759 0 8
-23.0947 -22.2556 -2.4425 0.0759 0 8
-22.8924 -22.4637 -2.4425 0.0759 0 8
-22.6883 -22.6699 -2.4425 0.0759 0 8
-22.4822 -22.8742 -2.4425 0.0759 0 8
-22.2744 -23.0767 -2.4425 0.0759 0 8
-22.0647 -23.2772 -2.4425 0.0759 0 8
-21.8532 -23.4759 -2.4425 0.0759 0 8
-21.6399 -23.6727 -2.4425 0.0759 0 8
-21.4248 -23.8675 -2.4425 0.0759 0 8
-21.2079 -24.0603 -2.4425 0.0759 0 8
-20.9893 -24.2512 -2.4425 0.0759 0 8
-20.7691 -24.4401 -2.4425 0.0759 0 8
-20.5472 -24.6270 -2.4425 0.0759 0 8
-20.3236 -24.8119 -2.4425 0.0759 0 8
-20.0982 -24.9948 -2.4425 0.0759 0 8
-19.8713 -25.1756 -2.4425 0.0759 0 8
-19.6427 -25.3544 -2.4425 0.0759 0 8
-19.4125 -25.5310 -2.4425 0.0759 0 8
-19.1807 -25.7056 -2.4425 0.0759 0 8
-18.9474 -25.8781 -2.4425 0.0759 0 8
-18.7125 -26.0485 -2.4425 0.0759 0 8
-18.4761 -26.2167 -2.4425 0.0759 0 8
-18.2381 -26.3828 -2.4425 0.0759 0 8
-17.9987 -26.5467 -2.4425 0.0759 0 8
-17.7577 -26.7084 -2.4425 0.0759 0 8
-17.5154 -26.8680 -2.4425 0.0759 0 8
-17.2716 -27.0254 -2.4425 0.0759 0 8
-17.0264 -27.1805 -2.4425 0.0759 0 8
-16.7798 -27.3335 -2.4425 0.0759 0 8
-16.5318 -27.4842 -2.4425 0.0759 0 8
-16.2824 -27.6326 -2.4425 0.0759 0 8
-16.0318 -27.7788 -2.4425 0.0759 0 8
-15.7798 -27.9227 -2.4425 0.0759 0 8
-15.5265 -28.0643 -2.4425 0.0759 0 8
-15.2720 -28.2036 -2.4425 0.0759 0 8
-15.0162 -28.3407 -2.4425 0.0759 0 8
-14.7592 -28.4754 -2.4425 0.0759 0 8
-14.5009 -28.6077 -2.4425 0.0759 0 8
-14.2415 -28.7378 -2.4425 0.0759 0 8
-13.9809 -28.8654 -2.4425 0.0759 0 8
-13.7192 -28.9907 -2.4425 0.0759 0 8
-13.4564 -29.1137 -2.4425 0.0759 0 8
-13.1924 -29.2342 -2.4425 0.0759 0 8
-12.9274 -29.3524 -2.4425 0.0759 0 8
-12.6613 -29.4681 -2.4425 0.0759 0 8
-12.3941 -29.5815 -2.4425 0.0759 0 8
-12.1260 -29.6924 -2.4425 0.0759 0 8
-11.8569 -29.8009 -2.4425 0.0759 0 8
-10.6766 -27.5577 -2.2506 0.9404 0 5
-10.4885 -27.8166 -2.2639 0.3326 0 5
-11.0438 -30.1117 -2.4425 0.0759 0 8
-10.7709 -30.2104 -2.4425 0.0759 0 8
-10.4971 -30.3066 -2.4425 0.0759 0 8
-10.2225 -30.4003 -2.4425 0.0759 0 8
-9.9470 -30.4916 -2.4425 0.0759 0 8
-9.6708 -30.5803 -2.4425 0.0759 0 8
-9.6425 -31.4788 -2.5071 0.2762 0 8
-9.6563 -32.5732 -2.5872 0.0803 0 8
-9.3785 -32.7194 -2.5920 0.0801 0 8
-9.0920 -32.8389 -2.5949 0.0759 0 7
-8.7945 -32.9198 -2.5949 0.0759 0 7
-8.4963 -32.9980 -2.5949 0.0759 0 7
-8.1974 -33.0735 -2.5949 0.0759 0 7
-7.8978 -33.1463 -2.5949 0.0759 0 7
-7.5977 -33.2164 -2.5949 0.0759 0 7
-7.2968 -33.2838 -2.5949 0.0759 0 7
-6.9954 -33.3485 -2.5949 0.0759 0 7
-6.6934 -33.4104 -2.5949 0.0759 0 7
-6.3908 -33.4696 -2.5949 0.0759 0 7
-6.0877 -33.5260 -2.5949 0.0759 0 7
-5.7842 -33.5797 -2.5949 0.0759 0 7
-5.4801 -33.6307 -2.5949 0.0759 0 7
-5.1757 -33.6789 -2.5949 0.0759 0 7
-4.8707 -33.7243 -2.5949 0.0759 0 7
-4.5654 -33.7670 -2.5949 0.0759 0 7
-4.2597 -33.8069 -2.5949 0.0759 0 7
-3.9537 -33.8441 -2.5949 0.0759 0 7
-3.6473 -33.8785 -2.5949 0.0759 0 7
-3.3407 -33.9101 -2.5949 0.0759 0 7
-3.0337 -33.9389 -2.5949 0.0759 0 7
-2.7266 -33.9650 -2.5949 0.0759 0 7
-2.4192 -33.9883 -2.5949 0.0759 0 7
-2.1116 -34.0088 -2.5949 0.0759 0 7
-1.8038 -34.0265 -2.5949 0.0759 0 7
-1.4959 -34.0414 -2.5949 0.0759 0 7
-1.1878 -34.0535 -2.5949 0.0759 0 7
-0.8797 -34.0629 -2.5949 0.0759 0 7
-0.5715 -34.0695 -2.5949 0.0759 0 7
-0.2632 -34.0732 -2.5949 0.0759 0 7
0.0451 -34.0742 -2.5949 0.0759 0 7
0.3533 -34.0724 -2.5949 0.0759 0 7
0.6616 -34.0678 -2.5949 0.0759 0 7
0.9698 -34.0605 -2.5949 0.0759 0 7
1.2779 -34.0503 -2.5949 0.0759 0 7
1.5859 -34.0373 -2.5949 0.0759 0 7
1.8938 -34.0216 -2.5949 0.0759 0 7
2.2015 -34.0031 -2.5949 0.0759 0 7
2.5091 -33.9818 -2.5949 0.0759 0 7
2.8164 -33.9577 -2.5949 0.0759 0 7
3.1235 -33.9308 -2.5949 0.0759 0 7
3.4304 -33.9011 -2.5949 0.0759 0 7
3.7370 -33.8687 -2.5949 0.0759 0 7
4.0432 -33.8335 -2.5949 0.0759 0 7
4.3492 -33.7956 -2.5949 0.0759 0 7
4.6547 -33.7548 -2.5949 0.0759 0 7
4.9599 -33.7113 -2.5949 0.0759 0 7
5.2647 -33.6651 -2.5949 0.0759 0 7
5.5691 -33.6161 -2.5949 0.0759 0 7
5.8730 -33.5643 -2.5949 0.0759 0 7
6.1764 -33.5098 -2.5949 0.0759 0 7
6.4794 -33.4525 -2.5949 0.0759 0 7
6.7817 -33.3926 -2.5949 0.0759 0 6
7.0836 -33.3298 -2.5949 0.0759 0 7
7.3848 -33.2644 -2.5949 0.0759 0 7
7.6855 -33.1962 -2.5949 0.0759 0 7
7.9855 -33.1253 -2.5949 0.0759 0 7
8.2849 -33.0517 -2.5949 0.0759 0 7
8.5836 -32.9754 -2.5949 0.0759 0 7
8.8766 -32.8781 -2.5934 0.0808 0 8
9.1571 -32.7371 -2.5887 0.0809 0 8
9.2724 -32.0294 -2.5393 0.3112 0 8
9.3093 -31.1007 -2.4722 0.3197 0 8
9.4829 -30.6677 -2.4445 0.2797 0 8
9.7516 -30.5546 -2.4425 0.0759 0 8
10.0277 -30.4651 -2.4425 0.0759 0 8
10.3029 -30.3732 -2.4425 0.0759 0 8
10.5773 -30.2787 -2.4425 0.0759 0 8
10.8507 -30.1818 -2.4425 0.0759 0 8
11.1234 -30.0824 -2.4425 0.0759 0 8
11.3951 -29.9805 -2.4425 0.0759 0 8
11.6659 -29.8762 -2.4425 0.0759 0 8
11.9357 -29.7694 -2.4425 0.0759 0 8
12.2045 -29.6602 -2.4425 0.0759 0 8
12.4724 -29.5486 -2.4425 0.0759 0 8
12.7392 -29.4345 -2.4425 0.0759 0 8
13.0050 -29.3181 -2.4425 0.0759 0 8
13.2697 -29.1992 -2.4425 0.0759 0 8
13.5333 -29.0780 -2.4425 0.0759 0 8
13.7958 -28.9543 -2.4425 0.0759 0 8
14.0572 -28.8283 -2.4425 0.0759 0 8
14.3175 -28.7000 -2.4425 0.0759 0 8
14.5766 -28.5693 -2.4425 0.0759 0 8
14.8345 -28.4362 -2.4425 0.0759 0 8
15.0911 -28.3008 -2.4425 0.0759 0 8
15.3465 -28.1631 -2.4425 0.0759 0 8
15.6007 -28.0236 -2.4425 0.0759 0 8
15.8536 -27.8809 -2.4425 0.0759 0 8
16.1052 -27.7363 -2.4425 0.0759 0 8
16.3555 -27.5894 -2.4425 0.0759 0 8
16.6044 -27.4403 -2.4425 0.0759 0 8
16.8520 -27.2890 -2.4425 0.0759 0 8
17.0982 -27.1354 -2.4425 0.0759 0 8
17.3430 -26.9796 -2.4425 0.0759 0 8
12.7852 -19.4992 -1.7757 0.9637 0 5
17.8284 -26.6614 -2.4425 0.0759 0 8
18.0688 -26.4990 -2.4425 0.0759 0 8
18.3078 -26.3344 -2.4425 0.0759 0 8
18.5453 -26.1677 -2.4425 0.0759 0 8
18.7813 -25.9989 -2.4425 0.0759 0 8
19.0158 -25.8279 -2.4425 0.0759 0 8
19.2487 -25.6548 -2.4425 0.0759 0 8
19.4800 -25.4796 -2.4425 0.0759 0 8
19.7097 -25.3023 -2.4425 0.0759 0 8
19.9378 -25.1229 -2.4425 0.0759 0 8
20.1643 -24.9415 -2.4425 0.0759 0 8
20.3891 -24.7581 -2.4425 0.0759 0 8
20.6123 -24.5726 -2.4425 0.0759 0 8
20.8338 -24.3851 -2.4425 0.0759 0 8
21.0535 -24.1956 -2.4425 0.0759 0 8
21.2716 -24.0042 -2.4425 0.0759 0 8
21.4879 -23.8107 -2.4425 0.0759 0 8
21.7024 -23.6153 -2.4425 0.0759 0 8
21.9152 -23.4180 -2.4425 0.0759 0 8
22.1262 -23.2188 -2.4425 0.0759 0 8
22.3353 -23.0176 -2.4425 0.0759 0 8
22.5427 -22.8146 -2.4425 0.0759 0 8
22.7481 -22.6098 -2.4425 0.0759 0 8
22.9518 -22.4030 -2.4425 0.0759 0 8
23.1535 -22.1945 -2.4425 0.0759 0 8
23.3534 -21.9841 -2.4425 0.0759 0 8
23.5513 -21.7719 -2.4425 0.0759 0 8
23.7473 -21.5579 -2.4425 0.0759 0 8
23.9414 -21.3422 -2.4425 0.0759 0 8
24.1335 -21.1247 -2.4425 0.0759 0 8
24.3236 -20.9055 -2.4425 0.0759 0 8
24.5118 -20.6846 -2.4425 0.0759 0 8
24.6979 -20.4620 -2.4425 0.0759 0 8
24.8820 -20.2377 -2.4425 0.0759 0 8
25.0641 -20.0117 -2.4425 0.0759 0 8
25.2441 -19.7841 -2.4425 0.0759 0 8
25.4221 -19.5549 -2.4425 0.0759 0 8
25.5980 -19.3242 -2.4425 0.0759 0 8
25.7718 -19.0918 -2.4425 0.0759 0 8
25.9434 -18.8578 -2.4425 0.0759 0 8
26.1130 -18.6223 -2.4425 0.0759 0 8
26.2804 -18.3853 -2.4425 0.0759 0 8
26.4457 -18.1468 -2.4425 0.0759 0 8
26.6087 -17.9068 -2.4425 0.0759 0 8
26.7697 -17.6653 -2.4425 0.0759 0 8
27.0151 -17.4785 -2.4503 0.5292 0 8
27.5664 -17.4834 -2.4859 0.5216 0 8
28.1338 -17.4884 -2.5227 0.5140 0 8
28.7182 -17.4935 -2.5608 0.5064 0 8
29.1887 -17.4199 -2.5886 0.0843 0 8
29.3915 -17.1823 -2.5927 0.0841 0 8
29.5708 -16.9300 -2.5949 0.0759 0 7
29.7227 -16.6618 -2.5949 0.0759 0 7
29.8723 -16.3922 -2.5949 0.0759 0 7
30.0194 -16.1212 -2.5949 0.0759 0 7
30.1640 -15.8490 -2.5949 0.0759 0 7
30.3061 -15.5754 -2.5949 0.0759 0 7
30.4458 -15.3006 -2.5949 0.0759 0 7
30.5830 -15.0245 -2.5949 0.0759 0 7
30.7177 -14.7472 -2.5949 0.0759 0 7
30.8498 -14.4687 -2.5949 0.0759 0 7
30.9795 -14.1890 -2.5949 0.0759 0 7
31.1066 -13.9081 -2.5949 0.0759 0 7
31.2311 -13.6261 -2.5949 0.0759 0 7
31.3531 -13.3430 -2.5949 0.0759 0 7
31.4726 -13.0588 -2.5949 0.0759 0 7
31.5894 -12.7735 -2.5949 0.0759 0 7
31.7037 -12.4872 -2.5949 0.0759 0 7
31.8154 -12.1999 -2.5949 0.0759 0 7
31.9245 -11.9115 -2.5949 0.0759 0 7
32.0309 -11.6222 -2.5949 0.0759 0 7
32.1348 -11.3319 -2.5949 0.0759 0 7
32.2360 -11.0408 -2.5949 0.0759 0 7
32.3345 -10.7487 -2.5949 0.0759 0 7
20.2540 -6.5299 -1.6206 0.0987 0 19
20.2170 -6.3167 -1.6130 0.6187 0 19
17.3827 -5.2590 -1.3830 0.5334 0 9
17.3136 -5.0675 -1.3738 0.9951 0 9
17.3295 -4.9024 -1.3715 0.9528 0 9
17.4226 -4.7590 -1.3754 0.9128 0 9
24.4128 -6.4315 -1.9225 0.9842 0 19
25.7932 -6.5462 -2.0265 0.8098 0 19
27.2323 -6.6498 -2.1348 0.8150 0 19
33.1734 -7.7832 -2.5949 0.0759 0 7
33.2425 -7.4828 -2.5949 0.0759 0 7
31.4504 -6.7810 -2.4501 0.0759 0 14
31.5104 -6.4962 -2.4501 0.0759 0 14
31.5679 -6.2109 -2.4501 0.0759 0 14
20.2348 -3.7913 -1.5678 0.9702 0 19
21.6308 -3.8506 -1.6731 0.9680 0 19
23.0373 -3.8863 -1.7791 0.9658 0 19
24.4544 -3.8981 -1.8858 0.9635 0 19
25.9116 -3.8904 -1.9954 0.4921 0 19
28.6592 -4.0381 -2.2040 0.9587 0 19
30.1672 -3.9726 -2.3172 0.4764 0 19
31.9344 -3.9117 -2.4501 0.0759 0 14
32.0510 -3.6320 -2.4564 0.1185 0 8
33.8909 -3.5302 -2.5949 0.0759 0 7
33.9214 -3.2235 -2.5949 0.0759 0 7
33.9492 -2.9164 -2.5949 0.0759 0 7
33.9742 -2.6092 -2.5949 0.0759 0 7
33.9964 -2.3017 -2.5949 0.0759 0 7
34.0159 -1.9940 -2.5949 0.0759 0 7
34.0325 -1.6862 -2.5949 0.0759 0 7
34.0464 -1.3782 -2.5949 0.0759 0 7
34.0574 -1.0701 -2.5949 0.0759 0 7
34.0657 -0.7619 -2.5949 0.0759 0 7
34.0712 -0.4537 -2.5949 0.0759 0 7
34.0739 -0.1454 -2.5949 0.0759 0 7
34.0739 0.1629 -2.5949 0.0759 0 7
34.0710 0.4711 -2.5949 0.0759 0 7
34.0653 0.7794 -2.5949 0.0759 0 7
34.0569 1.0875 -2.5949 0.0759 0 7
34.0457 1.3956 -2.5949 0.0759 0 7
34.0316 1.7036 -2.5949 0.0759 0 7
34.0148 2.0114 -2.5949 0.0759 0 7
33.9546 2.3163 -2.5918 0.3922 0 20
33.9729 2.6265 -2.5949 0.0759 0 7
33.9477 2.9338 -2.5949 0.0759 0 7
33.9198 3.2408 -2.5949 0.0759 0 7
33.8891 3.5475 -2.5949 0.0759 0 7
33.8556 3.8540 -2.5949 0.0759 0 6
33.8193 4.1602 -2.5949 0.0759 0 7
33.7803 4.4660 -2.5949 0.0759 0 7
33.7385 4.7714 -2.5949 0.0759 0 7
33.6940 5.0764 -2.5949 0.0759 0 7
33.6467 5.3811 -2.5949 0.0759 0 7
33.5966 5.6853 -2.5949 0.0759 0 7
33.5438 5.9890 -2.5949 0.0759 0 7
33.4883 6.2922 -2.5949 0.0759 0 7
33.3827 6.5856 -2.5912 0.0795 0 8
33.0407 6.8293 -2.5693 0.2322 0 8
31.7947 6.8723 -2.4772 0.2408 0 8
31.2865 7.0593 -2.4425 0.0759 0 8
31.2213 7.3421 -2.4425 0.0759 0 8
31.1536 7.6242 -2.4425 0.0759 0 8
31.0834 7.9058 -2.4425 0.0759 0 8
28.3777 7.4916 -2.2351 0.9602 0 5
30.9353 8.4669 -2.4425 0.0759 0 8
30.8574 8.7464 -2.4425 0.0759 0 8
30.7770 9.0253 -2.4425 0.0759 0 8
30.6941 9.3033 -2.4425 0.0759 0 8
30.6087 9.5807 -2.4425 0.0759 0 8
30.5207 9.8572 -2.4425 0.0759 0 8
30.4303 10.1329 -2.4425 0.0759 0 8
30.3374 10.4078 -2.4425 0.0759 0 8
30.2420 10.6819 -2.4425 0.0759 0 8
30.1441 10.9550 -2.4425 0.0759 0 8
30.0437 11.2273 -2.4425 0.0759 0 8
29.9409 11.4987 -2.4425 0.0759 0 8
29.8357 11.7691 -2.4425 0.0759 0 8
28.4213 11.5094 -2.3351 0.3959 0 19
28.2009 11.7182 -2.3256 0.9115 0 19
29.5053 12.5744 -2.4425 0.0759 0 8
29.3903 12.8409 -2.4425 0.0759 0 8
29.2729 13.1062 -2.4425 0.0759 0 8
29.1532 13.3706 -2.4425 0.0759 0 8
29.0310 13.6338 -2.4425 0.0759 0 8
28.9065 13.8959 -2.4425 0.0759 0 8
28.7796 14.1568 -2.4425 0.0759 0 8
28.6503 14.4166 -2.4425 0.0759 0 8
28.5187 14.6752 -2.4425 0.0759 0 8
28.3848 14.9326 -2.4425 0.0759 0 8
28.2485 15.1888 -2.4425 0.0759 0 8
28.1099 15.4438 -2.4425 0.0759 0 8
27.9690 15.6975 -2.4425 0.0759 0 8
27.8259 15.9499 -2.4425 0.0759 0 8
27.6804 16.2010 -2.4425 0.0759 0 8
19.0756 11.3976 -1.6922 0.5367 0 20
18.7099 11.4101 -1.6689 0.5442 0 20
18.5748 11.5595 -1.6661 0.5270 0 20
27.0761 17.1919 -2.4425 0.0759 0 8
26.9195 17.4362 -2.4425 0.0759 0 8
26.7606 17.6790 -2.4425 0.0759 0 8
26.5996 17.9204 -2.4425 0.0759 0 8
26.4364 18.1603 -2.4425 0.0759 0 8
26.2710 18.3988 -2.4425 0.0759 0 8
26.1035 18.6357 -2.4425 0.0759 0 8
25.9338 18.8711 -2.4425 0.0759 0 8
25.7620 19.1049 -2.4425 0.0759 0 8
25.5881 19.3372 -2.4425 0.0759 0 8
25.4121 19.5679 -2.4425 0.0759 0 8
25.2340 19.7970 -2.4425 0.0759 0 8
25.0539 20.0245 -2.4425 0.0759 0 8
24.8717 20.2504 -2.4425 0.0759 0 8
24.6874 20.4746 -2.4425 0.0759 0 8
24.5012 20.6971 -2.4425 0.0759 0 8
24.3129 20.9179 -2.4425 0.0759 0 8
24.1227 21.1371 -2.4425 0.0759 0 8
23.9305 21.3544 -2.4425 0.0759 0 8
23.7363 21.5701 -2.4425 0.0759 0 8
23.5402 21.7839 -2.4425 0.0759 0 8
17.6186 16.6025 -1.8436 0.7007 0 20
17.3098 16.6098 -1.8269 0.7071 0 20
17.0066 16.6170 -1.8107 0.7135 0 20
16.8038 16.7187 -1.8051 0.6901 0 20
16.8112 17.0314 -1.8224 0.6835 0 20
16.8187 17.3502 -1.8402 0.6770 0 20
16.8264 17.6754 -1.8584 0.6703 0 20
16.8342 18.0070 -1.8772 0.6636 0 20
17.0549 18.5773 -1.9205 0.9949 0 20
17.0474 18.9097 -1.9388 0.6500 0 20
17.0558 19.2667 -1.9595 0.6432 0 20
17.0644 19.6315 -1.9808 0.6362 0 20
17.0732 20.0042 -2.0028 0.6293 0 20
17.0822 20.3854 -2.0254 0.6222 0 20
13.3890 16.2750 -1.6049 0.9425 0 9
13.2430 16.3976 -1.6051 0.9532 0 9
17.9291 22.6155 -2.1978 0.5915 0 20
18.0484 23.1940 -2.2381 0.7832 0 20
17.7163 23.1973 -2.2228 0.8930 0 20
17.7424 23.6724 -2.2529 0.8118 0 20
17.6865 24.0481 -2.2733 0.5717 0 20
18.7680 26.0085 -2.4425 0.0759 0 8
18.5320 26.1772 -2.4425 0.0759 0 8
18.2944 26.3438 -2.4425 0.0759 0 8
18.0553 26.5082 -2.4425 0.0759 0 8
17.8147 26.6705 -2.4425 0.0759 0 8
17.5727 26.8306 -2.4425 0.0759 0 8
17.3292 26.9884 -2.4425 0.0759 0 8
17.0843 27.1441 -2.4425 0.0759 0 8
16.8381 27.2976 -2.4425 0.0759 0 8
16.5904 27.4488 -2.4425 0.0759 0 8
16.3414 27.5978 -2.4425 0.0759 0 8
16.0910 27.7445 -2.4425 0.0759 0 8
14.4819 25.4989 -2.2331 0.8829 0 9
14.1838 25.5088 -2.2227 0.8870 0 9
13.8885 25.5185 -2.2125 0.8911 0 9
11.4682 21.5332 -1.8579 0.8933 0 5
13.3058 25.5379 -2.1929 0.8991 0 9
13.1575 25.8205 -2.2069 0.4230 0 9
13.1783 26.4503 -2.2504 0.4149 0 9
14.0425 28.8355 -2.4425 0.0759 0 8
13.7810 28.9614 -2.4425 0.0759 0 8
13.5185 29.0849 -2.4425 0.0759 0 8
13.2548 29.2060 -2.4425 0.0759 0 8
12.9900 29.3247 -2.4425 0.0759 0 8
12.7242 29.4410 -2.4425 0.0759 0 8
12.4573 29.5550 -2.4425 0.0759 0 8
12.1894 29.6664 -2.4425 0.0759 0 8
11.9205 29.7755 -2.4425 0.0759 0 8
11.6506 29.8821 -2.4425 0.0759 0 8
12.0700 31.8050 -2.5906 0.0721 0 8
11.8011 31.9654 -2.5949 0.0759 0 7
11.5114 32.0709 -2.5949 0.0759 0 7
11.2208 32.1737 -2.5949 0.0759 0 7
10.9293 32.2739 -2.5949 0.0759 0 7
10.6368 32.3715 -2.5949 0.0759 0 7
10.3435 32.4664 -2.5949 0.0759 0 7
10.0494 32.5587 -2.5949 0.0759 0 7
9.7544 32.6482 -2.5949 0.0759 0 7
9.4586 32.7352 -2.5949 0.0759 0 7
9.1620 32.8194 -2.5949 0.0759 0 7
8.8647 32.9009 -2.5949 0.0759 0 7
8.5667 32.9798 -2.5949 0.0759 0 7
8.2680 33.0560 -2.5949 0.0759 0 7
7.9686 33.1294 -2.5949 0.0759 0 7
7.6685 33.2001 -2.5949 0.0759 0 7
7.3678 33.2682 -2.5949 0.0759 0 7
7.0665 33.3335 -2.5949 0.0759 0 7
6.7647 33.3960 -2.5949 0.0759 0 7
6.4623 33.4559 -2.5949 0.0759 0 7
6.1593 33.5130 -2.5949 0.0759 0 7
5.8558 33.5673 -2.5949 0.0759 0 7
5.5519 33.6189 -2.5949 0.0759 0 7
5.2475 33.6678 -2.5949 0.0759 0 7
4.9427 33.7139 -2.5949 0.0759 0 7
4.6375 33.7572 -2.5949 0.0759 0 7
4.3319 33.7978 -2.5949 0.0759 0 7
4.0259 33.8356 -2.5949 0.0759 0 7
3.7196 33.8706 -2.5949 0.0759 0 7
3.4130 33.9029 -2.5949 0.0759 0 7
3.1062 33.9324 -2.5949 0.0759 0 7
2.7991 33.9591 -2.5949 0.0759 0 7
2.4917 33.9830 -2.5949 0.0759 0 7
2.1841 34.0042 -2.5949 0.0759 0 7
1.8764 34.0226 -2.5949 0.0759 0 7
1.5685 34.0381 -2.5949 0.0759 0 7
1.2605 34.0509 -2.5949 0.0759 0 7
0.9524 34.0609 -2.5949 0.0759 0 7
0.6442 34.0682 -2.5949 0.0759 0 7
0.3359 34.0726 -2.5949 0.0759 0 7
0.0276 34.0742 -2.5949 0.0759 0 7
-0.2806 34.0731 -2.5949 0.0759 0 7
-0.5889 34.0692 -2.5949 0.0759 0 7
-0.8971 34.0625 -2.5949 0.0759 0 7
-1.2052 34.0529 -2.5949 0.0759 0 7
-1.5133 34.0406 -2.5949 0.0759 0 7
-1.8212 34.0255 -2.5949 0.0759 0 7
-2.1290 34.0077 -2.5949 0.0759 0 7
-2.4365 33.9870 -2.5949 0.0759 0 7
-2.7439 33.9636 -2.5949 0.0759 0 7
-3.0511 33.9374 -2.5949 0.0759 0 7
-3.3580 33.9084 -2.5949 0.0759 0 7
-3.6647 33.8766 -2.5949 0.0759 0 7
-3.9710 33.8421 -2.5949 0.0759 0 7
-4.2770 33.8048 -2.5949 0.0759 0 7
-4.5827 33.7647 -2.5949 0.0759 0 7
-4.8880 33.7218 -2.5949 0.0759 0 7
-5.1929 33.6762 -2.5949 0.0759 0 7
-5.4974 33.6279 -2.5949 0.0759 0 6
-5.8014 33.5768 -2.5949 0.0759 0 7
-6.1049 33.5229 -2.5949 0.0759 0 7
-6.4079 33.4663 -2.5949 0.0759 0 7
-6.7105 33.4070 -2.5949 0.0759 0 7
-7.0124 33.3449 -2.5949 0.0759 0 7
-7.3138 33.2801 -2.5949 0.0759 0 7
-7.6079 33.1830 -2.5926 0.0801 0 8
-7.8932 33.0519 -2.5878 0.0803 0 8
-7.9644 32.0629 -2.5159 0.2752 0 8
-8.0132 31.0559 -2.4425 0.0759 0 8
-8.2938 30.9821 -2.4425 0.0759 0 8
-8.5738 30.9058 -2.4425 0.0759 0 8
-8.8530 30.8270 -2.4425 0.0759 0 8
-9.1316 30.7456 -2.4425 0.0759 0 8
-9.4094 30.6617 -2.4425 0.0759 0 8
-9.6864 30.5754 -2.4425 0.0759 0 8
-9.9626 30.4865 -2.4425 0.0759 0 8
-10.2380 30.3951 -2.4425 0.0759 0 8
-10.5126 30.3012 -2.4425 0.0759 0 8
-10.6952 29.9498 -2.4218 0.3605 0 1
-10.7162 29.1724 -2.3667 0.3689 0 1
-10.7362 28.4296 -2.3142 0.3773 0 1
-10.7554 27.7189 -2.2642 0.3856 0 1
-10.7737 27.0382 -2.2165 0.3939 0 1
-10.7913 26.3856 -2.1709 0.4022 0 1
-10.8082 25.7592 -2.1273 0.4104 0 1
-10.8244 25.1574 -2.0856 0.4186 0 1
-10.8400 24.5787 -2.0457 0.4268 0 1
-10.8550 24.0218 -2.0074 0.4349 0 1
-10.8694 23.4852 -1.9707 0.4430 0 1
-10.8834 22.9678 -1.9355 0.4511 0 1
-10.9335 22.5442 -1.9081 0.0759 0 1
-11.1370 22.4444 -1.9081 0.0759 0 1
-11.3174 22.2988 -1.9043 0.1006 0 9
-11.6459 22.4408 -1.9254 0.9841 0 9
-11.4594 21.6010 -1.8621 0.9654 0 9
-11.5118 21.2335 -1.8393 0.2449 0 9
-8.9887 16.2276 -1.4127 0.7949 0 5
-11.3973 20.1437 -1.7625 0.6674 0 9
-11.3980 19.7264 -1.7350 0.3994 0 9
-11.5540 19.5851 -1.7317 0.4002 0 9
-11.3825 18.9015 -1.6803 0.6157 0 9
-11.3466 18.4619 -1.6502 0.6417 0 9
-11.3299 18.0663 -1.6240 0.2036 0 9
-11.4284 17.8622 -1.6148 0.6145 0 9
-11.4640 17.5657 -1.5974 0.5149 0 9
-11.6453 17.4956 -1.6005 0.4078 0 9
-11.6848 17.2153 -1.5845 0.8037 0 9
-11.7484 16.9763 -1.5722 0.2695 0 9
-11.8691 16.8235 -1.5679 0.8456 0 9
-11.9873 16.6688 -1.5635 0.3017 0 9
-11.9325 16.2798 -1.5371 0.6740 0 9
-12.1047 16.2052 -1.5404 0.8067 0 9
-12.1157 15.9175 -1.5234 0.9129 0 9
-12.2582 15.8060 -1.5232 0.9161 0 9
-12.3756 15.6626 -1.5202 0.1601 0 9
-12.3520 15.3452 -1.5001 0.1173 0 9
-12.4655 15.2026 -1.4972 0.5951 0 9
-12.5343 15.0075 -1.4890 0.6073 0 9
-12.5844 14.7934 -1.4790 0.2810 0 9
-12.6514 14.6023 -1.4713 0.8683 0 9
-12.8169 14.5257 -1.4752 0.9090 0 9
-12.8562 14.3073 -1.4648 0.1609 0 9
-12.9959 14.2022 -1.4660 0.6177 0 9
-13.0180 13.9703 -1.4542 0.6228 0 9
-13.1042 13.8102 -1.4498 0.8409 0 9
-13.2148 13.6768 -1.4483 0.7567 0 9
-13.2354 13.4524 -1.4371 0.7625 0 9
-13.4592 13.4345 -1.4482 0.4330 0 9
-13.6662 13.3965 -1.4574 0.5108 0 9
-13.6866 13.1759 -1.4468 0.2353 0 9
-13.9206 13.1606 -1.4589 0.2454 0 9
-14.0253 13.0212 -1.4574 0.5515 0 9
-14.4116 13.1391 -1.4851 0.8658 0 9
-14.3259 12.8256 -1.4643 0.4445 0 9
-14.5494 12.7905 -1.4753 0.5665 0 9
-14.7141 12.7010 -1.4802 0.7329 0 9
-14.8291 12.5680 -1.4803 0.4925 0 9
-15.0487 12.5219 -1.4909 0.1029 0 9
-15.2036 12.4198 -1.4950 0.1026 0 9
-15.3584 12.3162 -1.4992 0.1023 0 9
-15.5132 12.2114 -1.5035 0.1020 0 9
-15.7140 12.1408 -1.5122 0.7439 0 9
-15.8604 12.0264 -1.5158 0.7848 0 9
-16.0015 11.9069 -1.5189 0.5282 0 9
-16.2537 11.8676 -1.5326 0.3242 0 9
-16.4273 11.7680 -1.5389 0.7778 0 9
-16.5830 11.6540 -1.5435 0.7174 0 9
-16.8152 11.5914 -1.5553 0.1676 0 9
-17.0746 11.5437 -1.5696 0.9818 0 9
-17.3547 11.5056 -1.5857 0.4901 0 9
-17.6722 11.4873 -1.6051 0.6639 0 9
-18.0048 11.4731 -1.6258 0.9776 0 9
-18.2044 11.3701 -1.6345 0.7728 0 9
-18.7529 11.4781 -1.6744 0.9761 0 9
-19.1186 11.4655 -1.6977 0.8442 0 9
-19.5325 11.4747 -1.7251 0.4038 0 9
-19.8099 11.3979 -1.7405 0.6998 0 9
-20.4191 11.5037 -1.7848 0.5018 0 9
-20.8711 11.5109 -1.8151 0.9877 0 9
-21.5423 11.6281 -1.8642 0.9709 0 9
-22.0004 11.6196 -1.8947 0.2372 0 9
-22.2604 11.5005 -1.9081 0.0759 0 1
-22.3635 11.2987 -1.9081 0.0759 0 1
-22.6752 11.1998 -1.9259 0.4170 0 1
-23.2331 11.2150 -1.9646 0.4088 0 1
-18.0035 8.4906 -1.5159 0.9972 0 5
-24.4193 11.2475 -2.0474 0.3922 0 1
-25.0508 11.2647 -2.0917 0.3839 0 1
-25.7103 11.2828 -2.1382 0.3756 0 1
-26.3998 11.3016 -2.1869 0.3672 0 1
-27.1216 11.3214 -2.2381 0.3588 0 1
-27.8780 11.3420 -2.2920 0.3504 0 1
-28.6718 11.3638 -2.3487 0.3419 0 1
-29.5059 11.3866 -2.4085 0.3334 0 1
-30.0255 11.2760 -2.4425 0.0759 0 8
-30.1263 11.0039 -2.4425 0.0759 0 8
-30.2246 10.7309 -2.4425 0.0759 0 8
-30.3204 10.4571 -2.4425 0.0759 0 8
-30.4138 10.1823 -2.4425 0.0759 0 8
-30.5047 9.9067 -2.4425 0.0759 0 8
-30.5931 9.6303 -2.4425 0.0759 0 8
-30.6789 9.3531 -2.4425 0.0759 0 8
-30.7623 9.0752 -2.4425 0.0759 0 8
-30.8431 8.7965 -2.4425 0.0759 0 8
-30.9215 8.5171 -2.4425 0.0759 0 8
-30.9973 8.2370 -2.4425 0.0759 0 8
-31.9888 8.1914 -2.5146 0.2372 0 8
-33.0014 8.1332 -2.5884 0.0796 0 8
-33.1358 7.8490 -2.5932 0.0795 0 8
-33.2264 7.5537 -2.5949 0.0759 0 7
-33.2934 7.2528 -2.5949 0.0759 0 7
-33.3577 6.9513 -2.5949 0.0759 0 7
-33.4192 6.6492 -2.5949 0.0759 0 7
-33.4780 6.3466 -2.5949 0.0759 0 7
-33.5340 6.0434 -2.5949 0.0759 0 7
-33.5874 5.7398 -2.5949 0.0759 0 7
-33.6379 5.4357 -2.5949 0.0759 0 7
-33.6857 5.1311 -2.5949 0.0759 0 7
-33.7307 4.8261 -2.5949 0.0759 0 7
-33.7730 4.5208 -2.5949 0.0759 0 7
-33.8126 4.2150 -2.5949 0.0759 0 7
-33.8493 3.9089 -2.5949 0.0759 0 7
-33.8833 3.6025 -2.5949 0.0759 0 7
-33.9145 3.2958 -2.5949 0.0759 0 7
-33.9429 2.9889 -2.5949 0.0759 0 7
-33.9686 2.6817 -2.5949 0.0759 0 7
-33.9914 2.3742 -2.5949 0.0759 0 7
-34.0115 2.0666 -2.5949 0.0759 0 7
-34.0288 1.7588 -2.5949 0.0759 0 7
-34.0434 1.4508 -2.5949 0.0759 0 7
-34.0551 1.1428 -2.5949 0.0759 0 7
-34.0640 0.8346 -2.5949 0.0759 0 7
-34.0703 0.5264 -2.5949 0.0759 0 7
-34.0736 0.2181 -2.5949 0.0759 0 7
-34.0741 -0.0901 -2.5949 0.0759 0 7
-34.0719 -0.3984 -2.5949 0.0759 0 7
-34.0669 -0.7067 -2.5949 0.0759 0 7
-34.0591 -1.0148 -2.5949 0.0759 0 7
-34.0486 -1.3230 -2.5949 0.0759 0 7
-34.0352 -1.6309 -2.5949 0.0759 0 7
-34.0191 -1.9388 -2.5949 0.0759 0 6
-34.0001 -2.2465 -2.5949 0.0759 0 6
-33.9784 -2.5540 -2.5949 0.0759 0 7
-33.9539 -2.8613 -2.5949 0.0759 0 7
-33.9266 -3.1684 -2.5949 0.0759 0 7
-33.8966 -3.4752 -2.5949 0.0759 0 7
-33.8637 -3.7818 -2.5949 0.0759 0 6
-33.8281 -4.0880 -2.5949 0.0759 0 6
-33.7898 -4.3938 -2.5949 0.0759 0 6
-33.7486 -4.6994 -2.5949 0.0759 0 7
-33.7047 -5.0045 -2.5949 0.0759 0 7
-33.6581 -5.3093 -2.5949 0.0759 0 7
-33.6087 -5.6136 -2.5949 0.0759 0 7
-33.5565 -5.9174 -2.5949 0.0759 0 7
-33.5016 -6.2208 -2.5949 0.0759 0 6
-33.4440 -6.5236 -2.5949 0.0759 0 7
-33.3836 -6.8259 -2.5949 0.0759 0 7
-33.3204 -7.1277 -2.5949 0.0759 0 7
-33.2546 -7.4289 -2.5949 0.0759 0 7
-33.1860 -7.7294 -2.5949 0.0759 0 7
-33.1147 -8.0293 -2.5949 0.0759 0 7
-33.0407 -8.3286 -2.5949 0.0759 0 7
-32.9640 -8.6272 -2.5949 0.0759 0 7
-32.8846 -8.9251 -2.5949 0.0759 0 7
-32.8025 -9.2222 -2.5949 0.0759 0 7
-32.7178 -9.5186 -2.5949 0.0759 0 7
-32.6303 -9.8142 -2.5949 0.0759 0 6
-32.5402 -10.1090 -2.5949 0.0759 0 7
-32.4474 -10.4030 -2.5949 0.0759 0 7
-32.3519 -10.6962 -2.5949 0.0759 0 7
-32.2538 -10.9884 -2.5949 0.0759 0 7
-32.1531 -11.2798 -2.5949 0.0759 0 7
-32.0497 -11.5702 -2.5949 0.0759 0 7
-31.9437 -11.8597 -2.5949 0.0759 0 7
-31.8351 -12.1482 -2.5949 0.0759 0 7
-31.7239 -12.4358 -2.5949 0.0759 0 7
-31.6101 -12.7223 -2.5949 0.0759 0 7
-31.4937 -13.0077 -2.5949 0.0759 0 7
-31.3748 -13.2921 -2.5949 0.0759 0 6
-31.2532 -13.5754 -2.5949 0.0759 0 7
-31.1291 -13.8576 -2.5949 0.0759 0 7
-31.0025 -14.1387 -2.5949 0.0759 0 7
-30.8733 -14.4186 -2.5949 0.0759 0 7
-30.7416 -14.6973 -2.5949 0.0759 0 7
-30.6073 -14.9749 -2.5949 0.0759 0 7
-30.4706 -15.2512 -2.5949 0.0759 0 7
-30.3314 -15.5262 -2.5949 0.0759 0 7
-30.1896 -15.8000 -2.5949 0.0759 0 7
-30.0003 -16.0483 -2.5910 0.0842 0 8
-29.7701 -16.2733 -2.5837 0.5019 0 8
-29.1756 -16.2929 -2.5448 0.5095 0 8
-28.5986 -16.3118 -2.5072 0.5172 0 8
-28.0383 -16.3302 -2.4709 0.5248 0 8
-27.5678 -16.3920 -2.4425 0.0759 0 8
-27.4183 -16.6407 -2.4425 0.0759 0 8
-27.2667 -16.8881 -2.4425 0.0759 0 8
-27.1127 -17.1341 -2.4425 0.0759 0 8
-26.9566 -17.3787 -2.4425 0.0759 0 8
-26.7983 -17.6219 -2.4425 0.0759 0 8
-26.6378 -17.8636 -2.4425 0.0759 0 8
-26.4751 -18.1039 -2.4425 0.0759 0 8
-26.3102 -18.3426 -2.4425 0.0759 0 8
-26.1432 -18.5799 -2.4425 0.0759 0 8
-25.9740 -18.8157 -2.4425 0.0759 0 8
-22.7529 -16.7983 -2.1538 0.6137 0 5
-22.5902 -16.9961 -2.1528 0.7850 0 5
-25.4538 -19.5137 -2.4425 0.0759 0 8
-25.2762 -19.7431 -2.4425 0.0759 0 8
-25.0966 -19.9710 -2.4425 0.0759 0 8
-24.9148 -20.1973 -2.4425 0.0759 0 8
-24.7311 -20.4219 -2.4425 0.0759 0 8
-24.5453 -20.6448 -2.4425 0.0759 0 8
-24.3575 -20.8660 -2.4425 0.0759 0 8
-24.1677 -21.0855 -2.4425 0.0759 0 8
-23.9760 -21.3033 -2.4425 0.0759 0 8
-23.7823 -21.5194 -2.4425 0.0759 0 8
-23.5866 -21.7336 -2.4425 0.0759 0 8
-23.3890 -21.9461 -2.4425 0.0759 0 8
-23.1895 -22.1568 -2.4425 0.0759 0 8
-22.9881 -22.3658 -2.4425 0.0759 0 8
-22.7848 -22.5728 -2.4425 0.0759 0 8
-22.5796 -22.7780 -2.4425 0.0759 0 8
-22.3726 -22.9814 -2.4425 0.0759 0 8
-22.1638 -23.1828 -2.4425 0.0759 0 8
-21.9532 -23.3824 -2.4425 0.0759 0 8
-21.7407 -23.5801 -2.4425 0.0759 0 8
-21.5265 -23.7758 -2.4425 0.0759 0 8
-21.3106 -23.9696 -2.4425 0.0759 0 8
-21.0929 -24.1614 -2.4425 0.0759 0 8
-20.8733 -24.3513 -2.4425 0.0759 0 8
-20.6521 -24.5391 -2.4425 0.0759 0 8
-20.4293 -24.7250 -2.4425 0.0759 0 8
-20.2047 -24.9088 -2.4425 0.0759 0 8
-19.9785 -25.0906 -2.4425 0.0759 0 8
-19.7507 -25.2703 -2.4425 0.0759 0 8
-19.5213 -25.4480 -2.4425 0.0759 0 8
-19.2903 -25.6235 -2.4425 0.0759 0 8
-19.0577 -25.7970 -2.4425 0.0759 0 8
-18.8235 -25.9684 -2.4425 0.0759 0 8
-18.5878 -26.1376 -2.4425 0.0759 0 8
-18.3506 -26.3047 -2.4425 0.0759 0 8
-18.1118 -26.4696 -2.4425 0.0759 0 8
-17.8716 -26.6324 -2.4425 0.0759 0 8
-17.6299 -26.7930 -2.4425 0.0759 0 8
-17.3868 -26.9514 -2.4425 0.0759 0 8
-17.1422 -27.1076 -2.4425 0.0759 0 8
-16.8963 -27.2616 -2.4425 0.0759 0 8
-16.6489 -27.4133 -2.4425 0.0759 0 8
-16.4002 -27.5629 -2.4425 0.0759 0 8
-16.1502 -27.7101 -2.4425 0.0759 0 8
-15.8988 -27.8551 -2.4425 0.0759 0 8
-15.6461 -27.9978 -2.4425 0.0759 0 8
-15.3922 -28.1382 -2.4425 0.0759 0 8
-15.1370 -28.2763 -2.4425 0.0759 0 8
-14.8806 -28.4121 -2.4425 0.0759 0 8
-14.6229 -28.5456 -2.4425 0.0759 0 8
-14.3640 -28.6767 -2.4425 0.0759 0 8
-14.1040 -28.8055 -2.4425 0.0759 0 8
-13.8428 -28.9319 -2.4425 0.0759 0 8
-13.5805 -29.0560 -2.4425 0.0759 0 8
-13.3171 -29.1776 -2.4425 0.0759 0 8
-13.0526 -29.2969 -2.4425 0.0759 0 8
-12.7869 -29.4138 -2.4425 0.0759 0 8
-12.5203 -29.5283 -2.4425 0.0759 0 8
-12.2526 -29.6404 -2.4425 0.0759 0 8
-11.9840 -29.7500 -2.4425 0.0759 0 8
-11.7143 -29.8572 -2.4425 0.0759 0 8
-10.5268 -27.5614 -2.2468 0.9420 0 5
-11.1722 -30.0643 -2.4425 0.0759 0 8
-10.8997 -30.1641 -2.4425 0.0759 0 8
-10.6264 -30.2615 -2.4425 0.0759 0 8
-10.3522 -30.3564 -2.4425 0.0759 0 8
