ply
format ascii 1.0
element vertex 1406
property float32 x
property float32 y
property float32 z
property float32 CosAngle
property uint32 ObjIdx
property uint32 ObjTag
end_header
-3.3090 -5.9973 -1.7941 0.8626 0 19
-5.0691 -9.3873 -2.7943 0.2534 0 7
-4.9840 -9.4327 -2.7943 0.2534 0 7
-4.8984 -9.4775 -2.7943 0.2534 0 7
-4.8124 -9.5214 -2.7943 0.2534 0 7
-4.7261 -9.5646 -2.7943 0.2534 0 7
-4.6393 -9.6069 -2.7943 0.2534 0 7
-4.5522 -9.6485 -2.7943 0.2534 0 7
-4.4647 -9.6893 -2.7943 0.2534 0 7
-4.3768 -9.7293 -2.7943 0.2534 0 7
-4.2886 -9.7685 -2.7943 0.2534 0 7
-4.2000 -9.8070 -2.7943 0.2534 0 7
-4.1111 -9.8446 -2.7943 0.2534 0 7
-4.0218 -9.8814 -2.7943 0.2534 0 7
-3.9322 -9.9174 -2.7943 0.2534 0 7
-3.8423 -9.9525 -2.7943 0.2534 0 7
-3.7521 -9.9869 -2.7943 0.2534 0 7
-3.6616 -10.0204 -2.7943 0.2534 0 7
-3.5707 -10.0532 -2.7943 0.2534 0 7
-3.4796 -10.0851 -2.7943 0.2534 0 7
-3.3882 -10.1162 -2.7943 0.2534 0 7
-3.2965 -10.1464 -2.7943 0.2534 0 7
-3.2045 -10.1758 -2.7943 0.2534 0 7
-3.1123 -10.2044 -2.7943 0.2534 0 7
-3.0198 -10.2322 -2.7943 0.2534 0 7
-2.9271 -10.2591 -2.7943 0.2534 0 7
-2.8342 -10.2851 -2.7943 0.2534 0 7
-2.7410 -10.3104 -2.7943 0.2534 0 6
-2.6476 -10.3347 -2.7943 0.2534 0 6
-2.5539 -10.3583 -2.7943 0.2534 0 7
-2.4601 -10.3810 -2.7943 0.2534 0 7
-2.3660 -10.4028 -2.7943 0.2534 0 7
-2.2718 -10.4238 -2.7943 0.2534 0 7
-2.1774 -10.4439 -2.7943 0.2534 0 7
-2.0827 -10.4632 -2.7943 0.2534 0 7
-1.9880 -10.4816 -2.7943 0.2534 0 7
-1.8930 -10.4992 -2.7943 0.2534 0 7
-1.7979 -10.5159 -2.7943 0.2534 0 7
-1.7027 -10.5317 -2.7943 0.2534 0 7
-1.6073 -10.5467 -2.7943 0.2534 0 7
-1.5118 -10.5608 -2.7943 0.2534 0 7
-1.4162 -10.5741 -2.7943 0.2534 0 7
-1.3204 -10.5864 -2.7943 0.2534 0 7
-1.2246 -10.5980 -2.7943 0.2534 0 7
-1.1286 -10.6086 -2.7943 0.2534 0 7
-1.0326 -10.6184 -2.7943 0.2534 0 7
-0.9364 -10.6273 -2.7943 0.2534 0 7
-0.8402 -10.6353 -2.7943 0.2534 0 7
-0.7439 -10.6425 -2.7943 0.2534 0 7
-0.6476 -10.6488 -2.7943 0.2534 0 7
-0.5512 -10.6542 -2.7943 0.2534 0 7
-0.4548 -10.6588 -2.7943 0.2534 0 7
-0.3583 -10.6625 -2.7943 0.2534 0 7
-0.2618 -10.6653 -2.7943 0.2534 0 7
-0.1652 -10.6672 -2.7943 0.2534 0 7
-0.0687 -10.6683 -2.7943 0.2534 0 7
0.0279 -10.6684 -2.7943 0.2534 0 7
0.1244 -10.6677 -2.7943 0.2534 0 7
0.2209 -10.6662 -2.7943 0.2534 0 7
0.3175 -10.6637 -2.7943 0.2534 0 7
0.4139 -10.6604 -2.7943 0.2534 0 7
0.5104 -10.6563 -2.7943 0.2534 0 7
0.6068 -10.6512 -2.7943 0.2534 0 7
0.7032 -10.6453 -2.7943 0.2534 0 7
0.7995 -10.6385 -2.7943 0.2534 0 7
0.8957 -10.6308 -2.7943 0.2534 0 7
0.9919 -10.6223 -2.7943 0.2534 0 7
1.0880 -10.6129 -2.7943 0.2534 0 7
1.1840 -10.6026 -2.7943 0.2534 0 7
1.2799 -10.5914 -2.7943 0.2534 0 7
1.3757 -10.5794 -2.7943 0.2534 0 7
1.4714 -10.5665 -2.7943 0.2534 0 7
1.5670 -10.5528 -2.7943 0.2534 0 7
1.6624 -10.5382 -2.7943 0.2534 0 7
1.7577 -10.5227 -2.7943 0.2534 0 7
1.8528 -10.5063 -2.7943 0.2534 0 7
1.9478 -10.4891 -2.7943 0.2534 0 7
2.0427 -10.4711 -2.7943 0.2534 0 7
2.1374 -10.4522 -2.7943 0.2534 0 7
2.2319 -10.4324 -2.7943 0.2534 0 7
2.3262 -10.4118 -2.7943 0.2534 0 7
2.4203 -10.3903 -2.7943 0.2534 0 7
2.5142 -10.3680 -2.7943 0.2534 0 7
2.6080 -10.3448 -2.7943 0.2534 0 7
1.0024 -3.8297 -1.0369 0.4212 0 5
1.0263 -3.7809 -1.0262 0.9168 0 5
1.0593 -3.7674 -1.0250 0.8639 0 5
1.0999 -3.7801 -1.0312 0.2942 0 5
3.0732 -10.2162 -2.7943 0.2534 0 7
3.1656 -10.1880 -2.7943 0.2534 0 7
3.2576 -10.1589 -2.7943 0.2534 0 7
3.3494 -10.1290 -2.7943 0.2534 0 7
3.4410 -10.0983 -2.7943 0.2534 0 7
3.5322 -10.0668 -2.7943 0.2534 0 7
3.6232 -10.0344 -2.7943 0.2534 0 7
3.7138 -10.0012 -2.7943 0.2534 0 7
3.8042 -9.9672 -2.7943 0.2534 0 7
3.8942 -9.9323 -2.7943 0.2534 0 7
3.9840 -9.8967 -2.7943 0.2534 0 7
4.0734 -9.8602 -2.7943 0.2534 0 7
4.1624 -9.8230 -2.7943 0.2534 0 7
4.2512 -9.7849 -2.7943 0.2534 0 7
4.3395 -9.7460 -2.7943 0.2534 0 7
4.4275 -9.7063 -2.7943 0.2534 0 7
4.5152 -9.6659 -2.7943 0.2534 0 7
4.6025 -9.6246 -2.7943 0.2534 0 7
4.6894 -9.5826 -2.7943 0.2534 0 7
4.7759 -9.5397 -2.7943 0.2534 0 7
4.8621 -9.4961 -2.7943 0.2534 0 7
4.9478 -9.4517 -2.7943 0.2534 0 7
5.0331 -9.4066 -2.7943 0.2534 0 7
5.1181 -9.3606 -2.7943 0.2534 0 7
5.2026 -9.3139 -2.7943 0.2534 0 7
5.2867 -9.2665 -2.7943 0.2534 0 7
5.3703 -9.2183 -2.7943 0.2534 0 7
5.4535 -9.1693 -2.7943 0.2534 0 7
5.5363 -9.1196 -2.7943 0.2534 0 7
5.6186 -9.0691 -2.7943 0.2534 0 7
5.7004 -9.0179 -2.7943 0.2534 0 7
5.7818 -8.9659 -2.7943 0.2534 0 7
5.8627 -8.9132 -2.7943 0.2534 0 7
5.9431 -8.8598 -2.7943 0.2534 0 7
6.0230 -8.8056 -2.7943 0.2534 0 7
6.1025 -8.7508 -2.7943 0.2534 0 7
6.1814 -8.6952 -2.7943 0.2534 0 7
6.2599 -8.6389 -2.7943 0.2534 0 7
6.3378 -8.5819 -2.7943 0.2534 0 7
6.4152 -8.5242 -2.7943 0.2534 0 7
6.4921 -8.4658 -2.7943 0.2534 0 7
6.5684 -8.4067 -2.7943 0.2534 0 7
6.6442 -8.3469 -2.7943 0.2534 0 7
6.7195 -8.2864 -2.7943 0.2534 0 7
6.7942 -8.2253 -2.7943 0.2534 0 7
6.8684 -8.1635 -2.7943 0.2534 0 7
6.9420 -8.1010 -2.7943 0.2534 0 7
7.0150 -8.0378 -2.7943 0.2534 0 7
7.0874 -7.9740 -2.7943 0.2534 0 7
7.1593 -7.9095 -2.7943 0.2534 0 7
7.2306 -7.8444 -2.7943 0.2534 0 7
7.3013 -7.7787 -2.7943 0.2534 0 7
7.3714 -7.7123 -2.7943 0.2534 0 7
7.4409 -7.6452 -2.7943 0.2534 0 7
7.5098 -7.5776 -2.7943 0.2534 0 7
7.5780 -7.5093 -2.7943 0.2534 0 7
7.6457 -7.4404 -2.7943 0.2534 0 7
7.7127 -7.3709 -2.7943 0.2534 0 7
7.7791 -7.3008 -2.7943 0.2534 0 7
7.8448 -7.2301 -2.7943 0.2534 0 7
7.9100 -7.1588 -2.7943 0.2534 0 7
7.9744 -7.0870 -2.7943 0.2534 0 7
8.0382 -7.0145 -2.7943 0.2534 0 7
8.1014 -6.9415 -2.7943 0.2534 0 7
8.1639 -6.8679 -2.7943 0.2534 0 7
8.2257 -6.7937 -2.7943 0.2534 0 7
8.2868 -6.7190 -2.7943 0.2534 0 7
8.3473 -6.6437 -2.7943 0.2534 0 7
8.4071 -6.5679 -2.7943 0.2534 0 7
8.4662 -6.4916 -2.7943 0.2534 0 7
8.5246 -6.4147 -2.7943 0.2534 0 7
8.5823 -6.3373 -2.7943 0.2534 0 7
8.6393 -6.2593 -2.7943 0.2534 0 7
8.6956 -6.1809 -2.7943 0.2534 0 7
8.7511 -6.1020 -2.7943 0.2534 0 7
8.8060 -6.0225 -2.7943 0.2534 0 7
6.1782 -4.1438 -1.9485 0.3615 0 19
6.1631 -4.0533 -1.9321 0.8964 0 19
6.1992 -3.9971 -1.9320 0.8876 0 19
6.2850 -3.9724 -1.9475 0.3545 0 19
6.5111 -4.0333 -2.0061 0.6629 0 19
6.6112 -4.0129 -2.0257 0.6565 0 19
9.1696 -5.4530 -2.7943 0.2534 0 7
9.2186 -5.3697 -2.7943 0.2534 0 7
9.2668 -5.2861 -2.7943 0.2534 0 7
7.0322 -3.9275 -2.1097 0.6303 0 19
7.1430 -3.9050 -2.1322 0.6237 0 19
7.2562 -3.8820 -2.1555 0.6169 0 19
9.4520 -4.9472 -2.7943 0.2534 0 7
7.5692 -3.8749 -2.2273 0.4643 0 19
7.5451 -3.7768 -2.2100 0.9329 0 19
7.5877 -3.7126 -2.2125 0.8363 0 19
9.6249 -4.6019 -2.7943 0.2534 0 7
9.6662 -4.5146 -2.7943 0.2534 0 7
9.7066 -4.4270 -2.7943 0.2534 0 7
9.7463 -4.3389 -2.7943 0.2534 0 7
9.7851 -4.2506 -2.7943 0.2534 0 7
9.8232 -4.1618 -2.7943 0.2534 0 6
9.8605 -4.0728 -2.7943 0.2534 0 7
8.9605 -3.6065 -2.5299 0.5391 0 19
8.9273 -3.4996 -2.5115 0.9522 0 19
8.5658 -3.2687 -2.4014 0.5356 0 9
8.5523 -3.1752 -2.3895 0.8104 0 9
8.5307 -3.0797 -2.3755 0.8151 0 9
8.5094 -2.9852 -2.3620 0.8198 0 9
8.4883 -2.8918 -2.3488 0.8244 0 9
8.4674 -2.7994 -2.3359 0.8289 0 9
8.4468 -2.7080 -2.3233 0.8334 0 9
8.4129 -2.6135 -2.3074 0.8378 0 9
8.4061 -2.5282 -2.2992 0.8422 0 9
8.3861 -2.4396 -2.2876 0.8465 0 9
8.3663 -2.3519 -2.2763 0.8507 0 9
8.3467 -2.2651 -2.2653 0.8548 0 9
8.3272 -2.1791 -2.2545 0.8589 0 9
8.3080 -2.0939 -2.2441 0.8628 0 9
8.2889 -2.0095 -2.2340 0.8668 0 9
8.2700 -1.9259 -2.2241 0.8706 0 9
8.2513 -1.8430 -2.2145 0.8744 0 9
8.3175 -1.7789 -2.2278 0.4059 0 9
6.8822 -1.4069 -1.8399 0.6753 0 19
6.8565 -1.3371 -1.8297 0.9674 0 19
6.8688 -1.2751 -1.8298 0.9673 0 19
6.9417 -1.2238 -1.8462 0.6694 0 19
9.3101 -1.5546 -2.4723 0.3657 0 9
9.5288 -1.5026 -2.5266 0.2534 0 9
9.6042 -1.4255 -2.5431 0.3495 0 9
7.9825 -1.1111 -2.1110 0.5851 0 19
8.2345 -1.0703 -2.1749 0.9652 0 19
8.2491 -0.9964 -2.1763 0.9646 0 19
10.0533 -1.1221 -2.6495 0.2534 0 14
10.0630 -1.0310 -2.6495 0.2534 0 14
10.0720 -0.9399 -2.6495 0.2534 0 14
10.0800 -0.8487 -2.6495 0.2534 0 14
9.6415 -0.7240 -2.5325 0.7603 0 19
9.6406 -0.6363 -2.5306 0.9595 0 19
10.0994 -0.5748 -2.6495 0.2534 0 14
10.1042 -0.4834 -2.6495 0.2534 0 14
10.1081 -0.3919 -2.6495 0.2534 0 14
10.1113 -0.3004 -2.6495 0.2534 0 14
10.1136 -0.2089 -2.6495 0.2534 0 14
10.1150 -0.1174 -2.6495 0.2534 0 8
10.2003 -0.0260 -2.6717 0.2391 0 8
10.5731 0.0687 -2.7694 0.2307 0 8
10.6672 0.1659 -2.7943 0.2534 0 7
10.6653 0.2624 -2.7943 0.2534 0 7
10.6624 0.3589 -2.7943 0.2534 0 7
10.6587 0.4554 -2.7943 0.2534 0 7
10.6542 0.5518 -2.7943 0.2534 0 7
10.6487 0.6482 -2.7943 0.2534 0 6
10.6424 0.7446 -2.7943 0.2534 0 6
10.6353 0.8408 -2.7943 0.2534 0 6
10.6272 0.9371 -2.7943 0.2534 0 6
10.6183 1.0332 -2.7943 0.2534 0 6
10.6085 1.1292 -2.7943 0.2534 0 7
10.5979 1.2252 -2.7943 0.2534 0 7
10.5864 1.3211 -2.7943 0.2534 0 7
10.5740 1.4168 -2.7943 0.2534 0 7
10.5607 1.5125 -2.7943 0.2534 0 7
10.5466 1.6080 -2.7943 0.2534 0 7
10.5316 1.7033 -2.7943 0.2534 0 6
10.5158 1.7986 -2.7943 0.2534 0 6
10.4991 1.8937 -2.7943 0.2534 0 6
10.4815 1.9886 -2.7943 0.2534 0 6
10.4631 2.0834 -2.7943 0.2534 0 6
10.4438 2.1780 -2.7943 0.2534 0 7
10.4236 2.2724 -2.7943 0.2534 0 7
10.4027 2.3666 -2.7943 0.2534 0 7
10.3808 2.4607 -2.7943 0.2534 0 7
10.3581 2.5545 -2.7943 0.2534 0 7
10.3346 2.6482 -2.7943 0.2534 0 6
10.3102 2.7416 -2.7943 0.2534 0 6
10.2849 2.8348 -2.7943 0.2534 0 6
10.2589 2.9277 -2.7943 0.2534 0 6
10.2320 3.0205 -2.7943 0.2534 0 6
10.2042 3.1129 -2.7943 0.2534 0 7
10.1756 3.2051 -2.7943 0.2534 0 7
10.1462 3.2971 -2.7943 0.2534 0 7
10.1159 3.3888 -2.7943 0.2534 0 7
10.0849 3.4802 -2.7943 0.2534 0 7
10.0530 3.5713 -2.7943 0.2534 0 7
10.0202 3.6622 -2.7943 0.2534 0 6
9.9867 3.7527 -2.7943 0.2534 0 6
9.9523 3.8429 -2.7943 0.2534 0 6
9.9171 3.9328 -2.7943 0.2534 0 6
9.8811 4.0224 -2.7943 0.2534 0 6
9.8443 4.1117 -2.7943 0.2534 0 7
9.8067 4.2006 -2.7943 0.2534 0 7
9.7683 4.2892 -2.7943 0.2534 0 7
9.7291 4.3774 -2.7943 0.2534 0 7
9.6890 4.4652 -2.7943 0.2534 0 7
9.6483 4.5528 -2.7943 0.2534 0 7
9.6067 4.6399 -2.7943 0.2534 0 6
9.5643 4.7266 -2.7943 0.2534 0 6
9.5211 4.8130 -2.7943 0.2534 0 6
9.4772 4.8990 -2.7943 0.2534 0 6
9.4324 4.9845 -2.7943 0.2534 0 6
9.3869 5.0697 -2.7943 0.2534 0 6
9.3407 5.1544 -2.7943 0.2534 0 6
9.2937 5.2387 -2.7943 0.2534 0 6
9.2459 5.3226 -2.7943 0.2534 0 6
9.1973 5.4061 -2.7943 0.2534 0 6
9.1480 5.4891 -2.7943 0.2534 0 6
9.0980 5.5717 -2.7943 0.2534 0 6
9.0472 5.6538 -2.7943 0.2534 0 6
8.9956 5.7354 -2.7943 0.2534 0 6
8.9434 5.8166 -2.7943 0.2534 0 7
8.8904 5.8973 -2.7943 0.2534 0 7
8.8366 5.9775 -2.7943 0.2534 0 7
8.7822 6.0572 -2.7943 0.2534 0 7
8.7270 6.1365 -2.7943 0.2534 0 7
8.6711 6.2152 -2.7943 0.2534 0 7
8.6145 6.2934 -2.7943 0.2534 0 7
8.5572 6.3711 -2.7943 0.2534 0 7
8.4992 6.4483 -2.7943 0.2534 0 7
8.4405 6.5249 -2.7943 0.2534 0 7
8.3811 6.6010 -2.7943 0.2534 0 7
8.3210 6.6766 -2.7943 0.2534 0 7
8.2602 6.7517 -2.7943 0.2534 0 7
8.1988 6.8261 -2.7943 0.2534 0 7
8.1367 6.9000 -2.7943 0.2534 0 7
8.0739 6.9734 -2.7943 0.2534 0 7
8.0105 7.0462 -2.7943 0.2534 0 7
7.9464 7.1184 -2.7943 0.2534 0 7
7.8816 7.1900 -2.7943 0.2534 0 7
7.8162 7.2610 -2.7943 0.2534 0 7
7.7502 7.3315 -2.7943 0.2534 0 7
7.6835 7.4013 -2.7943 0.2534 0 7
7.6162 7.4705 -2.7943 0.2534 0 7
7.5483 7.5392 -2.7943 0.2534 0 7
7.4798 7.6072 -2.7943 0.2534 0 7
7.4106 7.6746 -2.7943 0.2534 0 7
7.3409 7.7413 -2.7943 0.2534 0 7
7.2705 7.8074 -2.7943 0.2534 0 7
7.1996 7.8729 -2.7943 0.2534 0 7
7.1280 7.9377 -2.7943 0.2534 0 7
7.0559 8.0019 -2.7943 0.2534 0 7
6.9832 8.0654 -2.7943 0.2534 0 7
6.9099 8.1283 -2.7943 0.2534 0 7
6.8361 8.1905 -2.7943 0.2534 0 7
6.7617 8.2520 -2.7943 0.2534 0 7
6.6867 8.3129 -2.7943 0.2534 0 7
6.6112 8.3731 -2.7943 0.2534 0 7
6.5352 8.4325 -2.7943 0.2534 0 7
6.4586 8.4913 -2.7943 0.2534 0 7
6.3815 8.5494 -2.7943 0.2534 0 7
6.3039 8.6068 -2.7943 0.2534 0 7
6.2257 8.6635 -2.7943 0.2534 0 7
6.1471 8.7195 -2.7943 0.2534 0 7
6.0679 8.7748 -2.7943 0.2534 0 7
5.9882 8.8294 -2.7943 0.2534 0 7
5.9081 8.8832 -2.7943 0.2534 0 7
5.8275 8.9363 -2.7943 0.2534 0 7
5.7463 8.9887 -2.7943 0.2534 0 7
5.6648 9.0403 -2.7943 0.2534 0 7
5.5827 9.0912 -2.7943 0.2534 0 7
5.5002 9.1413 -2.7943 0.2534 0 7
5.4173 9.1907 -2.7943 0.2534 0 7
5.3329 9.2378 -2.7938 0.2656 0 8
5.2472 9.2822 -2.7928 0.2657 0 8
5.1611 9.3260 -2.7918 0.2658 0 8
5.0746 9.3689 -2.7908 0.2659 0 8
4.9879 9.4111 -2.7898 0.2660 0 8
4.9008 9.4525 -2.7888 0.2661 0 8
4.8133 9.4931 -2.7878 0.2662 0 8
4.7256 9.5330 -2.7869 0.2663 0 8
4.6139 9.5232 -2.7717 0.8017 0 8
4.4983 9.5030 -2.7538 0.8069 0 8
4.3842 9.4829 -2.7364 0.8120 0 8
4.2716 9.4631 -2.7194 0.8171 0 8
4.1602 9.4435 -2.7028 0.8221 0 8
4.0502 9.4240 -2.6867 0.8270 0 8
3.9415 9.4048 -2.6709 0.8319 0 8
3.8340 9.3857 -2.6555 0.8367 0 8
3.7302 9.3730 -2.6423 0.7511 0 8
3.6448 9.4051 -2.6419 0.2534 0 8
3.5595 9.4377 -2.6419 0.2534 0 8
3.4739 9.4695 -2.6419 0.2534 0 8
3.3881 9.5006 -2.6419 0.2534 0 8
3.3020 9.5308 -2.6419 0.2534 0 8
3.2156 9.5603 -2.6419 0.2534 0 8
3.1289 9.5890 -2.6419 0.2534 0 8
3.0420 9.6170 -2.6419 0.2534 0 8
2.8837 9.4119 -2.5783 0.8606 0 5
2.7851 9.3925 -2.5660 0.8648 0 5
2.6873 9.3733 -2.5540 0.8688 0 5
2.6340 9.5112 -2.5850 0.4477 0 5
2.6039 9.7447 -2.6419 0.2534 0 8
2.5156 9.7679 -2.6419 0.2534 0 8
2.4271 9.7903 -2.6419 0.2534 0 8
2.3384 9.8118 -2.6419 0.2534 0 8
2.2495 9.8326 -2.6419 0.2534 0 8
2.1604 9.8525 -2.6419 0.2534 0 8
2.0712 9.8717 -2.6419 0.2534 0 8
1.9818 9.8900 -2.6419 0.2534 0 8
1.8922 9.9076 -2.6419 0.2534 0 8
1.8024 9.9243 -2.6419 0.2534 0 8
1.7126 9.9402 -2.6419 0.2534 0 8
1.6225 9.9553 -2.6419 0.2534 0 8
1.5324 9.9696 -2.6419 0.2534 0 8
1.4421 9.9830 -2.6419 0.2534 0 8
1.3517 9.9957 -2.6419 0.2534 0 8
1.2612 10.0075 -2.6419 0.2534 0 8
1.1706 10.0185 -2.6419 0.2534 0 8
1.0798 10.0287 -2.6419 0.2534 0 8
0.9891 10.0380 -2.6419 0.2534 0 8
0.8982 10.0466 -2.6419 0.2534 0 8
0.8072 10.0543 -2.6419 0.2534 0 8
0.7162 10.0612 -2.6419 0.2534 0 8
0.6251 10.0672 -2.6419 0.2534 0 8
0.5340 10.0725 -2.6419 0.2534 0 8
0.4428 10.0769 -2.6419 0.2534 0 8
0.3516 10.0805 -2.6419 0.2534 0 8
0.2603 10.0833 -2.6419 0.2534 0 8
0.1691 10.0852 -2.6419 0.2534 0 8
0.0778 10.0863 -2.6419 0.2534 0 8
-0.0135 10.0866 -2.6419 0.2534 0 8
-0.1048 10.0861 -2.6419 0.2534 0 8
-0.1960 10.0847 -2.6419 0.2534 0 8
-0.2873 10.0825 -2.6419 0.2534 0 8
-0.3785 10.0795 -2.6419 0.2534 0 8
-0.4697 10.0757 -2.6419 0.2534 0 8
-0.5609 10.0710 -2.6419 0.2534 0 8
-0.6520 10.0655 -2.6419 0.2534 0 8
-0.7431 10.0592 -2.6419 0.2534 0 8
-0.8341 10.0521 -2.6419 0.2534 0 8
-0.9250 10.0441 -2.6419 0.2534 0 8
-1.0159 10.0353 -2.6419 0.2534 0 8
-1.1066 10.0257 -2.6419 0.2534 0 8
-1.1973 10.0153 -2.6419 0.2534 0 8
-1.2879 10.0041 -2.6419 0.2534 0 8
-1.3784 9.9920 -2.6419 0.2534 0 8
-1.4688 9.9791 -2.6419 0.2534 0 8
-1.5590 9.9654 -2.6419 0.2534 0 8
-1.6491 9.9509 -2.6419 0.2534 0 8
-1.7391 9.9356 -2.6419 0.2534 0 8
-1.8290 9.9194 -2.6419 0.2534 0 8
-1.9187 9.9025 -2.6419 0.2534 0 8
-2.0082 9.8847 -2.6419 0.2534 0 8
-2.0976 9.8661 -2.6419 0.2534 0 8
-2.1868 9.8467 -2.6419 0.2534 0 8
-2.2758 9.8265 -2.6419 0.2534 0 8
-2.3646 9.8055 -2.6419 0.2534 0 8
-2.4533 9.7837 -2.6419 0.2534 0 8
-2.5417 9.7611 -2.6419 0.2534 0 8
-2.6299 9.7377 -2.6419 0.2534 0 8
-2.7179 9.7135 -2.6419 0.2534 0 8
-2.8057 9.6885 -2.6419 0.2534 0 8
-2.8933 9.6628 -2.6419 0.2534 0 8
-2.9806 9.6362 -2.6419 0.2534 0 8
-3.0677 9.6088 -2.6419 0.2534 0 8
-3.1545 9.5807 -2.6419 0.2534 0 8
-3.2411 9.5517 -2.6419 0.2534 0 8
-3.3274 9.5220 -2.6419 0.2534 0 8
-3.4135 9.4915 -2.6419 0.2534 0 8
-3.4992 9.4602 -2.6419 0.2534 0 8
-3.5847 9.4282 -2.6419 0.2534 0 8
-3.6699 9.3953 -2.6419 0.2534 0 8
-3.7548 9.3617 -2.6419 0.2534 0 8
-3.8393 9.3274 -2.6419 0.2534 0 8
-3.9236 9.2922 -2.6419 0.2534 0 8
-4.0075 9.2564 -2.6419 0.2534 0 8
-4.0911 9.2197 -2.6419 0.2534 0 8
-4.1744 9.1823 -2.6419 0.2534 0 8
-4.2573 9.1442 -2.6419 0.2534 0 8
-4.3399 9.1052 -2.6419 0.2534 0 8
-4.4221 9.0656 -2.6419 0.2534 0 8
-4.5040 9.0252 -2.6419 0.2534 0 8
-4.5855 8.9841 -2.6419 0.2534 0 8
-4.6666 8.9422 -2.6419 0.2534 0 8
-4.7473 8.8996 -2.6419 0.2534 0 8
-4.8277 8.8563 -2.6419 0.2534 0 8
-4.9076 8.8122 -2.6419 0.2534 0 8
-4.9872 8.7675 -2.6419 0.2534 0 8
-5.0663 8.7220 -2.6419 0.2534 0 8
-5.1450 8.6758 -2.6419 0.2534 0 8
-5.0952 8.4172 -2.5771 0.3275 0 19
-5.0694 8.2061 -2.5264 0.4902 0 19
-5.1494 8.1692 -2.5293 0.6210 0 19
-5.2379 8.1453 -2.5365 0.9352 0 19
-5.3292 8.1247 -2.5450 0.8978 0 19
-5.4224 8.1059 -2.5544 0.8945 0 19
-5.5163 8.0870 -2.5640 0.8911 0 19
-5.6110 8.0679 -2.5740 0.8877 0 19
-5.7064 8.0487 -2.5842 0.8842 0 19
-5.8025 8.0293 -2.5947 0.8806 0 19
-5.9818 8.1215 -2.6419 0.2534 0 8
-6.0307 8.0346 -2.6313 0.3599 0 19
-6.0779 7.9466 -2.6204 0.8694 0 19
-6.1773 7.9269 -2.6322 0.8008 0 19
-6.2718 7.8997 -2.6419 0.2534 0 8
-6.3430 7.8426 -2.6419 0.2534 0 8
-6.4137 7.7849 -2.6419 0.2534 0 8
-6.4839 7.7265 -2.6419 0.2534 0 8
-6.5536 7.6675 -2.6419 0.2534 0 8
-6.6227 7.6079 -2.6419 0.2534 0 8
-6.6913 7.5476 -2.6419 0.2534 0 8
-6.7593 7.4868 -2.6419 0.2534 0 8
-6.8268 7.4253 -2.6419 0.2534 0 8
-6.8937 7.3632 -2.6419 0.2534 0 8
-6.9601 7.3005 -2.6419 0.2534 0 8
-7.0258 7.2372 -2.6419 0.2534 0 8
-7.0910 7.1734 -2.6419 0.2534 0 8
-7.1805 7.1336 -2.6511 0.8382 0 8
-7.2865 7.1090 -2.6664 0.8334 0 8
-7.3937 7.0841 -2.6820 0.8285 0 8
-7.5021 7.0589 -2.6981 0.8236 0 8
-7.6118 7.0333 -2.7145 0.8186 0 8
-7.7229 7.0074 -2.7314 0.8135 0 8
-7.8352 6.9812 -2.7487 0.8084 0 8
-7.9490 6.9546 -2.7664 0.8032 0 8
-8.0643 6.9276 -2.7846 0.7980 0 8
-8.1353 6.8616 -2.7876 0.2662 0 8
-8.1999 6.7901 -2.7885 0.2661 0 8
-8.2640 6.7180 -2.7895 0.2660 0 8
-8.3274 6.6452 -2.7905 0.2659 0 8
-8.3902 6.5720 -2.7915 0.2658 0 8
-8.4524 6.4981 -2.7925 0.2657 0 8
-8.5140 6.4237 -2.7935 0.2656 0 8
-8.5742 6.3482 -2.7943 0.2534 0 7
-8.6313 6.2704 -2.7943 0.2534 0 7
-8.6877 6.1920 -2.7943 0.2534 0 7
-8.7434 6.1131 -2.7943 0.2534 0 7
-8.7983 6.0338 -2.7943 0.2534 0 7
-8.8526 5.9539 -2.7943 0.2534 0 7
-8.9061 5.8735 -2.7943 0.2534 0 7
-8.9589 5.7927 -2.7943 0.2534 0 7
-9.0109 5.7114 -2.7943 0.2534 0 7
-9.0622 5.6296 -2.7943 0.2534 0 7
-9.1128 5.5473 -2.7943 0.2534 0 7
-9.1626 5.4647 -2.7943 0.2534 0 7
-9.2117 5.3815 -2.7943 0.2534 0 7
-9.2600 5.2979 -2.7943 0.2534 0 7
-9.3076 5.2139 -2.7943 0.2534 0 7
-9.3544 5.1295 -2.7943 0.2534 0 7
-9.4005 5.0446 -2.7943 0.2534 0 7
-9.4457 4.9593 -2.7943 0.2534 0 7
9.7657 -0.0000 -2.7943 0.2751 0 7
9.7653 0.0884 -2.7943 0.2751 0 7
9.7641 0.1767 -2.7943 0.2751 0 7
9.7621 0.2651 -2.7943 0.2751 0 7
9.7593 0.3534 -2.7943 0.2751 0 7
9.7557 0.4417 -2.7943 0.2751 0 6
9.7513 0.5300 -2.7943 0.2751 0 7
9.7461 0.6182 -2.7943 0.2751 0 7
9.7401 0.7064 -2.7943 0.2751 0 7
9.7333 0.7945 -2.7943 0.2751 0 7
9.7258 0.8826 -2.7943 0.2751 0 7
9.7174 0.9706 -2.7943 0.2751 0 7
9.7082 1.0585 -2.7943 0.2751 0 7
9.6982 1.1463 -2.7943 0.2751 0 7
9.6874 1.2340 -2.7943 0.2751 0 7
9.6759 1.3216 -2.7943 0.2751 0 7
9.6635 1.4091 -2.7943 0.2751 0 7
9.6504 1.4965 -2.7943 0.2751 0 7
9.6364 1.5838 -2.7943 0.2751 0 7
9.6217 1.6709 -2.7943 0.2751 0 7
9.6062 1.7579 -2.7943 0.2751 0 7
9.5899 1.8448 -2.7943 0.2751 0 7
9.5728 1.9315 -2.7943 0.2751 0 7
9.5549 2.0181 -2.7943 0.2751 0 7
9.5363 2.1044 -2.7943 0.2751 0 7
9.5168 2.1907 -2.7943 0.2751 0 7
9.4966 2.2767 -2.7943 0.2751 0 7
9.4756 2.3626 -2.7943 0.2751 0 7
9.4539 2.4482 -2.7943 0.2751 0 7
9.4313 2.5337 -2.7943 0.2751 0 7
9.4080 2.6189 -2.7943 0.2751 0 7
9.3839 2.7040 -2.7943 0.2751 0 7
9.3591 2.7888 -2.7943 0.2751 0 7
9.3334 2.8733 -2.7943 0.2751 0 7
9.3071 2.9577 -2.7943 0.2751 0 7
9.2799 3.0418 -2.7943 0.2751 0 7
9.2520 3.1257 -2.7943 0.2751 0 7
9.2233 3.2093 -2.7943 0.2751 0 7
9.1939 3.2926 -2.7943 0.2751 0 7
9.1638 3.3757 -2.7943 0.2751 0 7
9.1328 3.4585 -2.7943 0.2751 0 7
9.1012 3.5410 -2.7943 0.2751 0 7
9.0687 3.6232 -2.7943 0.2751 0 7
9.0356 3.7051 -2.7943 0.2751 0 7
9.0017 3.7867 -2.7943 0.2751 0 7
8.9670 3.8680 -2.7943 0.2751 0 7
8.9317 3.9490 -2.7943 0.2751 0 7
8.8956 4.0297 -2.7943 0.2751 0 7
8.8587 4.1100 -2.7943 0.2751 0 7
8.8212 4.1900 -2.7943 0.2751 0 7
8.7829 4.2697 -2.7943 0.2751 0 7
8.7439 4.3490 -2.7943 0.2751 0 7
8.7042 4.4279 -2.7943 0.2751 0 7
8.6637 4.5065 -2.7943 0.2751 0 7
8.6226 4.5848 -2.7943 0.2751 0 7
8.5808 4.6626 -2.7943 0.2751 0 7
8.5382 4.7401 -2.7943 0.2751 0 7
8.4950 4.8171 -2.7943 0.2751 0 7
8.4510 4.8938 -2.7943 0.2751 0 7
8.4064 4.9701 -2.7943 0.2751 0 7
8.3611 5.0460 -2.7943 0.2751 0 7
8.3151 5.1214 -2.7943 0.2751 0 7
8.2684 5.1965 -2.7943 0.2751 0 7
8.2210 5.2711 -2.7943 0.2751 0 7
8.1730 5.3453 -2.7943 0.2751 0 7
8.1243 5.4190 -2.7943 0.2751 0 7
8.0749 5.4923 -2.7943 0.2751 0 7
8.0249 5.5652 -2.7943 0.2751 0 7
7.9742 5.6376 -2.7943 0.2751 0 7
7.9228 5.7095 -2.7943 0.2751 0 7
7.8708 5.7810 -2.7943 0.2751 0 7
7.8182 5.8519 -2.7943 0.2751 0 7
7.7649 5.9225 -2.7943 0.2751 0 7
7.7110 5.9925 -2.7943 0.2751 0 7
7.6564 6.0620 -2.7943 0.2751 0 7
7.6013 6.1311 -2.7943 0.2751 0 6
7.5455 6.1996 -2.7943 0.2751 0 6
7.4891 6.2676 -2.7943 0.2751 0 6
7.4320 6.3352 -2.7943 0.2751 0 6
7.3744 6.4022 -2.7943 0.2751 0 6
7.3162 6.4686 -2.7943 0.2751 0 6
7.2573 6.5346 -2.7943 0.2751 0 6
7.1979 6.6000 -2.7943 0.2751 0 6
7.1379 6.6649 -2.7943 0.2751 0 7
7.0773 6.7292 -2.7943 0.2751 0 7
7.0161 6.7930 -2.7943 0.2751 0 7
6.9543 6.8562 -2.7943 0.2751 0 7
6.8920 6.9188 -2.7943 0.2751 0 6
6.8291 6.9809 -2.7943 0.2751 0 6
6.7656 7.0424 -2.7943 0.2751 0 7
6.7016 7.1034 -2.7943 0.2751 0 7
6.6371 7.1637 -2.7943 0.2751 0 7
6.5720 7.2235 -2.7943 0.2751 0 7
6.5063 7.2827 -2.7943 0.2751 0 7
6.4402 7.3413 -2.7943 0.2751 0 7
6.3734 7.3992 -2.7943 0.2751 0 7
6.3062 7.4566 -2.7943 0.2751 0 7
6.2385 7.5134 -2.7943 0.2751 0 7
6.1702 7.5695 -2.7943 0.2751 0 7
6.1015 7.6251 -2.7943 0.2751 0 7
6.0322 7.6800 -2.7943 0.2751 0 7
5.9625 7.7342 -2.7943 0.2751 0 7
5.8922 7.7879 -2.7943 0.2751 0 7
5.8215 7.8409 -2.7943 0.2751 0 7
5.7503 7.8933 -2.7943 0.2751 0 7
5.6786 7.9450 -2.7943 0.2751 0 7
5.6065 7.9960 -2.7943 0.2751 0 7
5.5339 8.0464 -2.7943 0.2751 0 7
5.4609 8.0962 -2.7943 0.2751 0 7
5.3874 8.1453 -2.7943 0.2751 0 7
5.3135 8.1937 -2.7943 0.2751 0 7
5.2391 8.2415 -2.7943 0.2751 0 7
5.1643 8.2885 -2.7943 0.2751 0 7
5.0891 8.3349 -2.7943 0.2751 0 7
5.0134 8.3806 -2.7943 0.2751 0 7
4.9374 8.4257 -2.7943 0.2751 0 7
4.8609 8.4700 -2.7943 0.2751 0 7
4.7841 8.5136 -2.7943 0.2751 0 7
4.7068 8.5566 -2.7943 0.2751 0 7
4.6292 8.5988 -2.7943 0.2751 0 7
4.5512 8.6404 -2.7943 0.2751 0 7
4.4728 8.6812 -2.7943 0.2751 0 7
4.3941 8.7213 -2.7943 0.2751 0 7
4.3150 8.7607 -2.7943 0.2751 0 7
4.2355 8.7994 -2.7943 0.2751 0 7
4.1557 8.8374 -2.7943 0.2751 0 7
4.0756 8.8746 -2.7943 0.2751 0 7
3.9951 8.9112 -2.7943 0.2751 0 7
3.9136 8.9455 -2.7939 0.2884 0 8
3.8314 8.9779 -2.7931 0.2885 0 8
3.7489 9.0096 -2.7923 0.2885 0 8
3.6662 9.0406 -2.7915 0.2886 0 8
3.5832 9.0709 -2.7907 0.2887 0 8
3.5000 9.1004 -2.7899 0.2888 0 8
3.4166 9.1292 -2.7891 0.2889 0 8
3.3329 9.1573 -2.7884 0.2889 0 8
3.2490 9.1846 -2.7876 0.2890 0 8
3.1650 9.2113 -2.7869 0.2891 0 8
3.0705 9.2065 -2.7770 0.8688 0 8
2.9725 9.1891 -2.7635 0.8730 0 8
2.8755 9.1717 -2.7503 0.8772 0 8
2.7793 9.1545 -2.7375 0.8813 0 8
2.6841 9.1373 -2.7250 0.8853 0 8
2.5896 9.1203 -2.7128 0.8893 0 8
2.4960 9.1034 -2.7010 0.8932 0 8
2.4032 9.0866 -2.6894 0.8970 0 8
2.3112 9.0699 -2.6782 0.9008 0 8
2.2199 9.0533 -2.6672 0.9045 0 8
2.1294 9.0368 -2.6566 0.9081 0 8
2.0400 9.0226 -2.6469 0.8141 0 8
1.9546 9.0239 -2.6419 0.2751 0 8
1.8729 9.0412 -2.6419 0.2751 0 8
1.7910 9.0578 -2.6419 0.2751 0 8
1.7089 9.0736 -2.6419 0.2751 0 8
1.6282 9.0966 -2.6442 0.8262 0 8
1.5444 9.1030 -2.6419 0.2751 0 8
1.4620 9.1166 -2.6419 0.2751 0 8
1.3794 9.1295 -2.6419 0.2751 0 8
1.2967 9.1416 -2.6419 0.2751 0 8
1.2140 9.1530 -2.6419 0.2751 0 8
1.1311 9.1636 -2.6419 0.2751 0 8
1.0481 9.1734 -2.6419 0.2751 0 8
0.9650 9.1825 -2.6419 0.2751 0 8
0.8819 9.1909 -2.6419 0.2751 0 8
0.7987 9.1985 -2.6419 0.2751 0 8
0.7154 9.2054 -2.6419 0.2751 0 8
0.6321 9.2115 -2.6419 0.2751 0 8
0.5487 9.2168 -2.6419 0.2751 0 8
0.4653 9.2214 -2.6419 0.2751 0 8
0.3818 9.2252 -2.6419 0.2751 0 8
0.2983 9.2283 -2.6419 0.2751 0 8
0.2148 9.2306 -2.6419 0.2751 0 8
0.1312 9.2322 -2.6419 0.2751 0 8
0.0477 9.2330 -2.6419 0.2751 0 8
-0.0359 9.2331 -2.6419 0.2751 0 8
-0.1194 9.2324 -2.6419 0.2751 0 8
-0.2030 9.2309 -2.6419 0.2751 0 8
-0.2865 9.2287 -2.6419 0.2751 0 8
-0.3700 9.2257 -2.6419 0.2751 0 8
-0.4535 9.2220 -2.6419 0.2751 0 8
-0.5369 9.2175 -2.6419 0.2751 0 8
-0.6203 9.2123 -2.6419 0.2751 0 8
-0.7037 9.2063 -2.6419 0.2751 0 8
-0.7870 9.1995 -2.6419 0.2751 0 8
-0.8702 9.1920 -2.6419 0.2751 0 8
-0.9533 9.1838 -2.6419 0.2751 0 8
-1.0364 9.1748 -2.6419 0.2751 0 8
-1.1194 9.1650 -2.6419 0.2751 0 8
-1.2023 9.1545 -2.6419 0.2751 0 8
-1.2851 9.1433 -2.6419 0.2751 0 8
-1.3678 9.1312 -2.6419 0.2751 0 8
-1.4504 9.1185 -2.6419 0.2751 0 8
-1.5328 9.1050 -2.6419 0.2751 0 8
-1.6152 9.0908 -2.6419 0.2751 0 8
-1.6974 9.0758 -2.6419 0.2751 0 8
-1.7794 9.0600 -2.6419 0.2751 0 8
-1.8613 9.0436 -2.6419 0.2751 0 8
-1.9431 9.0263 -2.6419 0.2751 0 8
-2.0247 9.0084 -2.6419 0.2751 0 8
-2.1062 8.9897 -2.6419 0.2751 0 8
-2.1874 8.9703 -2.6419 0.2751 0 8
-2.2685 8.9501 -2.6419 0.2751 0 8
-2.3494 8.9292 -2.6419 0.2751 0 8
-2.4301 8.9076 -2.6419 0.2751 0 8
-2.5106 8.8852 -2.6419 0.2751 0 8
-2.5909 8.8621 -2.6419 0.2751 0 8
-2.6710 8.8383 -2.6419 0.2751 0 8
-2.7509 8.8138 -2.6419 0.2751 0 8
-2.8306 8.7885 -2.6419 0.2751 0 8
-2.9100 8.7626 -2.6419 0.2751 0 8
-2.9892 8.7359 -2.6419 0.2751 0 8
-3.0681 8.7085 -2.6419 0.2751 0 8
-3.1468 8.6803 -2.6419 0.2751 0 8
-3.2252 8.6515 -2.6419 0.2751 0 8
-3.3034 8.6220 -2.6419 0.2751 0 8
-3.3813 8.5917 -2.6419 0.2751 0 8
-3.4589 8.5608 -2.6419 0.2751 0 8
-3.5362 8.5291 -2.6419 0.2751 0 8
-3.6133 8.4968 -2.6419 0.2751 0 8
-3.6900 8.4637 -2.6419 0.2751 0 8
-3.7664 8.4300 -2.6419 0.2751 0 8
-3.8426 8.3955 -2.6419 0.2751 0 8
-3.9184 8.3604 -2.6419 0.2751 0 8
-3.9939 8.3246 -2.6419 0.2751 0 8
-4.0691 8.2881 -2.6419 0.2751 0 8
-4.1439 8.2510 -2.6419 0.2751 0 8
-4.2184 8.2131 -2.6419 0.2751 0 8
-4.2926 8.1746 -2.6419 0.2751 0 8
-4.3664 8.1354 -2.6419 0.2751 0 8
-4.4398 8.0956 -2.6419 0.2751 0 8
-4.5129 8.0551 -2.6419 0.2751 0 8
-4.5856 8.0139 -2.6419 0.2751 0 8
-4.6579 7.9721 -2.6419 0.2751 0 8
-4.7299 7.9296 -2.6419 0.2751 0 8
-4.8015 7.8865 -2.6419 0.2751 0 8
-4.8726 7.8427 -2.6419 0.2751 0 8
-4.9434 7.7983 -2.6419 0.2751 0 8
-5.0138 7.7532 -2.6419 0.2751 0 8
-5.0837 7.7075 -2.6419 0.2751 0 8
-5.1533 7.6612 -2.6419 0.2751 0 8
-5.2224 7.6143 -2.6419 0.2751 0 8
-5.2911 7.5667 -2.6419 0.2751 0 8
-5.3594 7.5185 -2.6419 0.2751 0 8
-5.4419 7.4899 -2.6491 0.8134 0 8
-5.5309 7.4694 -2.6594 0.9072 0 8
-5.6209 7.4490 -2.6701 0.9035 0 8
-5.7115 7.4283 -2.6812 0.8998 0 8
-5.8029 7.4075 -2.6925 0.8960 0 8
-5.8951 7.3864 -2.7041 0.8922 0 8
-5.9880 7.3652 -2.7161 0.8882 0 8
-6.0818 7.3437 -2.7283 0.8842 0 8
-6.1763 7.3220 -2.7409 0.8802 0 8
-6.2718 7.3000 -2.7538 0.8760 0 8
-6.3681 7.2778 -2.7671 0.8719 0 8
-6.4653 7.2554 -2.7807 0.8676 0 8
-6.5458 7.2132 -2.7871 0.2891 0 8
-6.6126 7.1555 -2.7878 0.2890 0 8
-6.6788 7.0973 -2.7886 0.2889 0 8
-6.7446 7.0385 -2.7893 0.2888 0 8
-6.8099 6.9791 -2.7901 0.2888 0 8
-6.8747 6.9191 -2.7909 0.2887 0 8
-6.9390 6.8585 -2.7917 0.2886 0 8
-7.0028 6.7974 -2.7925 0.2885 0 8
-7.0660 6.7357 -2.7933 0.2884 0 8
-7.1288 6.6734 -2.7941 0.2883 0 8
-7.1895 6.6092 -2.7943 0.2751 0 7
-7.2490 6.5438 -2.7943 0.2751 0 7
-7.3079 6.4780 -2.7943 0.2751 0 7
-7.3662 6.4116 -2.7943 0.2751 0 7
-7.4240 6.3446 -2.7943 0.2751 0 7
-7.4811 6.2772 -2.7943 0.2751 0 7
-7.5376 6.2092 -2.7943 0.2751 0 7
-7.5935 6.1408 -2.7943 0.2751 0 7
-7.6487 6.0718 -2.7943 0.2751 0 7
-7.7033 6.0023 -2.7943 0.2751 0 7
-7.7574 5.9324 -2.7943 0.2751 0 7
-7.8107 5.8619 -2.7943 0.2751 0 7
-7.8635 5.7910 -2.7943 0.2751 0 7
-7.9155 5.7196 -2.7943 0.2751 0 7
-7.9670 5.6477 -2.7943 0.2751 0 7
-8.0178 5.5754 -2.7943 0.2751 0 7
-8.0679 5.5026 -2.7943 0.2751 0 7
-8.1174 5.4294 -2.7943 0.2751 0 7
-8.1662 5.3557 -2.7943 0.2751 0 7
-8.2143 5.2816 -2.7943 0.2751 0 7
-8.2618 5.2070 -2.7943 0.2751 0 7
-8.3085 5.1320 -2.7943 0.2751 0 7
-8.3546 5.0566 -2.7943 0.2751 0 7
-8.4001 4.9808 -2.7943 0.2751 0 7
-8.4448 4.9046 -2.7943 0.2751 0 7
-8.4888 4.8280 -2.7943 0.2751 0 7
-8.5322 4.7510 -2.7943 0.2751 0 7
-8.5748 4.6735 -2.7943 0.2751 0 7
-8.6168 4.5958 -2.7943 0.2751 0 7
-8.6580 4.5176 -2.7943 0.2751 0 7
-8.6985 4.4391 -2.7943 0.2751 0 7
-8.7383 4.3602 -2.7943 0.2751 0 7
-8.7774 4.2809 -2.7943 0.2751 0 7
-8.8158 4.2013 -2.7943 0.2751 0 7
-8.8535 4.1213 -2.7943 0.2751 0 7
-8.8904 4.0410 -2.7943 0.2751 0 7
-8.9266 3.9604 -2.7943 0.2751 0 7
-8.9621 3.8795 -2.7943 0.2751 0 7
-8.9968 3.7982 -2.7943 0.2751 0 7
-9.0308 3.7166 -2.7943 0.2751 0 6
-9.0641 3.6348 -2.7943 0.2751 0 7
-9.0966 3.5526 -2.7943 0.2751 0 7
-9.1284 3.4701 -2.7943 0.2751 0 7
-9.1594 3.3874 -2.7943 0.2751 0 7
-9.1897 3.3043 -2.7943 0.2751 0 7
-9.2192 3.2210 -2.7943 0.2751 0 7
-9.2480 3.1375 -2.7943 0.2751 0 7
-9.2760 3.0536 -2.7943 0.2751 0 7
-9.3033 2.9696 -2.7943 0.2751 0 7
-9.3298 2.8853 -2.7943 0.2751 0 7
-9.3555 2.8007 -2.7943 0.2751 0 7
-9.3805 2.7159 -2.7943 0.2751 0 7
-9.4047 2.6309 -2.7943 0.2751 0 7
-9.4281 2.5457 -2.7943 0.2751 0 7
-9.4507 2.4603 -2.7943 0.2751 0 7
-9.4726 2.3746 -2.7943 0.2751 0 7
-9.4937 2.2888 -2.7943 0.2751 0 7
-9.5140 2.2028 -2.7943 0.2751 0 7
-9.5336 2.1166 -2.7943 0.2751 0 7
-9.5524 2.0303 -2.7943 0.2751 0 7
-9.5703 1.9437 -2.7943 0.2751 0 7
-9.5875 1.8570 -2.7943 0.2751 0 7
-9.6040 1.7702 -2.7943 0.2751 0 7
-9.6196 1.6832 -2.7943 0.2751 0 7
-9.6344 1.5961 -2.7943 0.2751 0 7
-9.6485 1.5088 -2.7943 0.2751 0 7
-9.6617 1.4215 -2.7943 0.2751 0 7
-9.6742 1.3340 -2.7943 0.2751 0 7
-9.6859 1.2464 -2.7943 0.2751 0 7
-9.6968 1.1587 -2.7943 0.2751 0 7
-9.7069 1.0709 -2.7943 0.2751 0 7
-9.7161 0.9830 -2.7943 0.2751 0 7
-9.7246 0.8950 -2.7943 0.2751 0 7
-9.7323 0.8070 -2.7943 0.2751 0 7
-9.7392 0.7189 -2.7943 0.2751 0 7
-9.7453 0.6307 -2.7943 0.2751 0 7
-9.7506 0.5425 -2.7943 0.2751 0 7
-9.7552 0.4542 -2.7943 0.2751 0 7
-9.7589 0.3659 -2.7943 0.2751 0 7
-9.7618 0.2776 -2.7943 0.2751 0 7
-9.7639 0.1892 -2.7943 0.2751 0 7
-9.7652 0.1008 -2.7943 0.2751 0 7
-9.7657 0.0125 -2.7943 0.2751 0 7
-9.7654 -0.0759 -2.7943 0.2751 0 7
-9.7644 -0.1643 -2.7943 0.2751 0 7
-9.7625 -0.2526 -2.7943 0.2751 0 7
-9.7598 -0.3410 -2.7943 0.2751 0 7
-9.7563 -0.4293 -2.7943 0.2751 0 7
-9.7520 -0.5176 -2.7943 0.2751 0 7
-9.7469 -0.6058 -2.7943 0.2751 0 7
-9.7410 -0.6940 -2.7943 0.2751 0 7
-9.7344 -0.7821 -2.7943 0.2751 0 7
-9.7269 -0.8702 -2.7943 0.2751 0 7
-9.7186 -0.9582 -2.7943 0.2751 0 7
-9.7095 -1.0461 -2.7943 0.2751 0 7
-9.6997 -1.1339 -2.7943 0.2751 0 7
-9.6890 -1.2216 -2.7943 0.2751 0 7
-9.6776 -1.3093 -2.7943 0.2751 0 7
-9.6653 -1.3968 -2.7943 0.2751 0 7
-9.6523 -1.4842 -2.7943 0.2751 0 7
-9.6385 -1.5715 -2.7943 0.2751 0 7
-9.6238 -1.6587 -2.7943 0.2751 0 7
-9.6084 -1.7457 -2.7943 0.2751 0 7
-9.5922 -1.8326 -2.7943 0.2751 0 7
-9.5753 -1.9193 -2.7943 0.2751 0 7
-9.5575 -2.0059 -2.7943 0.2751 0 7
-9.5390 -2.0923 -2.7943 0.2751 0 7
-9.5196 -2.1785 -2.7943 0.2751 0 7
-9.4995 -2.2646 -2.7943 0.2751 0 7
-9.4787 -2.3505 -2.7943 0.2751 0 7
-9.4570 -2.4361 -2.7943 0.2751 0 7
-9.4346 -2.5216 -2.7943 0.2751 0 7
-9.4114 -2.6069 -2.7943 0.2751 0 7
-9.3874 -2.6920 -2.7943 0.2751 0 7
-9.3626 -2.7768 -2.7943 0.2751 0 7
-9.3371 -2.8614 -2.7943 0.2751 0 7
-9.3108 -2.9458 -2.7943 0.2751 0 7
-9.2838 -3.0300 -2.7943 0.2751 0 7
-9.2560 -3.1139 -2.7943 0.2751 0 7
-9.2274 -3.1975 -2.7943 0.2751 0 7
-9.1981 -3.2809 -2.7943 0.2751 0 7
-9.1681 -3.3640 -2.7943 0.2751 0 7
-9.1372 -3.4468 -2.7943 0.2751 0 6
-9.1057 -3.5293 -2.7943 0.2751 0 7
-9.0734 -3.6116 -2.7943 0.2751 0 7
-9.0403 -3.6936 -2.7943 0.2751 0 7
-9.0065 -3.7752 -2.7943 0.2751 0 7
-8.9720 -3.8566 -2.7943 0.2751 0 7
-8.8676 -3.9072 -2.7727 0.2502 0 8
-8.5465 -3.8584 -2.6831 0.2585 0 8
-8.4047 -3.8864 -2.6495 0.2751 0 8
-8.3692 -3.9623 -2.6495 0.2751 0 8
-8.3330 -4.0378 -2.6495 0.2751 0 14
-8.2961 -4.1131 -2.6495 0.2751 0 14
-8.2586 -4.1880 -2.6495 0.2751 0 14
-8.2203 -4.2626 -2.6495 0.2751 0 14
-8.1530 -4.3217 -2.6403 0.6019 0 19
-8.1043 -4.3903 -2.6373 0.9566 0 19
-8.1016 -4.4841 -2.6495 0.2751 0 14
-8.0607 -4.5573 -2.6495 0.2751 0 14
-8.0191 -4.6300 -2.6495 0.2751 0 14
-6.8351 -4.0293 -2.2703 0.6352 0 19
-6.7544 -4.0646 -2.2556 0.9600 0 19
-6.7205 -4.1275 -2.2567 0.7057 0 19
-7.8463 -4.9172 -2.6495 0.2751 0 14
-6.2927 -4.0234 -2.1371 0.3300 0 19
-7.7560 -5.0584 -2.6495 0.2751 0 14
-7.7099 -5.1284 -2.6495 0.2751 0 14
-7.6632 -5.1980 -2.6495 0.2751 0 14
-5.4280 -3.7540 -1.8884 0.6857 0 19
-5.3717 -3.7874 -1.8807 0.9613 0 19
-5.3383 -3.8366 -1.8810 0.9611 0 19
-5.3548 -3.9225 -1.8993 0.6503 0 19
-7.4202 -5.5393 -2.6495 0.2751 0 14
-7.3698 -5.6062 -2.6495 0.2751 0 14
-7.3187 -5.6727 -2.6495 0.2751 0 14
-6.1174 -4.8310 -2.2304 0.1068 0 9
-6.0794 -4.8907 -2.2326 0.8636 0 9
-7.1620 -5.8693 -2.6495 0.2751 0 14
-7.1086 -5.9338 -2.6495 0.2751 0 14
-7.0546 -5.9979 -2.6495 0.2751 0 14
-7.0001 -6.0615 -2.6495 0.2751 0 14
-6.9449 -6.1246 -2.6495 0.2751 0 14
-5.4674 -4.9102 -2.1027 0.3008 0 9
-5.3427 -4.8864 -2.0717 0.8318 0 9
-5.2681 -4.9064 -2.0599 0.8366 0 9
-5.1932 -4.9251 -2.0479 0.8282 0 9
-5.1396 -4.9635 -2.0445 0.9879 0 9
-5.1005 -5.0157 -2.0469 0.9867 0 9
-5.0612 -5.0679 -2.0494 0.9855 0 9
-5.0217 -5.1203 -2.0521 0.9842 0 9
-4.9892 -5.1801 -2.0579 0.9273 0 9
-5.0076 -5.2943 -2.0852 0.4408 0 9
-5.0402 -5.4262 -2.1191 0.4887 0 9
-6.0707 -6.6555 -2.5776 0.4969 0 19
-6.5156 -7.2744 -2.7943 0.2751 0 7
-5.1695 -5.8777 -2.2398 0.5641 0 9
-6.3829 -7.3911 -2.7943 0.2751 0 7
-6.3157 -7.4485 -2.7943 0.2751 0 6
-6.2481 -7.5054 -2.7943 0.2751 0 6
-6.1799 -7.5616 -2.7943 0.2751 0 7
-6.1112 -7.6173 -2.7943 0.2751 0 7
-6.0420 -7.6723 -2.7943 0.2751 0 7
-4.8032 -6.2141 -2.2473 0.8573 0 19
-4.7253 -6.2290 -2.2371 0.9111 0 19
-4.6832 -6.2909 -2.2441 0.9083 0 19
-5.7604 -7.8859 -2.7943 0.2751 0 7
-5.6888 -7.9377 -2.7943 0.2751 0 7
-5.6167 -7.9889 -2.7943 0.2751 0 7
-4.2947 -6.2275 -2.1646 0.6670 0 19
-4.1914 -6.1970 -2.1407 0.3169 0 19
-4.1048 -6.1890 -2.1250 0.6794 0 19
-4.0125 -6.1702 -2.1060 0.6856 0 19
-5.2496 -8.2348 -2.7943 0.2751 0 7
-5.1749 -8.2819 -2.7943 0.2751 0 7
-3.7449 -6.1159 -2.0520 0.7036 0 19
-3.6587 -6.0984 -2.0349 0.7095 0 19
-3.5740 -6.0812 -2.0183 0.7153 0 19
-3.4157 -5.9341 -1.9592 0.9083 0 19
-3.3515 -5.9464 -1.9531 0.9112 0 19
-3.3090 -5.9973 -1.9599 0.8573 0 19
-3.2342 -5.9892 -1.9476 0.6061 0 19
-4.5622 -8.6346 -2.7943 0.2751 0 7
-4.4839 -8.6755 -2.7943 0.2751 0 7
-4.4052 -8.7157 -2.7943 0.2751 0 7
-4.3261 -8.7552 -2.7943 0.2751 0 7
-4.2467 -8.7940 -2.7943 0.2751 0 7
-4.1670 -8.8320 -2.7943 0.2751 0 7
-4.0869 -8.8694 -2.7943 0.2751 0 7
-4.0065 -8.9061 -2.7943 0.2751 0 7
-3.9257 -8.9420 -2.7943 0.2751 0 7
-3.8446 -8.9771 -2.7943 0.2751 0 7
-3.7632 -9.0115 -2.7943 0.2751 0 7
-3.6815 -9.0452 -2.7943 0.2751 0 7
-3.5995 -9.0782 -2.7943 0.2751 0 7
-3.5172 -9.1104 -2.7943 0.2751 0 7
-3.4346 -9.1418 -2.7943 0.2751 0 7
-2.1058 -5.7628 -1.7556 0.2751 0 19
-2.0535 -5.7816 -1.7556 0.2751 0 19
-2.0011 -5.7999 -1.7556 0.2751 0 19
-1.9485 -5.8178 -1.7556 0.2751 0 19
-3.0176 -9.2878 -2.7943 0.2751 0 7
-2.9334 -9.3148 -2.7943 0.2751 0 7
-2.8490 -9.3409 -2.7943 0.2751 0 7
-2.7643 -9.3663 -2.7943 0.2751 0 7
-2.6794 -9.3910 -2.7943 0.2751 0 7
-2.5944 -9.4148 -2.7943 0.2751 0 7
-2.5090 -9.4379 -2.7943 0.2751 0 7
-2.4235 -9.4602 -2.7943 0.2751 0 7
-2.3378 -9.4818 -2.7943 0.2751 0 7
-2.2519 -9.5026 -2.7943 0.2751 0 7
-2.1658 -9.5225 -2.7943 0.2751 0 7
-2.0796 -9.5418 -2.7943 0.2751 0 7
-1.9931 -9.5602 -2.7943 0.2751 0 7
-1.9065 -9.5778 -2.7943 0.2751 0 7
-1.8198 -9.5947 -2.7943 0.2751 0 7
-1.7329 -9.6108 -2.7943 0.2751 0 7
-1.6458 -9.6261 -2.7943 0.2751 0 7
-1.5586 -9.6406 -2.7943 0.2751 0 7
-1.4713 -9.6543 -2.7943 0.2751 0 7
-1.3839 -9.6672 -2.7943 0.2751 0 7
-1.2963 -9.6793 -2.7943 0.2751 0 7
-1.2087 -9.6906 -2.7943 0.2751 0 7
-1.1210 -9.7012 -2.7943 0.2751 0 7
-1.0331 -9.7109 -2.7943 0.2751 0 7
-0.9452 -9.7199 -2.7943 0.2751 0 7
-0.8572 -9.7280 -2.7943 0.2751 0 7
-0.7691 -9.7354 -2.7943 0.2751 0 7
-0.6810 -9.7420 -2.7943 0.2751 0 7
-0.5928 -9.7477 -2.7943 0.2751 0 7
-0.5046 -9.7527 -2.7943 0.2751 0 7
-0.4163 -9.7569 -2.7943 0.2751 0 7
-0.3280 -9.7602 -2.7943 0.2751 0 7
-0.2396 -9.7628 -2.7943 0.2751 0 7
-0.1513 -9.7646 -2.7943 0.2751 0 7
-0.0629 -9.7655 -2.7943 0.2751 0 7
0.0255 -9.7657 -2.7943 0.2751 0 7
0.1139 -9.7651 -2.7943 0.2751 0 7
0.2022 -9.7636 -2.7943 0.2751 0 7
0.2906 -9.7614 -2.7943 0.2751 0 7
0.3789 -9.7584 -2.7943 0.2751 0 7
0.4672 -9.7545 -2.7943 0.2751 0 7
0.5555 -9.7499 -2.7943 0.2751 0 7
0.6437 -9.7445 -2.7943 0.2751 0 7
0.7318 -9.7383 -2.7943 0.2751 0 7
0.8199 -9.7312 -2.7943 0.2751 0 7
0.9080 -9.7234 -2.7943 0.2751 0 7
0.9959 -9.7148 -2.7943 0.2751 0 7
1.0838 -9.7054 -2.7943 0.2751 0 7
1.1716 -9.6952 -2.7943 0.2751 0 7
1.2593 -9.6842 -2.7943 0.2751 0 7
1.3469 -9.6724 -2.7943 0.2751 0 7
1.4343 -9.6598 -2.7943 0.2751 0 7
1.5217 -9.6464 -2.7943 0.2751 0 7
1.6089 -9.6323 -2.7943 0.2751 0 7
1.6960 -9.6173 -2.7943 0.2751 0 7
1.7830 -9.6016 -2.7943 0.2751 0 7
1.8698 -9.5851 -2.7943 0.2751 0 7
1.9565 -9.5677 -2.7943 0.2751 0 7
2.0430 -9.5496 -2.7943 0.2751 0 7
2.1293 -9.5308 -2.7943 0.2751 0 7
2.2155 -9.5111 -2.7943 0.2751 0 7
2.3015 -9.4907 -2.7943 0.2751 0 7
2.3873 -9.4694 -2.7943 0.2751 0 7
1.0023 -3.8291 -1.1326 0.4187 0 5
1.0263 -3.7807 -1.1209 0.9112 0 5
1.0593 -3.7671 -1.1197 0.8587 0 5
1.0997 -3.7795 -1.1263 0.2925 0 5
2.8132 -9.3518 -2.7943 0.2751 0 7
2.8977 -9.3259 -2.7943 0.2751 0 7
2.9820 -9.2993 -2.7943 0.2751 0 7
3.0660 -9.2719 -2.7943 0.2751 0 7
3.1498 -9.2438 -2.7943 0.2751 0 7
3.2333 -9.2149 -2.7943 0.2751 0 7
3.3166 -9.1853 -2.7943 0.2751 0 7
3.3996 -9.1549 -2.7943 0.2751 0 7
3.4823 -9.1238 -2.7943 0.2751 0 7
3.5647 -9.0919 -2.7943 0.2751 0 7
3.6468 -9.0593 -2.7943 0.2751 0 7
3.7287 -9.0259 -2.7943 0.2751 0 7
3.8102 -8.9918 -2.7943 0.2751 0 7
3.8914 -8.9569 -2.7943 0.2751 0 7
3.9723 -8.9213 -2.7943 0.2751 0 7
4.0529 -8.8850 -2.7943 0.2751 0 7
4.1331 -8.8480 -2.7943 0.2751 0 7
4.2130 -8.8102 -2.7943 0.2751 0 7
4.2926 -8.7717 -2.7943 0.2751 0 7
4.3718 -8.7325 -2.7943 0.2751 0 7
4.4507 -8.6926 -2.7943 0.2751 0 7
4.5291 -8.6520 -2.7943 0.2751 0 7
4.6073 -8.6106 -2.7943 0.2751 0 7
4.6850 -8.5686 -2.7943 0.2751 0 7
4.7623 -8.5258 -2.7943 0.2751 0 7
4.8393 -8.4824 -2.7943 0.2751 0 7
4.9159 -8.4382 -2.7943 0.2751 0 7
4.9920 -8.3934 -2.7943 0.2751 0 7
5.0678 -8.3479 -2.7943 0.2751 0 7
5.1431 -8.3017 -2.7943 0.2751 0 7
5.2180 -8.2548 -2.7943 0.2751 0 7
5.2925 -8.2072 -2.7943 0.2751 0 7
5.3666 -8.1590 -2.7943 0.2751 0 7
5.4402 -8.1101 -2.7943 0.2751 0 7
5.5134 -8.0605 -2.7943 0.2751 0 7
5.5861 -8.0103 -2.7943 0.2751 0 7
5.6584 -7.9594 -2.7943 0.2751 0 7
5.7302 -7.9079 -2.7943 0.2751 0 7
5.8015 -7.8557 -2.7943 0.2751 0 7
5.8723 -7.8029 -2.7943 0.2751 0 7
5.9427 -7.7494 -2.7943 0.2751 0 7
6.0126 -7.6953 -2.7943 0.2751 0 7
6.0820 -7.6406 -2.7943 0.2751 0 7
6.1509 -7.5852 -2.7943 0.2751 0 7
6.2193 -7.5293 -2.7943 0.2751 0 7
6.2872 -7.4727 -2.7943 0.2751 0 7
6.3545 -7.4155 -2.7943 0.2751 0 7
6.4214 -7.3577 -2.7943 0.2751 0 7
6.4877 -7.2992 -2.7943 0.2751 0 7
6.5535 -7.2402 -2.7943 0.2751 0 7
6.6188 -7.1806 -2.7943 0.2751 0 7
6.6835 -7.1204 -2.7943 0.2751 0 7
6.7476 -7.0597 -2.7943 0.2751 0 7
6.8113 -6.9983 -2.7943 0.2751 0 7
6.8743 -6.9364 -2.7943 0.2751 0 7
6.9368 -6.8739 -2.7943 0.2751 0 7
6.9987 -6.8108 -2.7943 0.2751 0 7
7.0601 -6.7472 -2.7943 0.2751 0 7
7.1208 -6.6830 -2.7943 0.2751 0 7
4.7862 -4.4112 -1.8625 0.2184 0 19
4.7815 -4.3275 -1.8453 0.8250 0 19
4.8148 -4.2790 -1.8431 0.9303 0 19
4.8660 -4.2463 -1.8480 0.4852 0 19
5.0528 -4.3294 -1.9039 0.7583 0 19
7.4730 -6.2867 -2.7943 0.2751 0 7
7.5296 -6.2188 -2.7943 0.2751 0 7
7.5856 -6.1505 -2.7943 0.2751 0 7
7.6410 -6.0816 -2.7943 0.2751 0 7
7.6957 -6.0122 -2.7943 0.2751 0 7
7.7498 -5.9423 -2.7943 0.2751 0 7
7.8032 -5.8719 -2.7943 0.2751 0 7
7.8561 -5.8010 -2.7943 0.2751 0 7
7.9082 -5.7297 -2.7943 0.2751 0 7
7.9598 -5.6579 -2.7943 0.2751 0 7
5.9482 -4.1476 -2.0749 0.6958 0 19
6.0379 -4.1294 -2.0931 0.6898 0 19
6.1782 -4.1438 -2.1286 0.3593 0 19
6.1631 -4.0533 -2.1107 0.8909 0 19
6.1992 -3.9971 -2.1106 0.8821 0 19
6.2851 -3.9724 -2.1275 0.3523 0 19
8.3020 -5.1426 -2.7943 0.2751 0 7
8.3482 -5.0673 -2.7943 0.2751 0 7
8.3937 -4.9915 -2.7943 0.2751 0 7
8.4385 -4.9154 -2.7943 0.2751 0 7
8.4827 -4.8388 -2.7943 0.2751 0 7
8.5261 -4.7618 -2.7943 0.2751 0 7
8.5689 -4.6845 -2.7943 0.2751 0 7
8.6109 -4.6067 -2.7943 0.2751 0 7
8.6522 -4.5286 -2.7943 0.2751 0 7
7.5692 -3.8749 -2.4331 0.4615 0 19
7.5451 -3.7768 -2.4143 0.9272 0 19
7.5877 -3.7126 -2.4171 0.8311 0 19
8.8105 -4.2125 -2.7943 0.2751 0 7
8.8482 -4.1326 -2.7943 0.2751 0 7
8.4249 -3.8424 -2.6495 0.2751 0 8
8.4593 -3.7660 -2.6495 0.2751 0 8
8.4931 -3.6893 -2.6495 0.2751 0 14
8.5261 -3.6123 -2.6495 0.2751 0 14
8.5584 -3.5350 -2.6495 0.2751 0 14
8.5901 -3.4574 -2.6495 0.2751 0 14
8.5139 -3.3375 -2.6166 0.7957 0 9
8.4920 -3.2406 -2.6008 0.8006 0 9
8.4704 -3.1448 -2.5853 0.8054 0 9
8.4490 -3.0501 -2.5703 0.8101 0 9
8.4278 -2.9566 -2.5556 0.8147 0 9
8.4069 -2.8641 -2.5413 0.8193 0 9
8.3958 -2.7757 -2.5302 0.7771 0 9
8.4087 -2.6958 -2.5266 0.2751 0 9
8.4263 -2.6176 -2.5247 0.8327 0 9
8.4061 -2.5282 -2.5117 0.8370 0 9
8.3861 -2.4396 -2.4990 0.8412 0 9
8.3663 -2.3519 -2.4867 0.8454 0 9
8.3467 -2.2651 -2.4747 0.8495 0 9
8.3272 -2.1791 -2.4630 0.8536 0 9
8.3080 -2.0939 -2.4516 0.8575 0 9
8.2889 -2.0095 -2.4405 0.8614 0 9
8.2700 -1.9259 -2.4297 0.8653 0 9
8.2513 -1.8430 -2.4192 0.8690 0 9
8.3175 -1.7789 -2.4338 0.4034 0 9
6.8341 -1.3971 -1.9959 0.7789 0 19
6.8275 -1.3315 -1.9904 0.7811 0 19
6.8688 -1.2751 -1.9990 0.9613 0 19
6.9417 -1.2238 -2.0169 0.6653 0 19
7.4402 -1.2423 -2.1584 0.3439 0 19
9.1467 -1.4423 -2.6495 0.2751 0 14
9.1594 -1.3595 -2.6495 0.2751 0 14
8.2805 -1.1525 -2.3922 0.7134 0 19
8.2345 -1.0703 -2.3760 0.9593 0 19
8.2491 -0.9964 -2.3775 0.9587 0 19
9.2026 -1.0271 -2.6495 0.2751 0 14
9.2115 -0.9438 -2.6495 0.2751 0 14
9.2197 -0.8604 -2.6495 0.2751 0 14
9.2271 -0.7769 -2.6495 0.2751 0 14
9.2337 -0.6934 -2.6495 0.2751 0 14
9.2396 -0.6098 -2.6495 0.2751 0 14
9.2448 -0.5261 -2.6495 0.2751 0 14
9.2492 -0.4425 -2.6495 0.2751 0 14
9.2528 -0.3587 -2.6495 0.2751 0 8
9.2557 -0.2750 -2.6495 0.2751 0 8
9.3716 -0.1936 -2.6821 0.2586 0 8
9.6858 -0.1124 -2.7716 0.2503 0 8
9.7657 -0.0249 -2.7943 0.2751 0 7
9.7655 0.0635 -2.7943 0.2751 0 7
9.7645 0.1518 -2.7943 0.2751 0 7
9.7628 0.2402 -2.7943 0.2751 0 7
9.7602 0.3285 -2.7943 0.2751 0 7
9.7568 0.4169 -2.7943 0.2751 0 6
9.7527 0.5051 -2.7943 0.2751 0 7
9.7477 0.5934 -2.7943 0.2751 0 7
9.7419 0.6816 -2.7943 0.2751 0 7
9.7353 0.7697 -2.7943 0.2751 0 7
9.7280 0.8578 -2.7943 0.2751 0 7
9.7198 0.9458 -2.7943 0.2751 0 7
9.7109 1.0337 -2.7943 0.2751 0 7
9.7011 1.1215 -2.7943 0.2751 0 7
9.6906 1.2093 -2.7943 0.2751 0 7
9.6792 1.2969 -2.7943 0.2751 0 7
9.6671 1.3845 -2.7943 0.2751 0 7
9.6542 1.4719 -2.7943 0.2751 0 7
9.6404 1.5592 -2.7943 0.2751 0 7
9.6259 1.6464 -2.7943 0.2751 0 7
9.6107 1.7334 -2.7943 0.2751 0 7
9.5946 1.8203 -2.7943 0.2751 0 7
9.5777 1.9071 -2.7943 0.2751 0 7
9.5601 1.9937 -2.7943 0.2751 0 7
9.5416 2.0801 -2.7943 0.2751 0 7
9.5224 2.1664 -2.7943 0.2751 0 7
9.5024 2.2525 -2.7943 0.2751 0 7
9.4816 2.3384 -2.7943 0.2751 0 7
9.4601 2.4241 -2.7943 0.2751 0 7
9.4378 2.5096 -2.7943 0.2751 0 7
9.4147 2.5949 -2.7943 0.2751 0 7
9.3908 2.6800 -2.7943 0.2751 0 7
9.3662 2.7649 -2.7943 0.2751 0 7
9.3408 2.8495 -2.7943 0.2751 0 7
9.3146 2.9339 -2.7943 0.2751 0 7
9.2876 3.0181 -2.7943 0.2751 0 7
9.2600 3.1020 -2.7943 0.2751 0 7
9.2315 3.1857 -2.7943 0.2751 0 7
9.2023 3.2691 -2.7943 0.2751 0 7
9.1723 3.3523 -2.7943 0.2751 0 7
9.1416 3.4351 -2.7943 0.2751 0 7
9.1102 3.5177 -2.7943 0.2751 0 7
9.0780 3.6000 -2.7943 0.2751 0 7
9.0450 3.6820 -2.7943 0.2751 0 7
9.0113 3.7637 -2.7943 0.2751 0 7
8.9769 3.8451 -2.7943 0.2751 0 7
8.9417 3.9262 -2.7943 0.2751 0 7
8.9058 4.0070 -2.7943 0.2751 0 7
8.8692 4.0874 -2.7943 0.2751 0 7
8.8318 4.1675 -2.7943 0.2751 0 7
8.7938 4.2473 -2.7943 0.2751 0 7
8.7550 4.3267 -2.7943 0.2751 0 7
8.7154 4.4057 -2.7943 0.2751 0 7
8.6752 4.4844 -2.7943 0.2751 0 7
8.6343 4.5627 -2.7943 0.2751 0 7
8.5926 4.6407 -2.7943 0.2751 0 7
8.5503 4.7183 -2.7943 0.2751 0 7
8.5072 4.7954 -2.7943 0.2751 0 7
8.4635 4.8722 -2.7943 0.2751 0 7
8.4190 4.9486 -2.7943 0.2751 0 7
8.3739 5.0246 -2.7943 0.2751 0 7
8.3281 5.1002 -2.7943 0.2751 0 7
8.2816 5.1754 -2.7943 0.2751 0 7
8.2344 5.2501 -2.7943 0.2751 0 7
8.1866 5.3244 -2.7943 0.2751 0 7
8.1381 5.3983 -2.7943 0.2751 0 7
8.0889 5.4717 -2.7943 0.2751 0 7
8.0390 5.5447 -2.7943 0.2751 0 7
7.9885 5.6172 -2.7943 0.2751 0 7
7.9374 5.6893 -2.7943 0.2751 0 7
7.8856 5.7609 -2.7943 0.2751 0 7
7.8331 5.8320 -2.7943 0.2751 0 7
7.7800 5.9026 -2.7943 0.2751 0 7
7.7263 5.9728 -2.7943 0.2751 0 7
7.6719 6.0425 -2.7943 0.2751 0 7
7.6169 6.1117 -2.7943 0.2751 0 6
7.5613 6.1803 -2.7943 0.2751 0 6
7.5050 6.2485 -2.7943 0.2751 0 6
7.4482 6.3162 -2.7943 0.2751 0 6
7.3907 6.3833 -2.7943 0.2751 0 6
7.3326 6.4499 -2.7943 0.2751 0 6
7.2740 6.5160 -2.7943 0.2751 0 6
7.2147 6.5816 -2.7943 0.2751 0 6
7.1548 6.6466 -2.7943 0.2751 0 7
7.0944 6.7111 -2.7943 0.2751 0 7
7.0334 6.7750 -2.7943 0.2751 0 7
6.9718 6.8384 -2.7943 0.2751 0 7
6.9096 6.9012 -2.7943 0.2751 0 7
6.8469 6.9635 -2.7943 0.2751 0 6
6.7836 7.0251 -2.7943 0.2751 0 7
6.7197 7.0862 -2.7943 0.2751 0 7
6.6553 7.1468 -2.7943 0.2751 0 7
6.5904 7.2067 -2.7943 0.2751 0 7
6.5249 7.2660 -2.7943 0.2751 0 7
6.4588 7.3248 -2.7943 0.2751 0 7
6.3923 7.3830 -2.7943 0.2751 0 7
6.3252 7.4405 -2.7943 0.2751 0 7
6.2576 7.4974 -2.7943 0.2751 0 7
6.1895 7.5538 -2.7943 0.2751 0 7
6.1209 7.6095 -2.7943 0.2751 0 7
6.0518 7.6645 -2.7943 0.2751 0 7
5.9822 7.7190 -2.7943 0.2751 0 7
5.9121 7.7728 -2.7943 0.2751 0 7
5.8415 7.8260 -2.7943 0.2751 0 7
5.7704 7.8785 -2.7943 0.2751 0 7
5.6989 7.9304 -2.7943 0.2751 0 7
5.6269 7.9817 -2.7943 0.2751 0 7
5.5544 8.0323 -2.7943 0.2751 0 7
5.4815 8.0822 -2.7943 0.2751 0 7
5.4082 8.1315 -2.7943 0.2751 0 7
5.3343 8.1801 -2.7943 0.2751 0 7
5.2601 8.2281 -2.7943 0.2751 0 7
5.1854 8.2753 -2.7943 0.2751 0 7
5.1103 8.3219 -2.7943 0.2751 0 7
5.0348 8.3678 -2.7943 0.2751 0 7
4.9589 8.4130 -2.7943 0.2751 0 7
4.8825 8.4576 -2.7943 0.2751 0 7
4.8058 8.5014 -2.7943 0.2751 0 7
4.7287 8.5446 -2.7943 0.2751 0 7
4.6511 8.5870 -2.7943 0.2751 0 7
4.5732 8.6287 -2.7943 0.2751 0 7
4.4950 8.6698 -2.7943 0.2751 0 7
4.4163 8.7101 -2.7943 0.2751 0 7
4.3373 8.7497 -2.7943 0.2751 0 7
4.2579 8.7886 -2.7943 0.2751 0 7
4.1782 8.8268 -2.7943 0.2751 0 7
4.0982 8.8642 -2.7943 0.2751 0 7
4.0178 8.9009 -2.7943 0.2751 0 7
3.9368 8.9362 -2.7941 0.2883 0 8
3.8546 8.9689 -2.7933 0.2884 0 8
3.7722 9.0008 -2.7925 0.2885 0 8
3.6895 9.0320 -2.7917 0.2886 0 8
3.6066 9.0624 -2.7909 0.2887 0 8
3.5235 9.0922 -2.7901 0.2888 0 8
3.4401 9.1212 -2.7894 0.2888 0 8
3.3565 9.1495 -2.7886 0.2889 0 8
3.2727 9.1770 -2.7879 0.2890 0 8
3.1887 9.2038 -2.7871 0.2891 0 8
3.0983 9.2115 -2.7808 0.8675 0 8
3.0000 9.1940 -2.7672 0.8718 0 8
2.9027 9.1766 -2.7540 0.8760 0 8
2.8063 9.1593 -2.7411 0.8801 0 8
2.7108 9.1421 -2.7285 0.8842 0 8
2.6162 9.1251 -2.7162 0.8882 0 8
2.5223 9.1082 -2.7043 0.8921 0 8
2.4293 9.0913 -2.6926 0.8960 0 8
2.3371 9.0746 -2.6813 0.8997 0 8
2.2456 9.0580 -2.6703 0.9035 0 8
2.1548 9.0414 -2.6595 0.9071 0 8
2.0648 9.0253 -2.6492 0.8133 0 8
1.9776 9.0188 -2.6419 0.2751 0 8
1.8959 9.0364 -2.6419 0.2751 0 8
1.8141 9.0532 -2.6419 0.2751 0 8
1.7321 9.0692 -2.6419 0.2751 0 8
1.6499 9.0845 -2.6419 0.2751 0 8
1.5676 9.0991 -2.6419 0.2751 0 8
1.4852 9.1129 -2.6419 0.2751 0 8
1.4027 9.1260 -2.6419 0.2751 0 8
1.3201 9.1383 -2.6419 0.2751 0 8
1.2373 9.1498 -2.6419 0.2751 0 8
1.1545 9.1607 -2.6419 0.2751 0 8
1.0715 9.1707 -2.6419 0.2751 0 8
0.9885 9.1801 -2.6419 0.2751 0 8
0.9054 9.1886 -2.6419 0.2751 0 8
0.8222 9.1964 -2.6419 0.2751 0 8
0.7389 9.2035 -2.6419 0.2751 0 8
0.6556 9.2098 -2.6419 0.2751 0 8
0.5722 9.2154 -2.6419 0.2751 0 8
0.4888 9.2202 -2.6419 0.2751 0 8
0.4053 9.2242 -2.6419 0.2751 0 8
0.3218 9.2275 -2.6419 0.2751 0 8
0.2383 9.2300 -2.6419 0.2751 0 8
0.1548 9.2318 -2.6419 0.2751 0 8
0.0712 9.2329 -2.6419 0.2751 0 8
-0.0123 9.2331 -2.6419 0.2751 0 8
-0.0959 9.2326 -2.6419 0.2751 0 8
-0.1794 9.2314 -2.6419 0.2751 0 8
-0.2630 9.2294 -2.6419 0.2751 0 8
-0.3465 9.2266 -2.6419 0.2751 0 8
-0.4300 9.2231 -2.6419 0.2751 0 8
-0.5134 9.2188 -2.6419 0.2751 0 8
-0.5968 9.2138 -2.6419 0.2751 0 8
-0.6802 9.2080 -2.6419 0.2751 0 8
-0.7635 9.2015 -2.6419 0.2751 0 8
-0.8467 9.1942 -2.6419 0.2751 0 8
-0.9299 9.1862 -2.6419 0.2751 0 8
-1.0130 9.1774 -2.6419 0.2751 0 8
-1.0960 9.1678 -2.6419 0.2751 0 8
