ply
format ascii 1.0
element vertex 1414
property float32 x
property float32 y
property float32 z
property float32 CosAngle
property uint32 ObjIdx
property uint32 ObjTag
end_header
-5.6300 3.2465 -2.6813 0.3814 0 7
-5.6592 3.1954 -2.6813 0.3814 0 7
-5.6879 3.1441 -2.6813 0.3814 0 7
-5.7160 3.0925 -2.6813 0.3814 0 7
-5.7438 3.0407 -2.6813 0.3814 0 7
-5.7711 2.9886 -2.6813 0.3814 0 7
-5.7978 2.9363 -2.6813 0.3814 0 7
-5.8242 2.8837 -2.6813 0.3814 0 7
-5.8500 2.8309 -2.6813 0.3814 0 7
-5.8754 2.7779 -2.6813 0.3814 0 7
-5.9003 2.7246 -2.6813 0.3814 0 7
-5.9247 2.6711 -2.6813 0.3814 0 7
-5.9486 2.6174 -2.6813 0.3814 0 7
-5.9721 2.5635 -2.6813 0.3814 0 7
-5.9950 2.5094 -2.6813 0.3814 0 7
-6.0174 2.4550 -2.6813 0.3814 0 7
-6.0394 2.4005 -2.6813 0.3814 0 7
-6.0609 2.3458 -2.6813 0.3814 0 7
-6.0819 2.2908 -2.6813 0.3814 0 7
-6.1023 2.2357 -2.6813 0.3814 0 7
-6.1223 2.1804 -2.6813 0.3814 0 7
-6.1418 2.1249 -2.6813 0.3814 0 7
-6.1608 2.0693 -2.6813 0.3814 0 7
-6.1792 2.0135 -2.6813 0.3814 0 7
-6.1972 1.9575 -2.6813 0.3814 0 7
-6.2146 1.9014 -2.6813 0.3814 0 7
-6.2316 1.8451 -2.6813 0.3814 0 7
-6.2480 1.7886 -2.6813 0.3814 0 7
-6.2639 1.7320 -2.6813 0.3814 0 7
-6.2794 1.6753 -2.6813 0.3814 0 7
-6.2943 1.6184 -2.6813 0.3814 0 7
-6.3086 1.5614 -2.6813 0.3814 0 7
-6.3225 1.5043 -2.6813 0.3814 0 7
-6.3358 1.4470 -2.6813 0.3814 0 7
-6.3487 1.3896 -2.6813 0.3814 0 7
-6.3610 1.3321 -2.6813 0.3814 0 7
-6.3728 1.2745 -2.6813 0.3814 0 7
-6.3841 1.2168 -2.6813 0.3814 0 7
-6.3948 1.1590 -2.6813 0.3814 0 7
-6.4050 1.1011 -2.6813 0.3814 0 7
-6.4147 1.0432 -2.6813 0.3814 0 7
-6.4239 0.9851 -2.6813 0.3814 0 7
-6.4325 0.9269 -2.6813 0.3814 0 7
-6.4407 0.8687 -2.6813 0.3814 0 7
-6.4483 0.8104 -2.6813 0.3814 0 7
-6.4553 0.7520 -2.6813 0.3814 0 7
-6.4619 0.6936 -2.6813 0.3814 0 7
-6.4679 0.6351 -2.6813 0.3814 0 7
-6.4734 0.5766 -2.6813 0.3814 0 7
-6.4783 0.5180 -2.6813 0.3814 0 7
-6.4827 0.4594 -2.6813 0.3814 0 7
-6.4866 0.4007 -2.6813 0.3814 0 7
-6.4900 0.3420 -2.6813 0.3814 0 7
-6.4928 0.2833 -2.6813 0.3814 0 7
-6.4951 0.2245 -2.6813 0.3814 0 7
-6.4969 0.1658 -2.6813 0.3814 0 7
-6.4981 0.1070 -2.6813 0.3814 0 7
-6.4988 0.0482 -2.6813 0.3814 0 7
-6.4990 -0.0106 -2.6813 0.3814 0 7
-6.4986 -0.0694 -2.6813 0.3814 0 7
-6.4977 -0.1282 -2.6813 0.3814 0 7
-6.4963 -0.1869 -2.6813 0.3814 0 7
-6.4943 -0.2457 -2.6813 0.3814 0 7
-6.4919 -0.3044 -2.6813 0.3814 0 7
-6.4888 -0.3632 -2.6813 0.3814 0 7
-6.4853 -0.4218 -2.6813 0.3814 0 7
-6.4812 -0.4805 -2.6813 0.3814 0 7
-6.4766 -0.5391 -2.6813 0.3814 0 7
-6.4715 -0.5977 -2.6813 0.3814 0 7
-6.4658 -0.6562 -2.6813 0.3814 0 7
-6.4596 -0.7146 -2.6813 0.3814 0 7
-6.4529 -0.7731 -2.6813 0.3814 0 7
-6.4456 -0.8314 -2.6813 0.3814 0 7
-6.4378 -0.8897 -2.6813 0.3814 0 7
-6.4295 -0.9479 -2.6813 0.3814 0 7
-6.4207 -1.0060 -2.6813 0.3814 0 7
-6.4113 -1.0640 -2.6813 0.3814 0 7
-6.4014 -1.1220 -2.6813 0.3814 0 7
-6.3910 -1.1799 -2.6813 0.3814 0 7
-6.3801 -1.2376 -2.6813 0.3814 0 7
-6.3686 -1.2953 -2.6813 0.3814 0 7
-6.3566 -1.3529 -2.6813 0.3814 0 7
-6.3441 -1.4103 -2.6813 0.3814 0 7
-6.3311 -1.4676 -2.6813 0.3814 0 7
-6.3176 -1.5248 -2.6813 0.3814 0 7
-6.3035 -1.5819 -2.6813 0.3814 0 7
-6.2890 -1.6389 -2.6813 0.3814 0 7
-6.2739 -1.6957 -2.6813 0.3814 0 7
-6.2583 -1.7524 -2.6813 0.3814 0 7
-6.2421 -1.8090 -2.6813 0.3814 0 7
-6.2255 -1.8653 -2.6813 0.3814 0 7
-6.2084 -1.9216 -2.6813 0.3814 0 7
-6.1908 -1.9777 -2.6813 0.3814 0 7
-6.1726 -2.0336 -2.6813 0.3814 0 7
-6.1540 -2.0894 -2.6813 0.3814 0 7
-6.1348 -2.1449 -2.6813 0.3814 0 7
-6.1152 -2.2003 -2.6813 0.3814 0 7
-6.0950 -2.2556 -2.6813 0.3814 0 7
6.1053 0.0000 -2.6813 0.4021 0 6
6.1051 0.0552 -2.6813 0.4021 0 6
6.1043 0.1105 -2.6813 0.4021 0 6
6.1031 0.1657 -2.6813 0.4021 0 6
6.1013 0.2209 -2.6813 0.4021 0 6
6.0991 0.2761 -2.6813 0.4021 0 6
6.0963 0.3312 -2.6813 0.4021 0 6
6.0931 0.3864 -2.6813 0.4021 0 6
6.0893 0.4415 -2.6813 0.4021 0 6
6.0851 0.4965 -2.6813 0.4021 0 6
6.0803 0.5516 -2.6813 0.4021 0 6
6.0751 0.6065 -2.6813 0.4021 0 6
6.0694 0.6615 -2.6813 0.4021 0 6
6.0631 0.7164 -2.6813 0.4021 0 6
6.0564 0.7712 -2.6813 0.4021 0 6
6.0492 0.8259 -2.6813 0.4021 0 6
6.0415 0.8806 -2.6813 0.4021 0 6
6.0333 0.9352 -2.6813 0.4021 0 6
6.0246 0.9898 -2.6813 0.4021 0 6
6.0153 1.0442 -2.6813 0.4021 0 6
6.0057 1.0986 -2.6813 0.4021 0 7
5.9955 1.1529 -2.6813 0.4021 0 6
5.9848 1.2071 -2.6813 0.4021 0 6
5.9736 1.2612 -2.6813 0.4021 0 6
5.9620 1.3152 -2.6813 0.4021 0 6
5.9498 1.3690 -2.6813 0.4021 0 6
5.9372 1.4228 -2.6813 0.4021 0 6
5.9241 1.4765 -2.6813 0.4021 0 6
5.9105 1.5300 -2.6813 0.4021 0 6
5.8964 1.5834 -2.6813 0.4021 0 6
5.8818 1.6367 -2.6813 0.4021 0 7
5.8668 1.6898 -2.6813 0.4021 0 7
5.8513 1.7428 -2.6813 0.4021 0 7
5.8353 1.7957 -2.6813 0.4021 0 7
5.8188 1.8484 -2.6813 0.4021 0 7
5.8018 1.9010 -2.6813 0.4021 0 7
5.7844 1.9534 -2.6813 0.4021 0 7
5.7665 2.0056 -2.6813 0.4021 0 7
5.7481 2.0577 -2.6813 0.4021 0 7
5.7292 2.1096 -2.6813 0.4021 0 7
5.7099 2.1614 -2.6813 0.4021 0 7
5.6901 2.2129 -2.6813 0.4021 0 6
5.6699 2.2643 -2.6813 0.4021 0 6
5.6492 2.3155 -2.6813 0.4021 0 6
5.6280 2.3665 -2.6813 0.4021 0 6
5.6064 2.4173 -2.6813 0.4021 0 6
5.5843 2.4679 -2.6813 0.4021 0 6
5.5617 2.5184 -2.6813 0.4021 0 6
5.5387 2.5686 -2.6813 0.4021 0 6
5.5152 2.6186 -2.6813 0.4021 0 6
5.4913 2.6684 -2.6813 0.4021 0 6
5.4670 2.7179 -2.6813 0.4021 0 7
5.4421 2.7673 -2.6813 0.4021 0 7
5.4169 2.8164 -2.6813 0.4021 0 7
5.3912 2.8653 -2.6813 0.4021 0 7
5.3651 2.9139 -2.6813 0.4021 0 7
5.3385 2.9623 -2.6813 0.4021 0 7
5.3115 3.0105 -2.6813 0.4021 0 7
5.2840 3.0584 -2.6813 0.4021 0 7
5.2561 3.1061 -2.6813 0.4021 0 7
5.2278 3.1535 -2.6813 0.4021 0 7
5.1991 3.2007 -2.6813 0.4021 0 7
5.1699 3.2476 -2.6813 0.4021 0 7
5.1403 3.2942 -2.6813 0.4021 0 7
5.1103 3.3406 -2.6813 0.4021 0 7
5.0799 3.3867 -2.6813 0.4021 0 7
5.0490 3.4325 -2.6813 0.4021 0 7
5.0178 3.4780 -2.6813 0.4021 0 7
4.9861 3.5233 -2.6813 0.4021 0 7
4.9531 3.5676 -2.6807 0.4144 0 8
4.9196 3.6115 -2.6802 0.4145 0 8
4.8857 3.6551 -2.6797 0.4146 0 8
4.8515 3.6984 -2.6791 0.4147 0 8
4.8169 3.7414 -2.6786 0.4148 0 8
4.7820 3.7841 -2.6781 0.4148 0 8
4.7466 3.8265 -2.6776 0.4149 0 8
4.7109 3.8686 -2.6771 0.4150 0 8
4.6749 3.9103 -2.6766 0.4151 0 8
4.6385 3.9517 -2.6761 0.4156 0 8
4.6018 3.9929 -2.6757 0.4156 0 8
4.5648 4.0337 -2.6753 0.4157 0 8
4.5274 4.0742 -2.6748 0.4158 0 8
4.4896 4.1143 -2.6744 0.4158 0 8
4.4515 4.1541 -2.6740 0.4159 0 8
4.4109 4.1915 -2.6723 0.8804 0 8
4.3552 4.2142 -2.6615 0.8840 0 8
4.2998 4.2366 -2.6510 0.8875 0 8
4.2449 4.2588 -2.6407 0.8909 0 8
4.1919 4.2825 -2.6318 0.9122 0 8
4.1397 4.3064 -2.6234 0.9151 0 8
4.0879 4.3302 -2.6152 0.9180 0 8
4.0363 4.3538 -2.6073 0.9208 0 8
3.9850 4.3773 -2.5997 0.9235 0 8
3.9340 4.4006 -2.5923 0.9261 0 8
3.8832 4.4237 -2.5851 0.9287 0 8
3.8328 4.4466 -2.5781 0.9312 0 8
3.7825 4.4695 -2.5714 0.9336 0 8
3.7338 4.4938 -2.5659 0.9481 0 8
3.6857 4.5184 -2.5608 0.9500 0 8
3.6377 4.5428 -2.5559 0.9518 0 8
3.5899 4.5672 -2.5512 0.9535 0 8
3.5422 4.5915 -2.5468 0.9552 0 8
3.4947 4.6156 -2.5425 0.9568 0 8
3.4473 4.6396 -2.5385 0.9583 0 8
3.4006 4.6644 -2.5351 0.9220 0 8
3.3547 4.6899 -2.5324 0.9230 0 8
3.3091 4.7158 -2.5300 0.9289 0 8
3.2652 4.7439 -2.5292 0.4276 0 8
3.2224 4.7735 -2.5293 0.4276 0 8
3.1792 4.8028 -2.5295 0.4275 0 8
3.1359 4.8317 -2.5297 0.4275 0 8
3.0923 4.8603 -2.5299 0.4275 0 8
3.0484 4.8884 -2.5301 0.4274 0 8
3.0044 4.9162 -2.5303 0.4274 0 8
2.9600 4.9437 -2.5305 0.4274 0 8
2.9155 4.9707 -2.5308 0.4273 0 8
2.8707 4.9974 -2.5310 0.4273 0 8
2.8250 5.0225 -2.5307 0.4161 0 8
2.7783 5.0459 -2.5297 0.4163 0 8
2.7317 5.0691 -2.5289 0.4021 0 8
2.6857 5.0936 -2.5289 0.4021 0 8
2.6395 5.1177 -2.5289 0.4021 0 8
2.5931 5.1414 -2.5289 0.4021 0 8
2.5470 5.1657 -2.5294 0.9264 0 8
2.5023 5.1929 -2.5315 0.9257 0 8
2.4574 5.2200 -2.5338 0.9249 0 8
2.4124 5.2471 -2.5362 0.9240 0 8
2.3680 5.2757 -2.5396 0.9612 0 8
2.3235 5.3045 -2.5432 0.9598 0 8
2.2788 5.3333 -2.5471 0.9584 0 8
2.2341 5.3623 -2.5512 0.9568 0 8
2.1891 5.3912 -2.5554 0.9552 0 8
2.1440 5.4203 -2.5599 0.9536 0 8
2.0994 5.4512 -2.5654 0.9384 0 8
2.0550 5.4834 -2.5717 0.9361 0 8
2.0104 5.5156 -2.5782 0.9338 0 8
1.9655 5.5480 -2.5849 0.9314 0 8
1.9204 5.5805 -2.5918 0.9289 0 8
1.8750 5.6132 -2.5990 0.9263 0 8
1.8294 5.6460 -2.6065 0.9237 0 8
1.7835 5.6789 -2.6141 0.9210 0 8
1.7373 5.7120 -2.6220 0.9182 0 8
1.6915 5.7477 -2.6313 0.8986 0 8
1.6454 5.7840 -2.6409 0.8953 0 8
1.5990 5.8204 -2.6509 0.8919 0 8
1.5522 5.8571 -2.6611 0.8885 0 8
1.5051 5.8940 -2.6715 0.8850 0 8
1.4530 5.9128 -2.6740 0.4160 0 8
1.3997 5.9265 -2.6744 0.4159 0 8
1.3462 5.9399 -2.6748 0.4159 0 8
1.2926 5.9527 -2.6752 0.4158 0 8
1.2389 5.9652 -2.6757 0.4153 0 8
1.1852 5.9772 -2.6761 0.4153 0 8
1.1312 5.9888 -2.6766 0.4152 0 8
1.0772 5.9998 -2.6771 0.4151 0 8
1.0230 6.0104 -2.6776 0.4150 0 8
0.9688 6.0206 -2.6781 0.4150 0 8
0.9145 6.0302 -2.6786 0.4149 0 8
0.8601 6.0394 -2.6791 0.4148 0 8
0.8056 6.0481 -2.6796 0.4147 0 8
0.7510 6.0563 -2.6801 0.4146 0 8
0.6963 6.0641 -2.6807 0.4141 0 8
0.6415 6.0715 -2.6813 0.4140 0 8
0.5866 6.0771 -2.6813 0.4021 0 7
0.5316 6.0821 -2.6813 0.4021 0 7
0.4766 6.0867 -2.6813 0.4021 0 7
0.4215 6.0907 -2.6813 0.4021 0 7
0.3663 6.0943 -2.6813 0.4021 0 7
0.3112 6.0974 -2.6813 0.4021 0 7
0.2560 6.0999 -2.6813 0.4021 0 7
0.2008 6.1020 -2.6813 0.4021 0 7
0.1456 6.1036 -2.6813 0.4021 0 7
0.0904 6.1046 -2.6813 0.4021 0 7
0.0352 6.1052 -2.6813 0.4021 0 7
-0.0200 6.1053 -2.6813 0.4021 0 7
-0.0753 6.1048 -2.6813 0.4021 0 7
-0.1305 6.1039 -2.6813 0.4021 0 7
-0.1857 6.1025 -2.6813 0.4021 0 7
-0.2409 6.1005 -2.6813 0.4021 0 7
-0.2961 6.0981 -2.6813 0.4021 0 7
-0.3513 6.0952 -2.6813 0.4021 0 7
-0.4064 6.0918 -2.6813 0.4021 0 7
-0.4615 6.0878 -2.6813 0.4021 0 7
-0.5165 6.0834 -2.6813 0.4021 0 7
-0.5715 6.0785 -2.6813 0.4021 0 7
-0.6265 6.0731 -2.6813 0.4021 0 7
-0.6814 6.0671 -2.6813 0.4021 0 7
-0.7362 6.0607 -2.6813 0.4021 0 7
-0.7911 6.0538 -2.6813 0.4021 0 7
-0.8458 6.0464 -2.6813 0.4021 0 7
-0.9005 6.0385 -2.6813 0.4021 0 7
-0.9550 6.0301 -2.6813 0.4021 0 7
-1.0095 6.0212 -2.6813 0.4021 0 7
-1.0640 6.0119 -2.6813 0.4021 0 7
-1.1183 6.0020 -2.6813 0.4021 0 7
-1.1726 5.9916 -2.6813 0.4021 0 7
-1.2267 5.9808 -2.6813 0.4021 0 7
-1.2808 5.9694 -2.6813 0.4021 0 7
-1.3347 5.9576 -2.6813 0.4021 0 7
-1.3886 5.9453 -2.6813 0.4021 0 7
-1.4423 5.9325 -2.6813 0.4021 0 7
-1.4959 5.9192 -2.6813 0.4021 0 7
-1.5494 5.9054 -2.6813 0.4021 0 7
-1.6028 5.8912 -2.6813 0.4021 0 7
-1.6560 5.8764 -2.6813 0.4021 0 7
-1.7091 5.8612 -2.6813 0.4021 0 7
-1.7620 5.8455 -2.6813 0.4021 0 7
-1.8148 5.8293 -2.6813 0.4021 0 7
-1.8675 5.8127 -2.6813 0.4021 0 7
-1.9200 5.7955 -2.6813 0.4021 0 7
-1.9724 5.7779 -2.6813 0.4021 0 7
-2.0246 5.7598 -2.6813 0.4021 0 7
-2.0765 5.7413 -2.6813 0.4021 0 7
-2.1284 5.7223 -2.6813 0.4021 0 7
-2.1801 5.7028 -2.6813 0.4021 0 7
-2.2316 5.6828 -2.6813 0.4021 0 7
-2.2829 5.6624 -2.6813 0.4021 0 7
-2.3340 5.6415 -2.6813 0.4021 0 7
-2.3850 5.6202 -2.6813 0.4021 0 7
-2.4357 5.5984 -2.6813 0.4021 0 7
-2.4863 5.5761 -2.6813 0.4021 0 7
-2.5366 5.5534 -2.6813 0.4021 0 7
-2.5867 5.5302 -2.6813 0.4021 0 7
-2.6367 5.5066 -2.6813 0.4021 0 7
-2.6864 5.4825 -2.6813 0.4021 0 7
-2.7358 5.4580 -2.6813 0.4021 0 7
-2.7851 5.4330 -2.6813 0.4021 0 7
-2.8342 5.4076 -2.6813 0.4021 0 7
-2.8830 5.3817 -2.6813 0.4021 0 7
-2.9315 5.3554 -2.6813 0.4021 0 7
-2.9799 5.3287 -2.6813 0.4021 0 7
-3.0279 5.3015 -2.6813 0.4021 0 7
-3.0758 5.2739 -2.6813 0.4021 0 7
-3.1234 5.2459 -2.6813 0.4021 0 7
-3.1707 5.2174 -2.6813 0.4021 0 7
-3.2178 5.1885 -2.6813 0.4021 0 7
-3.2646 5.1592 -2.6813 0.4021 0 7
-3.3111 5.1294 -2.6813 0.4021 0 7
-3.3574 5.0993 -2.6813 0.4021 0 7
-3.4033 5.0687 -2.6813 0.4021 0 7
-3.4491 5.0377 -2.6813 0.4021 0 7
-3.4945 5.0063 -2.6813 0.4021 0 7
-3.5397 4.9745 -2.6813 0.4021 0 7
-3.5845 4.9422 -2.6813 0.4021 0 7
-3.6291 4.9096 -2.6813 0.4021 0 7
-3.6733 4.8766 -2.6813 0.4021 0 7
-3.7173 4.8432 -2.6813 0.4021 0 7
-3.7610 4.8093 -2.6813 0.4021 0 7
-3.8043 4.7751 -2.6813 0.4021 0 7
-3.8473 4.7405 -2.6813 0.4021 0 7
-3.8901 4.7055 -2.6813 0.4021 0 7
-3.9325 4.6701 -2.6813 0.4021 0 7
-3.9746 4.6344 -2.6813 0.4021 0 7
-4.0163 4.5982 -2.6813 0.4021 0 7
-4.0578 4.5617 -2.6813 0.4021 0 7
-4.0989 4.5248 -2.6813 0.4021 0 7
-4.1396 4.4875 -2.6813 0.4021 0 7
-4.1801 4.4499 -2.6813 0.4021 0 7
-4.2201 4.4119 -2.6813 0.4021 0 7
-4.2599 4.3735 -2.6813 0.4021 0 7
-4.2993 4.3348 -2.6813 0.4021 0 7
-4.3383 4.2958 -2.6813 0.4021 0 7
-4.3770 4.2563 -2.6813 0.4021 0 7
-4.4153 4.2166 -2.6813 0.4021 0 7
-4.4533 4.1764 -2.6813 0.4021 0 7
-4.4909 4.1360 -2.6813 0.4021 0 7
-4.5281 4.0952 -2.6813 0.4021 0 7
-4.5650 4.0541 -2.6813 0.4021 0 7
-4.6015 4.0126 -2.6813 0.4021 0 7
-4.6376 3.9708 -2.6813 0.4021 0 7
-4.6733 3.9287 -2.6813 0.4021 0 7
-4.7087 3.8863 -2.6813 0.4021 0 7
-4.7436 3.8435 -2.6813 0.4021 0 7
-4.7782 3.8004 -2.6813 0.4021 0 7
-4.8124 3.7571 -2.6813 0.4021 0 7
-4.8462 3.7134 -2.6813 0.4021 0 7
-4.8796 3.6694 -2.6813 0.4021 0 7
-4.9126 3.6251 -2.6813 0.4021 0 7
-4.9452 3.5805 -2.6813 0.4021 0 7
-4.9774 3.5356 -2.6813 0.4021 0 7
-5.0091 3.4904 -2.6813 0.4021 0 7
-5.0405 3.4450 -2.6813 0.4021 0 7
-5.0714 3.3992 -2.6813 0.4021 0 7
-5.1020 3.3532 -2.6813 0.4021 0 7
-5.1321 3.3069 -2.6813 0.4021 0 7
-5.1618 3.2604 -2.6813 0.4021 0 7
-5.1911 3.2135 -2.6813 0.4021 0 7
-5.2200 3.1665 -2.6813 0.4021 0 7
-5.2484 3.1191 -2.6813 0.4021 0 7
-5.2764 3.0715 -2.6813 0.4021 0 7
-5.3040 3.0236 -2.6813 0.4021 0 7
-5.3311 2.9755 -2.6813 0.4021 0 7
-5.3578 2.9272 -2.6813 0.4021 0 7
-5.3841 2.8786 -2.6813 0.4021 0 7
-5.4099 2.8298 -2.6813 0.4021 0 7
-5.4353 2.7807 -2.6813 0.4021 0 7
-5.4602 2.7314 -2.6813 0.4021 0 7
-5.4847 2.6819 -2.6813 0.4021 0 7
-5.5087 2.6322 -2.6813 0.4021 0 7
-5.5323 2.5823 -2.6813 0.4021 0 7
-5.5554 2.5321 -2.6813 0.4021 0 7
-5.5781 2.4817 -2.6813 0.4021 0 7
-5.6004 2.4312 -2.6813 0.4021 0 7
-5.6221 2.3804 -2.6813 0.4021 0 7
-5.6434 2.3295 -2.6813 0.4021 0 7
-5.6642 2.2783 -2.6813 0.4021 0 7
-5.6846 2.2270 -2.6813 0.4021 0 7
-5.7045 2.1755 -2.6813 0.4021 0 7
-5.7240 2.1238 -2.6813 0.4021 0 7
-5.7430 2.0719 -2.6813 0.4021 0 7
-5.7615 2.0199 -2.6813 0.4021 0 7
-5.7795 1.9677 -2.6813 0.4021 0 7
-5.7971 1.9153 -2.6813 0.4021 0 7
-5.8141 1.8628 -2.6813 0.4021 0 7
-5.8308 1.8101 -2.6813 0.4021 0 7
-5.8469 1.7573 -2.6813 0.4021 0 7
-5.8626 1.7043 -2.6813 0.4021 0 7
-5.8777 1.6512 -2.6813 0.4021 0 7
-5.8925 1.5980 -2.6813 0.4021 0 7
-5.9067 1.5446 -2.6813 0.4021 0 7
-5.9204 1.4911 -2.6813 0.4021 0 7
-5.9336 1.4375 -2.6813 0.4021 0 7
-5.9464 1.3837 -2.6813 0.4021 0 7
-5.9587 1.3299 -2.6813 0.4021 0 7
-5.9705 1.2759 -2.6813 0.4021 0 7
-5.9817 1.2219 -2.6813 0.4021 0 7
-5.9926 1.1677 -2.6813 0.4021 0 7
-6.0029 1.1135 -2.6813 0.4021 0 7
-6.0127 1.0591 -2.6813 0.4021 0 7
-6.0221 1.0047 -2.6813 0.4021 0 7
-6.0309 0.9502 -2.6813 0.4021 0 7
-6.0392 0.8956 -2.6813 0.4021 0 7
-6.0471 0.8409 -2.6813 0.4021 0 7
-6.0545 0.7861 -2.6813 0.4021 0 7
-6.0613 0.7313 -2.6813 0.4021 0 7
-6.0677 0.6765 -2.6813 0.4021 0 7
-6.0735 0.6216 -2.6813 0.4021 0 7
-6.0789 0.5666 -2.6813 0.4021 0 7
-6.0838 0.5116 -2.6813 0.4021 0 7
-6.0882 0.4565 -2.6813 0.4021 0 7
-6.0921 0.4014 -2.6813 0.4021 0 7
-6.0954 0.3463 -2.6813 0.4021 0 7
-6.0983 0.2911 -2.6813 0.4021 0 7
-6.1007 0.2360 -2.6813 0.4021 0 7
-6.1026 0.1808 -2.6813 0.4021 0 7
-6.1040 0.1255 -2.6813 0.4021 0 7
-6.1049 0.0703 -2.6813 0.4021 0 7
-6.1053 0.0151 -2.6813 0.4021 0 7
-6.1051 -0.0401 -2.6813 0.4021 0 7
-6.1045 -0.0954 -2.6813 0.4021 0 7
-6.1034 -0.1506 -2.6813 0.4021 0 7
-6.1018 -0.2058 -2.6813 0.4021 0 7
-6.0997 -0.2610 -2.6813 0.4021 0 7
-6.0971 -0.3162 -2.6813 0.4021 0 7
-6.0940 -0.3713 -2.6813 0.4021 0 7
-6.0904 -0.4264 -2.6813 0.4021 0 7
-6.0863 -0.4815 -2.6813 0.4021 0 7
-6.0817 -0.5365 -2.6813 0.4021 0 7
-6.0766 -0.5915 -2.6813 0.4021 0 7
-6.0709 -0.6465 -2.6813 0.4021 0 7
-6.0649 -0.7014 -2.6813 0.4021 0 7
-6.0583 -0.7562 -2.6813 0.4021 0 7
-6.0512 -0.8110 -2.6813 0.4021 0 7
-6.0436 -0.8657 -2.6813 0.4021 0 7
-6.0355 -0.9203 -2.6813 0.4021 0 7
-6.0269 -0.9749 -2.6813 0.4021 0 7
-6.0179 -1.0294 -2.6813 0.4021 0 7
-6.0083 -1.0838 -2.6813 0.4021 0 7
-5.9983 -1.1381 -2.6813 0.4021 0 7
-5.9877 -1.1923 -2.6813 0.4021 0 7
-5.9767 -1.2464 -2.6813 0.4021 0 7
-5.9652 -1.3004 -2.6813 0.4021 0 7
-5.9532 -1.3543 -2.6813 0.4021 0 7
-5.9407 -1.4081 -2.6813 0.4021 0 7
-5.9277 -1.4618 -2.6813 0.4021 0 7
-5.9142 -1.5154 -2.6813 0.4021 0 7
-5.9003 -1.5688 -2.6813 0.4021 0 7
-5.8858 -1.6221 -2.6813 0.4021 0 7
-5.8709 -1.6753 -2.6813 0.4021 0 7
-5.8555 -1.7283 -2.6813 0.4021 0 7
-5.8397 -1.7812 -2.6813 0.4021 0 7
-5.8233 -1.8340 -2.6813 0.4021 0 7
-5.8065 -1.8866 -2.6813 0.4021 0 7
-5.7892 -1.9391 -2.6813 0.4021 0 7
-5.7714 -1.9913 -2.6813 0.4021 0 7
-5.7532 -2.0435 -2.6813 0.4021 0 7
-5.7344 -2.0954 -2.6813 0.4021 0 7
-5.7152 -2.1472 -2.6813 0.4021 0 7
-5.6956 -2.1988 -2.6813 0.4021 0 7
-5.6754 -2.2503 -2.6813 0.4021 0 7
-5.6549 -2.3015 -2.6813 0.4021 0 7
-5.6338 -2.3526 -2.6813 0.4021 0 7
-5.6123 -2.4035 -2.6813 0.4021 0 7
-5.5903 -2.4541 -2.6813 0.4021 0 7
-5.5679 -2.5046 -2.6813 0.4021 0 7
-5.5450 -2.5549 -2.6813 0.4021 0 7
-5.5217 -2.6049 -2.6813 0.4021 0 7
-5.4979 -2.6548 -2.6813 0.4021 0 7
-5.4736 -2.7044 -2.6813 0.4021 0 7
-5.4489 -2.7538 -2.6813 0.4021 0 7
-5.4238 -2.8030 -2.6813 0.4021 0 7
-5.3982 -2.8519 -2.6813 0.4021 0 7
-5.3722 -2.9007 -2.6813 0.4021 0 7
-5.3457 -2.9491 -2.6813 0.4021 0 7
-5.3188 -2.9974 -2.6813 0.4021 0 7
-5.2915 -3.0454 -2.6813 0.4021 0 7
-5.2638 -3.0931 -2.6813 0.4021 0 7
-5.2355 -3.1406 -2.6813 0.4021 0 7
-5.2069 -3.1878 -2.6813 0.4021 0 7
-5.1779 -3.2348 -2.6813 0.4021 0 7
-5.1484 -3.2815 -2.6813 0.4021 0 7
-5.1185 -3.3280 -2.6813 0.4021 0 7
-5.0882 -3.3741 -2.6813 0.4021 0 7
-5.0575 -3.4200 -2.6813 0.4021 0 7
-5.0263 -3.4656 -2.6813 0.4021 0 7
-4.9948 -3.5110 -2.6813 0.4021 0 7
-4.9628 -3.5560 -2.6813 0.4021 0 7
-4.9304 -3.6007 -2.6813 0.4021 0 7
-4.8977 -3.6452 -2.6813 0.4021 0 7
-4.8645 -3.6894 -2.6813 0.4021 0 7
-4.8309 -3.7332 -2.6813 0.4021 0 7
-4.7969 -3.7768 -2.6813 0.4021 0 7
-4.7626 -3.8200 -2.6813 0.4021 0 7
-4.7278 -3.8629 -2.6813 0.4021 0 7
-4.6927 -3.9055 -2.6813 0.4021 0 7
-4.6571 -3.9478 -2.6813 0.4021 0 7
-4.6213 -3.9898 -2.6813 0.4021 0 7
-4.5850 -4.0314 -2.6813 0.4021 0 7
-4.5483 -4.0728 -2.6813 0.4021 0 7
-4.5113 -4.1137 -2.6813 0.4021 0 7
-4.4739 -4.1544 -2.6813 0.4021 0 7
-4.4361 -4.1947 -2.6813 0.4021 0 7
-4.3980 -4.2346 -2.6813 0.4021 0 7
-4.3595 -4.2742 -2.6813 0.4021 0 7
-4.3206 -4.3135 -2.6813 0.4021 0 7
-4.2815 -4.3524 -2.6813 0.4021 0 7
-4.2419 -4.3910 -2.6813 0.4021 0 7
-4.2020 -4.4292 -2.6813 0.4021 0 7
-4.1618 -4.4670 -2.6813 0.4021 0 7
-4.1212 -4.5045 -2.6813 0.4021 0 7
-4.0803 -4.5416 -2.6813 0.4021 0 7
-4.0390 -4.5783 -2.6813 0.4021 0 7
-3.9975 -4.6146 -2.6813 0.4021 0 7
-3.9555 -4.6506 -2.6813 0.4021 0 7
-3.9133 -4.6862 -2.6813 0.4021 0 7
-3.8708 -4.7214 -2.6813 0.4021 0 7
-3.8279 -4.7562 -2.6813 0.4021 0 7
-3.7847 -4.7907 -2.6813 0.4021 0 7
-3.7412 -4.8247 -2.6813 0.4021 0 7
-3.6974 -4.8584 -2.6813 0.4021 0 7
-3.6533 -4.8916 -2.6813 0.4021 0 7
-3.6089 -4.9245 -2.6813 0.4021 0 7
-3.5642 -4.9569 -2.6813 0.4021 0 7
-3.5192 -4.9889 -2.6813 0.4021 0 7
-3.4739 -5.0206 -2.6813 0.4021 0 7
-3.4284 -5.0518 -2.6813 0.4021 0 7
-3.3826 -5.0826 -2.6813 0.4021 0 7
-3.3364 -5.1130 -2.6813 0.4021 0 7
-3.2900 -5.1430 -2.6813 0.4021 0 7
-3.2434 -5.1725 -2.6813 0.4021 0 7
-3.1965 -5.2017 -2.6813 0.4021 0 7
-3.1493 -5.2304 -2.6813 0.4021 0 7
-3.1018 -5.2586 -2.6813 0.4021 0 7
-3.0541 -5.2865 -2.6813 0.4021 0 7
-3.0062 -5.3139 -2.6813 0.4021 0 7
-2.9580 -5.3409 -2.6813 0.4021 0 7
-2.9095 -5.3674 -2.6813 0.4021 0 7
-2.8609 -5.3935 -2.6813 0.4021 0 7
-2.8120 -5.4192 -2.6813 0.4021 0 7
-2.7628 -5.4444 -2.6813 0.4021 0 7
-2.7135 -5.4692 -2.6813 0.4021 0 7
-2.6639 -5.4935 -2.6813 0.4021 0 7
-2.6141 -5.5174 -2.6813 0.4021 0 7
-2.5641 -5.5408 -2.6813 0.4021 0 7
-2.5138 -5.5637 -2.6813 0.4021 0 7
-2.4634 -5.5863 -2.6813 0.4021 0 7
-2.4127 -5.6083 -2.6813 0.4021 0 7
-2.3619 -5.6299 -2.6813 0.4021 0 7
-2.3109 -5.6510 -2.6813 0.4021 0 7
-2.2597 -5.6717 -2.6813 0.4021 0 7
-2.2083 -5.6919 -2.6813 0.4021 0 7
-2.1567 -5.7117 -2.6813 0.4021 0 7
-2.1049 -5.7310 -2.6813 0.4021 0 7
-2.0530 -5.7498 -2.6813 0.4021 0 7
-2.0009 -5.7681 -2.6813 0.4021 0 7
-1.9487 -5.7860 -2.6813 0.4021 0 7
-1.8962 -5.8034 -2.6813 0.4021 0 7
-1.8437 -5.8203 -2.6813 0.4021 0 7
-1.7909 -5.8367 -2.6813 0.4021 0 7
-1.7381 -5.8527 -2.6813 0.4021 0 7
-1.6850 -5.8682 -2.6813 0.4021 0 7
-1.6319 -5.8832 -2.6813 0.4021 0 7
-1.5786 -5.8977 -2.6813 0.4021 0 7
-1.5252 -5.9117 -2.6813 0.4021 0 7
-1.4716 -5.9253 -2.6813 0.4021 0 7
-1.4179 -5.9383 -2.6813 0.4021 0 7
-1.3642 -5.9509 -2.6813 0.4021 0 7
-1.3103 -5.9630 -2.6813 0.4021 0 7
-1.2563 -5.9746 -2.6813 0.4021 0 7
-1.2022 -5.9858 -2.6813 0.4021 0 7
-1.1480 -5.9964 -2.6813 0.4021 0 7
-1.0937 -6.0065 -2.6813 0.4021 0 7
-1.0393 -6.0162 -2.6813 0.4021 0 7
-0.9848 -6.0253 -2.6813 0.4021 0 7
-0.9303 -6.0340 -2.6813 0.4021 0 7
-0.8757 -6.0422 -2.6813 0.4021 0 7
-0.8210 -6.0498 -2.6813 0.4021 0 7
-0.7662 -6.0570 -2.6813 0.4021 0 7
-0.7114 -6.0637 -2.6813 0.4021 0 7
-0.6565 -6.0699 -2.6813 0.4021 0 7
-0.6016 -6.0756 -2.6813 0.4021 0 7
-0.5466 -6.0808 -2.6813 0.4021 0 7
-0.4916 -6.0855 -2.6813 0.4021 0 7
-0.4365 -6.0897 -2.6813 0.4021 0 7
-0.3814 -6.0934 -2.6813 0.4021 0 7
-0.3262 -6.0966 -2.6813 0.4021 0 7
-0.2711 -6.0993 -2.6813 0.4021 0 7
-0.2159 -6.1015 -2.6813 0.4021 0 7
-0.1607 -6.1032 -2.6813 0.4021 0 7
-0.1055 -6.1044 -2.6813 0.4021 0 7
-0.0502 -6.1051 -2.6813 0.4021 0 7
0.0050 -6.1053 -2.6813 0.4021 0 7
0.0602 -6.1050 -2.6813 0.4021 0 7
0.1155 -6.1042 -2.6813 0.4021 0 7
0.1706 -6.1029 -2.6813 0.4021 0 7
0.2259 -6.1011 -2.6813 0.4021 0 7
0.2810 -6.0988 -2.6813 0.4021 0 7
0.3362 -6.0960 -2.6813 0.4021 0 7
0.3914 -6.0927 -2.6813 0.4021 0 7
0.4464 -6.0890 -2.6813 0.4021 0 7
0.5015 -6.0847 -2.6813 0.4021 0 7
0.5565 -6.0799 -2.6813 0.4021 0 7
0.6115 -6.0746 -2.6813 0.4021 0 7
0.6664 -6.0688 -2.6813 0.4021 0 7
0.7213 -6.0625 -2.6813 0.4021 0 7
0.7761 -6.0558 -2.6813 0.4021 0 7
0.8309 -6.0485 -2.6813 0.4021 0 7
0.8855 -6.0407 -2.6813 0.4021 0 7
0.9402 -6.0325 -2.6813 0.4021 0 7
0.9947 -6.0237 -2.6813 0.4021 0 7
1.0492 -6.0145 -2.6813 0.4021 0 7
1.1035 -6.0047 -2.6813 0.4021 0 7
1.1578 -5.9945 -2.6813 0.4021 0 7
1.2120 -5.9838 -2.6813 0.4021 0 7
1.2661 -5.9726 -2.6813 0.4021 0 7
1.3200 -5.9609 -2.6813 0.4021 0 7
1.3739 -5.9487 -2.6813 0.4021 0 7
1.4277 -5.9360 -2.6813 0.4021 0 7
1.4813 -5.9229 -2.6813 0.4021 0 7
1.5348 -5.9092 -2.6813 0.4021 0 7
1.5882 -5.8951 -2.6813 0.4021 0 7
1.6415 -5.8805 -2.6813 0.4021 0 7
1.6946 -5.8654 -2.6813 0.4021 0 7
1.7476 -5.8498 -2.6813 0.4021 0 7
1.8004 -5.8338 -2.6813 0.4021 0 7
1.8531 -5.8173 -2.6813 0.4021 0 7
1.9057 -5.8003 -2.6813 0.4021 0 7
1.9581 -5.7828 -2.6813 0.4021 0 7
2.0103 -5.7648 -2.6813 0.4021 0 7
2.0624 -5.7464 -2.6813 0.4021 0 7
2.1143 -5.7275 -2.6813 0.4021 0 7
2.1660 -5.7082 -2.6813 0.4021 0 7
2.2176 -5.6883 -2.6813 0.4021 0 7
2.2689 -5.6680 -2.6813 0.4021 0 7
2.3201 -5.6473 -2.6813 0.4021 0 7
2.3711 -5.6261 -2.6813 0.4021 0 7
2.4219 -5.6044 -2.6813 0.4021 0 7
2.4725 -5.5822 -2.6813 0.4021 0 7
2.5229 -5.5596 -2.6813 0.4021 0 7
2.5731 -5.5366 -2.6813 0.4021 0 7
2.6231 -5.5131 -2.6813 0.4021 0 7
2.6728 -5.4891 -2.6813 0.4021 0 7
2.7224 -5.4647 -2.6813 0.4021 0 7
2.7717 -5.4399 -2.6813 0.4021 0 7
2.8208 -5.4146 -2.6813 0.4021 0 7
2.8697 -5.3888 -2.6813 0.4021 0 7
2.9183 -5.3627 -2.6813 0.4021 0 7
2.9667 -5.3360 -2.6813 0.4021 0 7
3.0148 -5.3090 -2.6813 0.4021 0 7
3.0627 -5.2815 -2.6813 0.4021 0 7
3.1104 -5.2536 -2.6813 0.4021 0 7
3.1578 -5.2252 -2.6813 0.4021 0 6
3.2049 -5.1964 -2.6813 0.4021 0 6
3.2518 -5.1672 -2.6813 0.4021 0 6
3.2984 -5.1376 -2.6813 0.4021 0 6
3.3448 -5.1076 -2.6813 0.4021 0 6
3.3909 -5.0771 -2.6813 0.4021 0 6
3.4366 -5.0462 -2.6813 0.4021 0 6
3.4821 -5.0149 -2.6813 0.4021 0 6
3.5274 -4.9832 -2.6813 0.4021 0 7
3.5723 -4.9511 -2.6813 0.4021 0 7
3.6169 -4.9186 -2.6813 0.4021 0 6
3.6613 -4.8857 -2.6813 0.4021 0 6
3.7053 -4.8523 -2.6813 0.4021 0 6
3.7491 -4.8186 -2.6813 0.4021 0 6
3.7925 -4.7845 -2.6813 0.4021 0 6
3.8357 -4.7500 -2.6813 0.4021 0 6
3.8785 -4.7151 -2.6813 0.4021 0 6
3.9210 -4.6798 -2.6813 0.4021 0 6
3.9631 -4.6442 -2.6813 0.4021 0 6
4.0050 -4.6081 -2.6813 0.4021 0 6
4.0465 -4.5717 -2.6813 0.4021 0 6
4.0877 -4.5349 -2.6813 0.4021 0 6
4.1286 -4.4978 -2.6813 0.4021 0 6
4.1691 -4.4602 -2.6813 0.4021 0 7
4.2093 -4.4223 -2.6813 0.4021 0 7
4.2491 -4.3841 -2.6813 0.4021 0 7
4.2886 -4.3454 -2.6813 0.4021 0 7
4.3277 -4.3065 -2.6813 0.4021 0 7
4.3665 -4.2671 -2.6813 0.4021 0 7
4.4049 -4.2275 -2.6813 0.4021 0 7
4.4430 -4.1874 -2.6813 0.4021 0 7
4.4807 -4.1471 -2.6813 0.4021 0 7
4.5180 -4.1064 -2.6813 0.4021 0 7
4.5550 -4.0653 -2.6813 0.4021 0 7
4.5916 -4.0240 -2.6813 0.4021 0 7
4.6278 -3.9823 -2.6813 0.4021 0 7
4.6636 -3.9402 -2.6813 0.4021 0 6
4.6991 -3.8979 -2.6813 0.4021 0 6
4.7341 -3.8552 -2.6813 0.4021 0 6
4.7688 -3.8122 -2.6813 0.4021 0 6
4.8031 -3.7689 -2.6813 0.4021 0 6
4.8370 -3.7253 -2.6813 0.4021 0 6
4.8705 -3.6814 -2.6813 0.4021 0 6
4.9036 -3.6372 -2.6813 0.4021 0 6
4.9363 -3.5927 -2.6813 0.4021 0 6
4.9686 -3.5479 -2.6813 0.4021 0 6
5.0005 -3.5028 -2.6813 0.4021 0 6
5.0320 -3.4574 -2.6813 0.4021 0 7
5.0631 -3.4118 -2.6813 0.4021 0 7
5.0937 -3.3658 -2.6813 0.4021 0 7
5.1240 -3.3196 -2.6813 0.4021 0 7
5.1538 -3.2731 -2.6813 0.4021 0 7
5.1832 -3.2264 -2.6813 0.4021 0 7
5.2121 -3.1793 -2.6813 0.4021 0 7
5.2407 -3.1321 -2.6813 0.4021 0 7
5.2688 -3.0845 -2.6813 0.4021 0 7
5.2965 -3.0367 -2.6813 0.4021 0 7
5.3238 -2.9887 -2.6813 0.4021 0 7
5.3506 -2.9404 -2.6813 0.4021 0 6
5.3770 -2.8919 -2.6813 0.4021 0 6
5.4029 -2.8431 -2.6813 0.4021 0 6
5.4284 -2.7941 -2.6813 0.4021 0 6
5.4535 -2.7449 -2.6813 0.4021 0 6
5.4780 -2.6955 -2.6813 0.4021 0 6
5.5022 -2.6458 -2.6813 0.4021 0 6
5.5259 -2.5959 -2.6813 0.4021 0 6
5.5492 -2.5458 -2.6813 0.4021 0 6
5.5720 -2.4955 -2.6813 0.4021 0 6
5.5943 -2.4450 -2.6813 0.4021 0 7
5.6162 -2.3943 -2.6813 0.4021 0 7
5.6377 -2.3434 -2.6813 0.4021 0 7
5.6586 -2.2923 -2.6813 0.4021 0 7
5.6791 -2.2410 -2.6813 0.4021 0 7
5.6992 -2.1896 -2.6813 0.4021 0 7
5.7187 -2.1379 -2.6813 0.4021 0 7
5.7379 -2.0861 -2.6813 0.4021 0 7
5.7565 -2.0341 -2.6813 0.4021 0 7
5.7747 -1.9819 -2.6813 0.4021 0 7
5.7923 -1.9296 -2.6813 0.4021 0 6
5.8096 -1.8771 -2.6813 0.4021 0 6
5.8263 -1.8245 -2.6813 0.4021 0 6
5.8426 -1.7717 -2.6813 0.4021 0 6
5.8584 -1.7188 -2.6813 0.4021 0 6
5.8737 -1.6657 -2.6813 0.4021 0 6
5.8885 -1.6125 -2.6813 0.4021 0 6
5.9029 -1.5592 -2.6813 0.4021 0 6
5.9167 -1.5057 -2.6813 0.4021 0 6
5.9301 -1.4522 -2.6813 0.4021 0 6
5.9430 -1.3985 -2.6813 0.4021 0 6
5.9554 -1.3446 -2.6813 0.4021 0 6
5.9673 -1.2907 -2.6813 0.4021 0 6
5.9787 -1.2367 -2.6813 0.4021 0 6
5.9897 -1.1825 -2.6813 0.4021 0 6
6.0001 -1.1283 -2.6813 0.4021 0 6
6.0101 -1.0740 -2.6813 0.4021 0 6
6.0196 -1.0196 -2.6813 0.4021 0 6
6.0285 -0.9651 -2.6813 0.4021 0 6
6.0370 -0.9105 -2.6813 0.4021 0 6
6.0450 -0.8558 -2.6813 0.4021 0 6
6.0525 -0.8011 -2.6813 0.4021 0 6
6.0595 -0.7463 -2.6813 0.4021 0 6
6.0660 -0.6915 -2.6813 0.4021 0 6
6.0720 -0.6366 -2.6813 0.4021 0 6
6.0775 -0.5816 -2.6813 0.4021 0 6
6.0826 -0.5266 -2.6813 0.4021 0 6
6.0871 -0.4716 -2.6813 0.4021 0 6
6.0911 -0.4165 -2.6813 0.4021 0 6
6.0946 -0.3614 -2.6813 0.4021 0 6
6.0976 -0.3062 -2.6813 0.4021 0 6
6.1002 -0.2510 -2.6813 0.4021 0 6
6.1022 -0.1959 -2.6813 0.4021 0 6
6.1037 -0.1406 -2.6813 0.4021 0 6
6.1047 -0.0854 -2.6813 0.4021 0 6
6.1052 -0.0302 -2.6813 0.4021 0 6
6.1053 0.0250 -2.6813 0.4021 0 6
6.1048 0.0803 -2.6813 0.4021 0 6
6.1038 0.1355 -2.6813 0.4021 0 6
6.1023 0.1907 -2.6813 0.4021 0 6
6.1003 0.2459 -2.6813 0.4021 0 6
6.0979 0.3011 -2.6813 0.4021 0 6
6.0949 0.3562 -2.6813 0.4021 0 6
6.0914 0.4113 -2.6813 0.4021 0 6
6.0875 0.4664 -2.6813 0.4021 0 6
6.0830 0.5215 -2.6813 0.4021 0 6
6.0780 0.5765 -2.6813 0.4021 0 6
6.0726 0.6315 -2.6813 0.4021 0 6
6.0666 0.6864 -2.6813 0.4021 0 6
6.0601 0.7412 -2.6813 0.4021 0 6
6.0532 0.7960 -2.6813 0.4021 0 6
6.0458 0.8507 -2.6813 0.4021 0 6
6.0378 0.9054 -2.6813 0.4021 0 6
6.0294 0.9600 -2.6813 0.4021 0 6
6.0204 1.0145 -2.6813 0.4021 0 6
6.0110 1.0689 -2.6813 0.4021 0 7
6.0011 1.1232 -2.6813 0.4021 0 6
5.9907 1.1775 -2.6813 0.4021 0 6
5.9798 1.2316 -2.6813 0.4021 0 6
5.9684 1.2857 -2.6813 0.4021 0 6
5.9565 1.3396 -2.6813 0.4021 0 6
5.9442 1.3934 -2.6813 0.4021 0 6
5.9313 1.4471 -2.6813 0.4021 0 6
5.9180 1.5007 -2.6813 0.4021 0 6
5.9042 1.5542 -2.6813 0.4021 0 6
5.8899 1.6076 -2.6813 0.4021 0 6
5.8751 1.6608 -2.6813 0.4021 0 7
5.8598 1.7139 -2.6813 0.4021 0 7
5.8441 1.7668 -2.6813 0.4021 0 7
5.8279 1.8196 -2.6813 0.4021 0 7
5.8112 1.8722 -2.6813 0.4021 0 7
5.7940 1.9247 -2.6813 0.4021 0 7
5.7763 1.9771 -2.6813 0.4021 0 7
5.7582 2.0292 -2.6813 0.4021 0 7
5.7396 2.0812 -2.6813 0.4021 0 7
5.7206 2.1331 -2.6813 0.4021 0 7
5.7010 2.1847 -2.6813 0.4021 0 6
5.6810 2.2362 -2.6813 0.4021 0 6
5.6606 2.2875 -2.6813 0.4021 0 6
5.6396 2.3386 -2.6813 0.4021 0 6
5.6182 2.3896 -2.6813 0.4021 0 6
5.5964 2.4403 -2.6813 0.4021 0 6
5.5741 2.4908 -2.6813 0.4021 0 6
5.5513 2.5412 -2.6813 0.4021 0 6
5.5281 2.5913 -2.6813 0.4021 0 6
5.5045 2.6412 -2.6813 0.4021 0 6
5.4804 2.6909 -2.6813 0.4021 0 7
5.4558 2.7403 -2.6813 0.4021 0 7
5.4308 2.7896 -2.6813 0.4021 0 7
5.4053 2.8386 -2.6813 0.4021 0 7
5.3794 2.8874 -2.6813 0.4021 0 7
5.3530 2.9359 -2.6813 0.4021 0 7
5.3263 2.9842 -2.6813 0.4021 0 7
5.2991 3.0323 -2.6813 0.4021 0 7
5.2714 3.0801 -2.6813 0.4021 0 7
5.2433 3.1276 -2.6813 0.4021 0 7
5.2148 3.1750 -2.6813 0.4021 0 7
5.1859 3.2220 -2.6813 0.4021 0 7
5.1565 3.2688 -2.6813 0.4021 0 7
5.1268 3.3153 -2.6813 0.4021 0 7
5.0966 3.3615 -2.6813 0.4021 0 7
5.0659 3.4075 -2.6813 0.4021 0 7
5.0349 3.4532 -2.6813 0.4021 0 7
5.0035 3.4986 -2.6813 0.4021 0 7
4.9712 3.5434 -2.6810 0.4144 0 8
4.9379 3.5875 -2.6805 0.4145 0 8
4.9043 3.6313 -2.6800 0.4146 0 8
4.8703 3.6748 -2.6794 0.4146 0 8
4.8359 3.7180 -2.6789 0.4147 0 8
4.8011 3.7608 -2.6784 0.4148 0 8
4.7660 3.8034 -2.6779 0.4149 0 8
4.7305 3.8456 -2.6774 0.4150 0 8
4.6946 3.8875 -2.6769 0.4150 0 8
4.6584 3.9291 -2.6764 0.4151 0 8
4.6219 3.9704 -2.6759 0.4156 0 8
4.5851 4.0114 -2.6755 0.4157 0 8
4.5479 4.0521 -2.6751 0.4157 0 8
4.5103 4.0924 -2.6746 0.4158 0 8
4.4724 4.1324 -2.6742 0.4159 0 8
4.4342 4.1721 -2.6738 0.4159 0 8
4.3856 4.2018 -2.6674 0.8820 0 8
4.3300 4.2244 -2.6567 0.8856 0 8
4.2749 4.2467 -2.6463 0.8891 0 8
4.2205 4.2693 -2.6365 0.9106 0 8
4.1682 4.2934 -2.6279 0.9135 0 8
4.1162 4.3172 -2.6197 0.9164 0 8
4.0645 4.3410 -2.6116 0.9192 0 8
4.0130 4.3645 -2.6038 0.9220 0 8
3.9619 4.3879 -2.5963 0.9247 0 8
3.9110 4.4111 -2.5890 0.9273 0 8
3.8603 4.4341 -2.5819 0.9298 0 8
3.8099 4.4570 -2.5751 0.9323 0 8
3.7602 4.4802 -2.5687 0.9470 0 8
3.7120 4.5049 -2.5635 0.9489 0 8
3.6639 4.5295 -2.5585 0.9508 0 8
3.6160 4.5539 -2.5537 0.9526 0 8
3.5683 4.5782 -2.5492 0.9543 0 8
3.5206 4.6024 -2.5448 0.9559 0 8
3.4732 4.6265 -2.5406 0.9575 0 8
3.4258 4.6505 -2.5367 0.9590 0 8
3.3798 4.6760 -2.5338 0.9225 0 8
3.3339 4.7014 -2.5312 0.9234 0 8
3.2889 4.7280 -2.5294 0.9291 0 8
3.2458 4.7574 -2.5293 0.4276 0 8
3.2029 4.7869 -2.5294 0.4275 0 8
3.1596 4.8160 -2.5296 0.4275 0 8
3.1162 4.8447 -2.5298 0.4275 0 8
3.0725 4.8731 -2.5300 0.4274 0 8
3.0285 4.9011 -2.5302 0.4274 0 8
2.9843 4.9287 -2.5304 0.4274 0 8
2.9399 4.9560 -2.5306 0.4273 0 8
2.8952 4.9829 -2.5309 0.4273 0 8
2.8503 5.0094 -2.5312 0.4273 0 8
2.8039 5.0331 -2.5303 0.4162 0 8
2.7571 5.0563 -2.5292 0.4164 0 8
2.7109 5.0803 -2.5289 0.4021 0 8
2.6648 5.1046 -2.5289 0.4021 0 8
2.6185 5.1285 -2.5289 0.4021 0 8
2.5720 5.1520 -2.5289 0.4021 0 8
2.5267 5.1780 -2.5303 0.9261 0 8
2.4820 5.2052 -2.5325 0.9254 0 8
2.4371 5.2323 -2.5349 0.9245 0 8
2.3923 5.2599 -2.5377 0.9619 0 8
2.3478 5.2887 -2.5412 0.9606 0 8
2.3033 5.3175 -2.5450 0.9592 0 8
2.2586 5.3464 -2.5489 0.9577 0 8
2.2137 5.3754 -2.5531 0.9561 0 8
2.1687 5.4044 -2.5574 0.9545 0 8
2.1236 5.4337 -2.5621 0.9397 0 8
2.0793 5.4658 -2.5682 0.9374 0 8
2.0348 5.4980 -2.5746 0.9351 0 8
1.9901 5.5303 -2.5812 0.9327 0 8
1.9451 5.5627 -2.5880 0.9302 0 8
1.8999 5.5953 -2.5951 0.9277 0 8
1.8544 5.6280 -2.6024 0.9251 0 8
1.8086 5.6609 -2.6099 0.9224 0 8
1.7625 5.6939 -2.6177 0.9197 0 8
1.7165 5.7280 -2.6261 0.9004 0 8
1.6706 5.7641 -2.6356 0.8971 0 8
1.6244 5.8005 -2.6454 0.8938 0 8
1.5779 5.8370 -2.6554 0.8904 0 8
1.5309 5.8738 -2.6658 0.8870 0 8
1.4821 5.9050 -2.6737 0.4160 0 8
1.4289 5.9191 -2.6741 0.4160 0 8
1.3755 5.9326 -2.6745 0.4159 0 8
1.3219 5.9458 -2.6750 0.4158 0 8
1.2683 5.9584 -2.6754 0.4154 0 8
1.2146 5.9707 -2.6759 0.4153 0 8
1.1607 5.9825 -2.6763 0.4152 0 8
1.1067 5.9938 -2.6768 0.4152 0 8
1.0526 6.0047 -2.6773 0.4151 0 8
0.9985 6.0151 -2.6778 0.4150 0 8
0.9442 6.0250 -2.6783 0.4149 0 8
0.8898 6.0344 -2.6788 0.4149 0 8
0.8354 6.0434 -2.6793 0.4148 0 8
0.7808 6.0519 -2.6798 0.4147 0 8
0.7262 6.0599 -2.6804 0.4146 0 8
0.6715 6.0675 -2.6809 0.4141 0 8
0.6167 6.0741 -2.6813 0.4021 0 7
0.5617 6.0794 -2.6813 0.4021 0 7
0.5066 6.0842 -2.6813 0.4021 0 7
0.4516 6.0886 -2.6813 0.4021 0 7
0.3965 6.0924 -2.6813 0.4021 0 7
0.3413 6.0957 -2.6813 0.4021 0 7
0.2862 6.0986 -2.6813 0.4021 0 7
0.2310 6.1009 -2.6813 0.4021 0 7
0.1758 6.1028 -2.6813 0.4021 0 7
0.1206 6.1041 -2.6813 0.4021 0 7
0.0654 6.1049 -2.6813 0.4021 0 7
0.0102 6.1053 -2.6813 0.4021 0 7
-0.0451 6.1051 -2.6813 0.4021 0 7
-0.1003 6.1045 -2.6813 0.4021 0 7
-0.1555 6.1033 -2.6813 0.4021 0 7
-0.2108 6.1017 -2.6813 0.4021 0 7
-0.2659 6.0995 -2.6813 0.4021 0 7
-0.3211 6.0968 -2.6813 0.4021 0 7
-0.3762 6.0937 -2.6813 0.4021 0 7
-0.4313 6.0900 -2.6813 0.4021 0 7
-0.4864 6.0859 -2.6813 0.4021 0 7
-0.5415 6.0812 -2.6813 0.4021 0 7
-0.5964 6.0761 -2.6813 0.4021 0 7
-0.6514 6.0704 -2.6813 0.4021 0 7
-0.7063 6.0643 -2.6813 0.4021 0 7
-0.7611 6.0577 -2.6813 0.4021 0 7
-0.8159 6.0505 -2.6813 0.4021 0 7
-0.8706 6.0429 -2.6813 0.4021 0 7
-0.9252 6.0348 -2.6813 0.4021 0 7
-0.9798 6.0262 -2.6813 0.4021 0 7
-1.0342 6.0171 -2.6813 0.4021 0 7
-1.0886 6.0075 -2.6813 0.4021 0 7
-1.1429 5.9974 -2.6813 0.4021 0 7
-1.1971 5.9868 -2.6813 0.4021 0 7
-1.2513 5.9757 -2.6813 0.4021 0 7
-1.3053 5.9641 -2.6813 0.4021 0 7
-1.3592 5.9521 -2.6813 0.4021 0 7
-1.4129 5.9395 -2.6813 0.4021 0 7
-1.4666 5.9265 -2.6813 0.4021 0 7
-1.5201 5.9130 -2.6813 0.4021 0 7
-1.5736 5.8990 -2.6813 0.4021 0 7
-1.6269 5.8845 -2.6813 0.4021 0 7
-1.6801 5.8696 -2.6813 0.4021 0 7
-1.7331 5.8541 -2.6813 0.4021 0 7
-1.7860 5.8382 -2.6813 0.4021 0 7
-1.8387 5.8218 -2.6813 0.4021 0 7
-1.8913 5.8050 -2.6813 0.4021 0 7
-1.9437 5.7876 -2.6813 0.4021 0 7
-1.9960 5.7698 -2.6813 0.4021 0 7
-2.0481 5.7515 -2.6813 0.4021 0 7
-2.1001 5.7327 -2.6813 0.4021 0 7
-2.1519 5.7135 -2.6813 0.4021 0 7
-2.2034 5.6938 -2.6813 0.4021 0 7
-2.2549 5.6736 -2.6813 0.4021 0 7
-2.3061 5.6530 -2.6813 0.4021 0 7
-2.3571 5.6319 -2.6813 0.4021 0 7
-2.4080 5.6104 -2.6813 0.4021 0 7
-2.4587 5.5883 -2.6813 0.4021 0 7
-2.5091 5.5659 -2.6813 0.4021 0 7
-2.5594 5.5429 -2.6813 0.4021 0 7
-2.6094 5.5196 -2.6813 0.4021 0 7
-2.6592 5.4957 -2.6813 0.4021 0 7
-2.7088 5.4714 -2.6813 0.4021 0 7
-2.7582 5.4467 -2.6813 0.4021 0 7
-2.8074 5.4215 -2.6813 0.4021 0 7
-2.8563 5.3959 -2.6813 0.4021 0 7
-2.9050 5.3699 -2.6813 0.4021 0 7
-2.9535 5.3434 -2.6813 0.4021 0 7
-3.0017 5.3164 -2.6813 0.4021 0 7
-3.0496 5.2891 -2.6813 0.4021 0 7
-3.0974 5.2613 -2.6813 0.4021 0 7
-3.1448 5.2330 -2.6813 0.4021 0 7
-3.1920 5.2044 -2.6813 0.4021 0 7
-3.2390 5.1753 -2.6813 0.4021 0 7
-3.2857 5.1458 -2.6813 0.4021 0 7
-3.3321 5.1158 -2.6813 0.4021 0 7
-3.3783 5.0855 -2.6813 0.4021 0 7
-3.4241 5.0547 -2.6813 0.4021 0 7
-3.4697 5.0235 -2.6813 0.4021 0 7
-3.5150 4.9919 -2.6813 0.4021 0 7
-3.5600 4.9599 -2.6813 0.4021 0 7
-3.6047 4.9275 -2.6813 0.4021 0 7
-3.6492 4.8947 -2.6813 0.4021 0 7
-3.6933 4.8615 -2.6813 0.4021 0 7
-3.7371 4.8279 -2.6813 0.4021 0 7
-3.7807 4.7939 -2.6813 0.4021 0 7
-3.8239 4.7595 -2.6813 0.4021 0 7
-3.8668 4.7247 -2.6813 0.4021 0 7
-3.9093 4.6895 -2.6813 0.4021 0 7
-3.9516 4.6540 -2.6813 0.4021 0 7
-3.9935 4.6180 -2.6813 0.4021 0 7
-4.0352 4.5817 -2.6813 0.4021 0 7
-4.0764 4.5450 -2.6813 0.4021 0 7
-4.1174 4.5079 -2.6813 0.4021 0 7
-4.1580 4.4705 -2.6813 0.4021 0 7
-4.1983 4.4327 -2.6813 0.4021 0 7
-4.2382 4.3946 -2.6813 0.4021 0 7
-4.2778 4.3560 -2.6813 0.4021 0 7
-4.3170 4.3172 -2.6813 0.4021 0 7
-4.3559 4.2779 -2.6813 0.4021 0 7
-4.3944 4.2383 -2.6813 0.4021 0 7
-4.4326 4.1984 -2.6813 0.4021 0 7
-4.4704 4.1581 -2.6813 0.4021 0 7
-4.5078 4.1175 -2.6813 0.4021 0 7
-4.5449 4.0766 -2.6813 0.4021 0 7
-4.5815 4.0353 -2.6813 0.4021 0 7
-4.6179 3.9937 -2.6813 0.4021 0 7
-4.6538 3.9518 -2.6813 0.4021 0 7
-4.6894 3.9095 -2.6813 0.4021 0 7
-4.7246 3.8669 -2.6813 0.4021 0 7
-4.7594 3.8240 -2.6813 0.4021 0 7
-4.7937 3.7808 -2.6813 0.4021 0 7
-4.8277 3.7373 -2.6813 0.4021 0 7
-4.8614 3.6935 -2.6813 0.4021 0 7
-4.8946 3.6493 -2.6813 0.4021 0 7
-4.9274 3.6049 -2.6813 0.4021 0 7
-4.9598 3.5602 -2.6813 0.4021 0 7
-4.9918 3.5152 -2.6813 0.4021 0 7
-5.0234 3.4699 -2.6813 0.4021 0 7
-5.0546 3.4243 -2.6813 0.4021 0 7
-5.0853 3.3784 -2.6813 0.4021 0 7
-5.1157 3.3323 -2.6813 0.4021 0 7
-5.1456 3.2859 -2.6813 0.4021 0 7
-5.1751 3.2392 -2.6813 0.4021 0 7
-5.2042 3.1922 -2.6813 0.4021 0 7
-5.2329 3.1450 -2.6813 0.4021 0 7
-5.2612 3.0975 -2.6813 0.4021 0 7
-5.2889 3.0498 -2.6813 0.4021 0 7
-5.3163 3.0019 -2.6813 0.4021 0 7
-5.3433 2.9536 -2.6813 0.4021 0 7
-5.3698 2.9052 -2.6813 0.4021 0 7
-5.3958 2.8565 -2.6813 0.4021 0 7
-5.4215 2.8076 -2.6813 0.4021 0 7
-5.4466 2.7584 -2.6813 0.4021 0 7
-5.4714 2.7090 -2.6813 0.4021 0 7
-5.4956 2.6594 -2.6813 0.4021 0 7
-5.5195 2.6096 -2.6813 0.4021 0 7
-5.5429 2.5595 -2.6813 0.4021 0 7
-5.5658 2.5093 -2.6813 0.4021 0 7
-5.5883 2.4588 -2.6813 0.4021 0 7
-5.6103 2.4082 -2.6813 0.4021 0 7
-5.6318 2.3573 -2.6813 0.4021 0 7
-5.6529 2.3063 -2.6813 0.4021 0 7
-5.6736 2.2551 -2.6813 0.4021 0 7
-5.6937 2.2037 -2.6813 0.4021 0 7
-5.7134 2.1521 -2.6813 0.4021 0 7
-5.7327 2.1003 -2.6813 0.4021 0 7
-5.7514 2.0483 -2.6813 0.4021 0 7
-5.7697 1.9962 -2.6813 0.4021 0 7
-5.7875 1.9439 -2.6813 0.4021 0 7
-5.8049 1.8915 -2.6813 0.4021 0 7
-5.8218 1.8389 -2.6813 0.4021 0 7
-5.8382 1.7862 -2.6813 0.4021 0 7
-5.8541 1.7333 -2.6813 0.4021 0 7
-5.8695 1.6803 -2.6813 0.4021 0 7
-5.8845 1.6271 -2.6813 0.4021 0 7
-5.8989 1.5738 -2.6813 0.4021 0 7
-5.9129 1.5204 -2.6813 0.4021 0 7
-5.9265 1.4668 -2.6813 0.4021 0 7
-5.9395 1.4131 -2.6813 0.4021 0 7
-5.9520 1.3594 -2.6813 0.4021 0 7
-5.9641 1.3055 -2.6813 0.4021 0 7
-5.9757 1.2514 -2.6813 0.4021 0 7
-5.9867 1.1973 -2.6813 0.4021 0 7
-5.9973 1.1431 -2.6813 0.4021 0 7
-6.0074 1.0888 -2.6813 0.4021 0 7
-6.0170 1.0344 -2.6813 0.4021 0 7
-6.0261 0.9800 -2.6813 0.4021 0 7
-6.0347 0.9254 -2.6813 0.4021 0 7
-6.0429 0.8708 -2.6813 0.4021 0 7
-6.0505 0.8161 -2.6813 0.4021 0 7
-6.0576 0.7613 -2.6813 0.4021 0 7
-6.0643 0.7065 -2.6813 0.4021 0 7
-6.0704 0.6516 -2.6813 0.4021 0 7
-6.0760 0.5966 -2.6813 0.4021 0 7
-6.0812 0.5417 -2.6813 0.4021 0 7
-6.0858 0.4866 -2.6813 0.4021 0 7
-6.0900 0.4316 -2.6813 0.4021 0 7
-6.0937 0.3764 -2.6813 0.4021 0 7
-6.0968 0.3213 -2.6813 0.4021 0 7
-6.0995 0.2661 -2.6813 0.4021 0 7
-6.1016 0.2109 -2.6813 0.4021 0 7
-6.1033 0.1557 -2.6813 0.4021 0 7
-6.1045 0.1005 -2.6813 0.4021 0 7
-6.1051 0.0453 -2.6813 0.4021 0 7
-6.1053 -0.0099 -2.6813 0.4021 0 7
-6.1049 -0.0652 -2.6813 0.4021 0 7
-6.1041 -0.1204 -2.6813 0.4021 0 7
-6.1028 -0.1756 -2.6813 0.4021 0 7
-6.1009 -0.2308 -2.6813 0.4021 0 7
-6.0986 -0.2860 -2.6813 0.4021 0 7
-6.0957 -0.3412 -2.6813 0.4021 0 7
-6.0924 -0.3963 -2.6813 0.4021 0 7
-6.0886 -0.4514 -2.6813 0.4021 0 7
-6.0842 -0.5064 -2.6813 0.4021 0 7
-6.0794 -0.5615 -2.6813 0.4021 0 7
-6.0741 -0.6164 -2.6813 0.4021 0 7
-6.0683 -0.6714 -2.6813 0.4021 0 7
-6.0619 -0.7262 -2.6813 0.4021 0 7
-6.0551 -0.7810 -2.6813 0.4021 0 7
-6.0478 -0.8358 -2.6813 0.4021 0 7
-6.0400 -0.8905 -2.6813 0.4021 0 7
-6.0317 -0.9451 -2.6813 0.4021 0 7
-6.0229 -0.9996 -2.6813 0.4021 0 7
-6.0136 -1.0540 -2.6813 0.4021 0 7
-6.0038 -1.1084 -2.6813 0.4021 0 7
-5.9936 -1.1627 -2.6813 0.4021 0 7
-5.9828 -1.2168 -2.6813 0.4021 0 7
-5.9715 -1.2709 -2.6813 0.4021 0 7
-5.9598 -1.3249 -2.6813 0.4021 0 7
-5.9476 -1.3787 -2.6813 0.4021 0 7
-5.9348 -1.4325 -2.6813 0.4021 0 7
-5.9216 -1.4861 -2.6813 0.4021 0 7
-5.9079 -1.5396 -2.6813 0.4021 0 7
-5.8938 -1.5930 -2.6813 0.4021 0 7
-5.8792 -1.6462 -2.6813 0.4021 0 7
-5.8640 -1.6994 -2.6813 0.4021 0 7
-5.8484 -1.7523 -2.6813 0.4021 0 7
-5.8323 -1.8052 -2.6813 0.4021 0 7
-5.8157 -1.8579 -2.6813 0.4021 0 7
-5.7987 -1.9104 -2.6813 0.4021 0 7
-5.7812 -1.9628 -2.6813 0.4021 0 7
-5.7632 -2.0150 -2.6813 0.4021 0 7
-5.7447 -2.0670 -2.6813 0.4021 0 7
-5.7258 -2.1189 -2.6813 0.4021 0 7
5.7500 0.0000 -2.6813 0.4226 0 7
5.7498 0.0520 -2.6813 0.4226 0 7
5.7491 0.1040 -2.6813 0.4226 0 6
5.7479 0.1560 -2.6813 0.4226 0 6
5.7462 0.2080 -2.6813 0.4226 0 6
5.7441 0.2600 -2.6813 0.4226 0 6
5.7415 0.3119 -2.6813 0.4226 0 6
5.7385 0.3639 -2.6813 0.4226 0 6
5.7350 0.4158 -2.6813 0.4226 0 6
5.7310 0.4676 -2.6813 0.4226 0 6
5.7265 0.5195 -2.6813 0.4226 0 6
5.7216 0.5712 -2.6813 0.4226 0 6
5.7162 0.6230 -2.6813 0.4226 0 7
5.7103 0.6747 -2.6813 0.4226 0 7
5.7040 0.7263 -2.6813 0.4226 0 7
5.6971 0.7779 -2.6813 0.4226 0 7
5.6899 0.8294 -2.6813 0.4226 0 7
5.6822 0.8808 -2.6813 0.4226 0 7
5.6739 0.9322 -2.6813 0.4226 0 7
5.6653 0.9835 -2.6813 0.4226 0 7
5.6561 1.0347 -2.6813 0.4226 0 7
5.6466 1.0858 -2.6813 0.4226 0 7
5.6365 1.1368 -2.6813 0.4226 0 7
5.6260 1.1878 -2.6813 0.4226 0 6
5.6150 1.2386 -2.6813 0.4226 0 6
5.6036 1.2894 -2.6813 0.4226 0 6
5.5917 1.3400 -2.6813 0.4226 0 6
5.5793 1.3905 -2.6813 0.4226 0 6
5.5665 1.4410 -2.6813 0.4226 0 6
5.5533 1.4912 -2.6813 0.4226 0 6
5.5396 1.5414 -2.6813 0.4226 0 6
5.5254 1.5915 -2.6813 0.4226 0 6
5.5108 1.6414 -2.6813 0.4226 0 6
5.4957 1.6912 -2.6813 0.4226 0 7
5.4802 1.7408 -2.6813 0.4226 0 7
5.4642 1.7903 -2.6813 0.4226 0 7
5.4478 1.8397 -2.6813 0.4226 0 7
5.4309 1.8889 -2.6813 0.4226 0 7
5.4136 1.9379 -2.6813 0.4226 0 7
5.3958 1.9868 -2.6813 0.4226 0 7
5.3777 2.0356 -2.6813 0.4226 0 7
5.3590 2.0841 -2.6813 0.4226 0 7
5.3399 2.1325 -2.6813 0.4226 0 7
5.3204 2.1807 -2.6813 0.4226 0 7
5.3005 2.2288 -2.6813 0.4226 0 6
5.2801 2.2766 -2.6813 0.4226 0 6
5.2593 2.3243 -2.6813 0.4226 0 6
5.2380 2.3718 -2.6813 0.4226 0 6
5.2164 2.4191 -2.6813 0.4226 0 6
5.1943 2.4662 -2.6813 0.4226 0 6
5.1717 2.5131 -2.6813 0.4226 0 6
5.1488 2.5598 -2.6813 0.4226 0 6
5.1254 2.6062 -2.6813 0.4226 0 6
5.1017 2.6525 -2.6813 0.4226 0 6
5.0774 2.6985 -2.6813 0.4226 0 6
5.0528 2.7444 -2.6813 0.4226 0 7
5.0278 2.7899 -2.6813 0.4226 0 7
5.0024 2.8353 -2.6813 0.4226 0 7
4.9765 2.8805 -2.6813 0.4226 0 7
4.9503 2.9254 -2.6813 0.4226 0 7
4.9236 2.9700 -2.6813 0.4226 0 7
4.8965 3.0144 -2.6813 0.4226 0 7
4.8691 3.0586 -2.6813 0.4226 0 7
4.8412 3.1025 -2.6813 0.4226 0 7
4.8129 3.1462 -2.6813 0.4226 0 7
4.7842 3.1896 -2.6813 0.4226 0 7
4.7552 3.2328 -2.6813 0.4226 0 7
4.7258 3.2756 -2.6813 0.4226 0 7
4.6959 3.3183 -2.6813 0.4226 0 7
4.6657 3.3606 -2.6813 0.4226 0 7
4.6351 3.4027 -2.6813 0.4226 0 7
4.6042 3.4445 -2.6813 0.4226 0 7
4.5728 3.4860 -2.6813 0.4226 0 7
4.5411 3.5272 -2.6813 0.4226 0 7
4.5090 3.5681 -2.6813 0.4226 0 7
4.4765 3.6088 -2.6813 0.4226 0 7
4.4437 3.6491 -2.6813 0.4226 0 7
4.4105 3.6892 -2.6813 0.4226 0 7
4.3769 3.7288 -2.6812 0.4359 0 8
4.3423 3.7677 -2.6808 0.4360 0 8
4.3074 3.8062 -2.6804 0.4361 0 8
4.2721 3.8445 -2.6800 0.4361 0 8
4.2365 3.8824 -2.6796 0.4362 0 8
4.2006 3.9200 -2.6792 0.4363 0 8
4.1644 3.9573 -2.6788 0.4363 0 8
4.1279 3.9942 -2.6784 0.4364 0 8
4.0911 4.0309 -2.6781 0.4368 0 8
4.0539 4.0673 -2.6778 0.4368 0 8
4.0165 4.1033 -2.6775 0.4369 0 8
3.9788 4.1390 -2.6772 0.4369 0 8
3.9407 4.1743 -2.6769 0.4370 0 8
3.9024 4.2094 -2.6766 0.4370 0 8
3.8637 4.2440 -2.6763 0.4371 0 8
3.8248 4.2784 -2.6760 0.4371 0 8
3.7855 4.3124 -2.6758 0.4372 0 8
3.7460 4.3460 -2.6755 0.4372 0 8
3.7062 4.3793 -2.6753 0.4375 0 8
3.6662 4.4123 -2.6751 0.4375 0 8
3.6258 4.4450 -2.6749 0.4375 0 8
3.5852 4.4773 -2.6747 0.4375 0 8
3.5443 4.5092 -2.6745 0.4376 0 8
3.5032 4.5408 -2.6743 0.4376 0 8
3.4617 4.5720 -2.6741 0.4376 0 8
3.4200 4.6029 -2.6740 0.4377 0 8
3.3780 4.6334 -2.6738 0.4377 0 8
3.3358 4.6635 -2.6737 0.4377 0 8
3.2910 4.6899 -2.6716 0.9640 0 8
3.2459 4.7159 -2.6696 0.9648 0 8
3.2010 4.7418 -2.6678 0.9654 0 8
3.1560 4.7677 -2.6662 0.9660 0 8
3.1111 4.7935 -2.6647 0.9665 0 8
3.0662 4.8192 -2.6635 0.9670 0 8
3.0213 4.8449 -2.6625 0.9673 0 8
2.9765 4.8706 -2.6617 0.9676 0 8
2.9316 4.8962 -2.6611 0.9678 0 8
2.8867 4.9217 -2.6607 0.9680 0 8
2.8419 4.9473 -2.6605 0.9681 0 8
2.7970 4.9728 -2.6605 0.9681 0 8
2.7521 4.9982 -2.6607 0.9680 0 8
2.7072 5.0236 -2.6610 0.9679 0 8
2.6635 5.0515 -2.6629 0.9634 0 8
2.6200 5.0799 -2.6653 0.9626 0 8
2.5765 5.1083 -2.6679 0.9616 0 8
2.5328 5.1368 -2.6707 0.9606 0 8
2.4890 5.1653 -2.6736 0.4378 0 8
2.4423 5.1878 -2.6738 0.4378 0 8
2.3953 5.2099 -2.6739 0.4377 0 8
2.3482 5.2316 -2.6740 0.4377 0 8
2.3010 5.2530 -2.6742 0.4377 0 8
2.2535 5.2739 -2.6743 0.4377 0 8
2.2058 5.2943 -2.6745 0.4376 0 8
2.1579 5.3144 -2.6747 0.4376 0 8
2.1099 5.3341 -2.6748 0.4376 0 8
2.0617 5.3533 -2.6750 0.4373 0 8
2.0134 5.3722 -2.6753 0.4373 0 8
1.9649 5.3907 -2.6755 0.4372 0 8
1.9162 5.4088 -2.6758 0.4372 0 8
1.8674 5.4264 -2.6760 0.4372 0 8
1.8184 5.4436 -2.6763 0.4371 0 8
1.7693 5.4604 -2.6766 0.4371 0 8
1.7200 5.4768 -2.6768 0.4370 0 8
1.6705 5.4927 -2.6771 0.4370 0 8
1.6210 5.5082 -2.6774 0.4369 0 8
1.5712 5.5233 -2.6777 0.4366 0 8
1.5214 5.5380 -2.6781 0.4365 0 8
1.4715 5.5523 -2.6784 0.4365 0 8
1.4214 5.5661 -2.6788 0.4364 0 8
1.3711 5.5795 -2.6792 0.4364 0 8
1.3208 5.5925 -2.6796 0.4363 0 8
1.2703 5.6050 -2.6800 0.4362 0 8
1.2198 5.6171 -2.6803 0.4362 0 8
1.1691 5.6288 -2.6807 0.4361 0 8
1.1183 5.6400 -2.6812 0.4360 0 8
1.0673 5.6501 -2.6813 0.4226 0 7
1.0161 5.6595 -2.6813 0.4226 0 7
0.9649 5.6685 -2.6813 0.4226 0 7
0.9135 5.6770 -2.6813 0.4226 0 7
0.8621 5.6850 -2.6813 0.4226 0 7
0.8107 5.6926 -2.6813 0.4226 0 7
0.7591 5.6997 -2.6813 0.4226 0 7
0.7076 5.7063 -2.6813 0.4226 0 7
0.6559 5.7125 -2.6813 0.4226 0 7
0.6042 5.7182 -2.6813 0.4226 0 7
0.5525 5.7234 -2.6813 0.4226 0 7
0.5007 5.7282 -2.6813 0.4226 0 7
0.4488 5.7325 -2.6813 0.4226 0 7
0.3969 5.7363 -2.6813 0.4226 0 7
0.3450 5.7396 -2.6813 0.4226 0 7
0.2931 5.7425 -2.6813 0.4226 0 7
0.2411 5.7449 -2.6813 0.4226 0 7
0.1891 5.7469 -2.6813 0.4226 0 7
0.1372 5.7484 -2.6813 0.4226 0 7
0.0851 5.7494 -2.6813 0.4226 0 7
0.0331 5.7499 -2.6813 0.4226 0 7
-0.0189 5.7500 -2.6813 0.4226 0 7
-0.0709 5.7496 -2.6813 0.4226 0 7
-0.1229 5.7487 -2.6813 0.4226 0 7
-0.1749 5.7473 -2.6813 0.4226 0 7
-0.2269 5.7455 -2.6813 0.4226 0 7
-0.2789 5.7432 -2.6813 0.4226 0 7
-0.3308 5.7405 -2.6813 0.4226 0 7
-0.3827 5.7372 -2.6813 0.4226 0 7
-0.4346 5.7335 -2.6813 0.4226 0 7
-0.4864 5.7294 -2.6813 0.4226 0 7
-0.5383 5.7247 -2.6813 0.4226 0 7
-0.5900 5.7196 -2.6813 0.4226 0 7
-0.6417 5.7141 -2.6813 0.4226 0 7
-0.6934 5.7080 -2.6813 0.4226 0 7
-0.7450 5.7015 -2.6813 0.4226 0 7
-0.7966 5.6945 -2.6813 0.4226 0 7
-0.8481 5.6871 -2.6813 0.4226 0 7
-0.8994 5.6792 -2.6813 0.4226 0 7
-0.9508 5.6708 -2.6813 0.4226 0 7
-1.0021 5.6620 -2.6813 0.4226 0 7
-1.0532 5.6527 -2.6813 0.4226 0 7
-1.1043 5.6429 -2.6813 0.4226 0 7
-1.1554 5.6327 -2.6813 0.4226 0 7
-1.2062 5.6220 -2.6813 0.4226 0 7
-1.2571 5.6109 -2.6813 0.4226 0 7
-1.3078 5.5993 -2.6813 0.4226 0 7
-1.3584 5.5872 -2.6813 0.4226 0 7
-1.4088 5.5747 -2.6813 0.4226 0 7
-1.4592 5.5617 -2.6813 0.4226 0 7
-1.5095 5.5483 -2.6813 0.4226 0 7
-1.5596 5.5344 -2.6813 0.4226 0 7
-1.6096 5.5201 -2.6813 0.4226 0 7
-1.6595 5.5053 -2.6813 0.4226 0 7
-1.7092 5.4901 -2.6813 0.4226 0 7
-1.7588 5.4744 -2.6813 0.4226 0 7
-1.8082 5.4583 -2.6813 0.4226 0 7
-1.8576 5.4417 -2.6813 0.4226 0 7
-1.9067 5.4246 -2.6813 0.4226 0 7
-1.9557 5.4072 -2.6813 0.4226 0 7
-2.0046 5.3893 -2.6813 0.4226 0 7
-2.0532 5.3709 -2.6813 0.4226 0 7
-2.1017 5.3521 -2.6813 0.4226 0 7
-2.1500 5.3329 -2.6813 0.4226 0 7
-2.1982 5.3132 -2.6813 0.4226 0 7
-2.2462 5.2931 -2.6813 0.4226 0 7
-2.2940 5.2726 -2.6813 0.4226 0 7
-2.3416 5.2516 -2.6813 0.4226 0 7
-2.3890 5.2302 -2.6813 0.4226 0 7
-2.4362 5.2084 -2.6813 0.4226 0 7
-2.4832 5.1861 -2.6813 0.4226 0 7
-2.5300 5.1635 -2.6813 0.4226 0 7
-2.5766 5.1404 -2.6813 0.4226 0 7
-2.6230 5.1168 -2.6813 0.4226 0 7
-2.6692 5.0929 -2.6813 0.4226 0 7
-2.7152 5.0685 -2.6813 0.4226 0 7
-2.7609 5.0438 -2.6813 0.4226 0 7
-2.8065 5.0186 -2.6813 0.4226 0 7
-2.8517 4.9930 -2.6813 0.4226 0 7
-2.8968 4.9670 -2.6813 0.4226 0 7
-2.9416 4.9406 -2.6813 0.4226 0 7
