ply
format ascii 1.0
element vertex 1376
property float32 x
property float32 y
property float32 z
property float32 CosAngle
property uint32 ObjIdx
property uint32 ObjTag
end_header
14.4131 -8.4312 -2.7991 0.1653 0 7
14.4888 -8.3005 -2.7991 0.1653 0 7
14.5633 -8.1691 -2.7991 0.1653 0 7
14.6366 -8.0370 -2.7991 0.1653 0 7
14.7087 -7.9043 -2.7991 0.1653 0 7
14.7796 -7.7709 -2.7991 0.1653 0 7
14.8493 -7.6368 -2.7991 0.1653 0 7
14.9178 -7.5022 -2.7991 0.1653 0 7
14.9850 -7.3669 -2.7991 0.1653 0 7
15.0510 -7.2310 -2.7991 0.1653 0 6
15.1159 -7.0946 -2.7991 0.1653 0 7
15.1794 -6.9576 -2.7991 0.1653 0 7
15.2417 -6.8199 -2.7991 0.1653 0 7
15.3028 -6.6818 -2.7991 0.1653 0 7
15.3626 -6.5431 -2.7991 0.1653 0 7
15.4212 -6.4038 -2.7991 0.1653 0 7
15.4785 -6.2640 -2.7991 0.1653 0 7
15.5345 -6.1237 -2.7991 0.1653 0 7
15.5893 -5.9830 -2.7991 0.1653 0 7
15.6428 -5.8417 -2.7991 0.1653 0 7
15.6950 -5.6999 -2.7991 0.1653 0 7
15.7459 -5.5577 -2.7991 0.1653 0 7
15.7956 -5.4150 -2.7991 0.1653 0 6
15.8439 -5.2719 -2.7991 0.1653 0 7
15.8910 -5.1283 -2.7991 0.1653 0 7
15.9367 -4.9844 -2.7991 0.1653 0 7
15.9811 -4.8400 -2.7991 0.1653 0 7
16.0243 -4.6952 -2.7991 0.1653 0 7
16.0661 -4.5500 -2.7991 0.1653 0 7
16.1066 -4.4045 -2.7991 0.1653 0 7
16.1458 -4.2586 -2.7991 0.1653 0 7
16.1837 -4.1124 -2.7991 0.1653 0 7
16.2202 -3.9658 -2.7991 0.1653 0 7
16.2554 -3.8189 -2.7991 0.1653 0 7
16.2893 -3.6717 -2.7991 0.1653 0 7
16.3218 -3.5242 -2.7991 0.1653 0 7
16.3531 -3.3763 -2.7991 0.1653 0 6
16.3829 -3.2283 -2.7991 0.1653 0 7
16.4115 -3.0799 -2.7991 0.1653 0 7
16.4387 -2.9313 -2.7991 0.1653 0 7
16.4645 -2.7825 -2.7991 0.1653 0 7
16.4890 -2.6334 -2.7991 0.1653 0 7
16.5122 -2.4841 -2.7991 0.1653 0 7
16.5340 -2.3346 -2.7991 0.1653 0 7
16.5544 -2.1850 -2.7991 0.1653 0 7
16.5735 -2.0351 -2.7991 0.1653 0 7
16.5912 -1.8851 -2.7991 0.1653 0 7
16.6076 -1.7349 -2.7991 0.1653 0 7
16.6226 -1.5846 -2.7991 0.1653 0 7
16.6363 -1.4342 -2.7991 0.1653 0 6
16.6486 -1.2836 -2.7991 0.1653 0 7
16.6595 -1.1329 -2.7991 0.1653 0 7
16.6691 -0.9822 -2.7991 0.1653 0 7
16.6773 -0.8313 -2.7991 0.1653 0 7
16.6841 -0.6804 -2.7991 0.1653 0 7
16.6896 -0.5294 -2.7991 0.1653 0 7
16.6937 -0.3784 -2.7991 0.1653 0 7
16.6964 -0.2274 -2.7991 0.1653 0 7
16.6978 -0.0763 -2.7991 0.1653 0 7
16.6978 0.0748 -2.7991 0.1653 0 7
16.6964 0.2258 -2.7991 0.1653 0 7
16.6937 0.3769 -2.7991 0.1653 0 7
16.6896 0.5279 -2.7991 0.1653 0 6
16.6842 0.6788 -2.7991 0.1653 0 7
16.6773 0.8297 -2.7991 0.1653 0 7
16.6692 0.9806 -2.7991 0.1653 0 7
16.6596 1.1314 -2.7991 0.1653 0 7
16.6487 1.2820 -2.7991 0.1653 0 7
16.6364 1.4326 -2.7991 0.1653 0 7
16.6228 1.5830 -2.7991 0.1653 0 7
16.6078 1.7333 -2.7991 0.1653 0 7
16.5914 1.8835 -2.7991 0.1653 0 7
16.5737 2.0335 -2.7991 0.1653 0 7
16.5546 2.1834 -2.7991 0.1653 0 7
16.5342 2.3331 -2.7991 0.1653 0 7
16.5124 2.4826 -2.7991 0.1653 0 7
16.4893 2.6319 -2.7991 0.1653 0 6
16.4648 2.7809 -2.7991 0.1653 0 7
16.4389 2.9298 -2.7991 0.1653 0 7
16.4118 3.0784 -2.7991 0.1653 0 7
16.3832 3.2267 -2.7991 0.1653 0 7
16.3534 3.3748 -2.7991 0.1653 0 7
16.3222 3.5226 -2.7991 0.1653 0 6
16.2896 3.6701 -2.7991 0.1653 0 6
16.2558 3.8173 -2.7991 0.1653 0 7
16.2206 3.9643 -2.7991 0.1653 0 7
16.1840 4.1108 -2.7991 0.1653 0 7
16.1462 4.2571 -2.7991 0.1653 0 7
16.1070 4.4030 -2.7991 0.1653 0 7
16.0665 4.5485 -2.7991 0.1653 0 7
16.0247 4.6937 -2.7991 0.1653 0 7
15.9816 4.8385 -2.7991 0.1653 0 7
15.9372 4.9829 -2.7991 0.1653 0 7
15.8914 5.1268 -2.7991 0.1653 0 7
15.8444 5.2704 -2.7991 0.1653 0 7
15.7961 5.4135 -2.7991 0.1653 0 7
15.7464 5.5562 -2.7991 0.1653 0 7
15.6955 5.6984 -2.7991 0.1653 0 7
15.6433 5.8402 -2.7991 0.1653 0 7
15.5899 5.9815 -2.7991 0.1653 0 7
15.5351 6.1223 -2.7991 0.1653 0 7
15.4791 6.2626 -2.7991 0.1653 0 7
15.4218 6.4023 -2.7991 0.1653 0 7
15.3633 6.5416 -2.7991 0.1653 0 7
15.3034 6.6803 -2.7991 0.1653 0 7
15.2424 6.8185 -2.7991 0.1653 0 7
15.1801 6.9561 -2.7991 0.1653 0 7
15.1165 7.0932 -2.7991 0.1653 0 7
15.0517 7.2296 -2.7991 0.1653 0 7
14.9857 7.3655 -2.7991 0.1653 0 7
14.9185 7.5008 -2.7991 0.1653 0 7
14.8500 7.6354 -2.7991 0.1653 0 7
14.7803 7.7695 -2.7991 0.1653 0 7
14.7094 7.9029 -2.7991 0.1653 0 7
14.6373 8.0356 -2.7991 0.1653 0 7
14.5640 8.1677 -2.7991 0.1653 0 7
14.4895 8.2991 -2.7991 0.1653 0 7
14.4139 8.4299 -2.7991 0.1653 0 7
14.3370 8.5600 -2.7991 0.1653 0 7
14.2590 8.6893 -2.7991 0.1653 0 7
14.1798 8.8179 -2.7991 0.1653 0 7
14.0994 8.9459 -2.7991 0.1653 0 7
14.0179 9.0730 -2.7991 0.1653 0 7
13.9353 9.1995 -2.7991 0.1653 0 7
13.8515 9.3252 -2.7991 0.1653 0 7
13.7665 9.4501 -2.7991 0.1653 0 7
13.6805 9.5743 -2.7991 0.1653 0 7
13.5933 9.6977 -2.7991 0.1653 0 7
13.5050 9.8202 -2.7991 0.1653 0 7
13.4156 9.9420 -2.7991 0.1653 0 7
13.3251 10.0630 -2.7991 0.1653 0 7
13.2335 10.1831 -2.7991 0.1653 0 7
13.1409 10.3024 -2.7991 0.1653 0 7
13.0471 10.4209 -2.7991 0.1653 0 7
12.9523 10.5385 -2.7991 0.1653 0 7
12.8564 10.6552 -2.7991 0.1653 0 7
12.7508 10.7637 -2.7972 0.1648 0 8
12.6413 10.8687 -2.7946 0.1650 0 8
12.5309 10.9725 -2.7921 0.1651 0 8
11.7840 10.5083 -2.6467 0.1653 0 8
11.6884 10.6145 -2.6467 0.1653 0 8
11.5919 10.7198 -2.6467 0.1653 0 8
11.4945 10.8242 -2.6467 0.1653 0 8
11.3961 10.9278 -2.6467 0.1653 0 8
11.2968 11.0304 -2.6467 0.1653 0 8
11.1965 11.1322 -2.6467 0.1653 0 8
11.0953 11.2330 -2.6467 0.1653 0 8
10.9933 11.3329 -2.6467 0.1653 0 8
10.8903 11.4319 -2.6467 0.1653 0 8
10.7864 11.5300 -2.6467 0.1653 0 8
10.6817 11.6271 -2.6467 0.1653 0 8
10.5760 11.7233 -2.6467 0.1653 0 8
10.4695 11.8185 -2.6467 0.1653 0 8
10.3622 11.9127 -2.6467 0.1653 0 8
10.2540 12.0059 -2.6467 0.1653 0 8
10.1450 12.0982 -2.6467 0.1653 0 8
10.0351 12.1895 -2.6467 0.1653 0 8
9.9244 12.2798 -2.6467 0.1653 0 8
9.8129 12.3691 -2.6467 0.1653 0 8
9.7006 12.4574 -2.6467 0.1653 0 8
9.5875 12.5446 -2.6467 0.1653 0 8
9.4736 12.6308 -2.6467 0.1653 0 8
9.3590 12.7160 -2.6467 0.1653 0 8
9.2435 12.8002 -2.6467 0.1653 0 8
9.1273 12.8833 -2.6467 0.1653 0 8
9.0104 12.9653 -2.6467 0.1653 0 8
8.8928 13.0463 -2.6467 0.1653 0 8
14.6645 0.0000 -2.7991 0.1875 0 7
14.6639 0.1327 -2.7991 0.1875 0 7
14.6621 0.2653 -2.7991 0.1875 0 7
14.6591 0.3980 -2.7991 0.1875 0 7
14.6549 0.5306 -2.7991 0.1875 0 7
14.6495 0.6631 -2.7991 0.1875 0 7
14.6429 0.7956 -2.7991 0.1875 0 7
14.6351 0.9281 -2.7991 0.1875 0 7
14.6261 1.0604 -2.7991 0.1875 0 7
14.6159 1.1927 -2.7991 0.1875 0 7
14.6045 1.3249 -2.7991 0.1875 0 7
14.5920 1.4570 -2.7991 0.1875 0 7
14.5782 1.5889 -2.7991 0.1875 0 7
14.5632 1.7207 -2.7991 0.1875 0 7
14.5470 1.8524 -2.7991 0.1875 0 7
14.5297 1.9839 -2.7991 0.1875 0 7
14.5111 2.1153 -2.7991 0.1875 0 7
14.4914 2.2465 -2.7991 0.1875 0 7
14.4705 2.3775 -2.7991 0.1875 0 7
14.4484 2.5083 -2.7991 0.1875 0 7
14.4251 2.6389 -2.7991 0.1875 0 7
14.4006 2.7693 -2.7991 0.1875 0 7
14.3750 2.8995 -2.7991 0.1875 0 7
14.3482 3.0294 -2.7991 0.1875 0 7
14.3202 3.1591 -2.7991 0.1875 0 7
14.2910 3.2885 -2.7991 0.1875 0 7
14.2607 3.4177 -2.7991 0.1875 0 7
14.2292 3.5466 -2.7991 0.1875 0 7
14.1965 3.6751 -2.7991 0.1875 0 7
14.1627 3.8034 -2.7991 0.1875 0 7
14.1277 3.9314 -2.7991 0.1875 0 7
14.0916 4.0591 -2.7991 0.1875 0 7
14.0543 4.1864 -2.7991 0.1875 0 7
14.0158 4.3133 -2.7991 0.1875 0 7
13.9762 4.4400 -2.7991 0.1875 0 7
13.9355 4.5662 -2.7991 0.1875 0 7
13.8936 4.6921 -2.7991 0.1875 0 7
13.8506 4.8176 -2.7991 0.1875 0 7
13.8064 4.9427 -2.7991 0.1875 0 7
13.7611 5.0674 -2.7991 0.1875 0 7
13.7147 5.1917 -2.7991 0.1875 0 7
13.6672 5.3156 -2.7991 0.1875 0 7
13.6185 5.4390 -2.7991 0.1875 0 7
13.5688 5.5620 -2.7991 0.1875 0 7
13.5179 5.6845 -2.7991 0.1875 0 7
13.4659 5.8066 -2.7991 0.1875 0 7
13.4129 5.9282 -2.7991 0.1875 0 7
13.3587 6.0493 -2.7991 0.1875 0 7
13.3034 6.1699 -2.7991 0.1875 0 7
13.2470 6.2900 -2.7991 0.1875 0 7
13.1896 6.4096 -2.7991 0.1875 0 7
13.1311 6.5286 -2.7991 0.1875 0 7
13.0715 6.6472 -2.7991 0.1875 0 7
13.0108 6.7651 -2.7991 0.1875 0 7
12.9491 6.8826 -2.7991 0.1875 0 7
12.8863 6.9994 -2.7991 0.1875 0 7
12.8224 7.1157 -2.7991 0.1875 0 7
12.7575 7.2314 -2.7991 0.1875 0 7
12.6916 7.3466 -2.7991 0.1875 0 7
12.6246 7.4611 -2.7991 0.1875 0 7
12.5566 7.5750 -2.7991 0.1875 0 7
12.4875 7.6883 -2.7991 0.1875 0 7
12.4175 7.8009 -2.7991 0.1875 0 7
12.3464 7.9129 -2.7991 0.1875 0 7
12.2743 8.0243 -2.7991 0.1875 0 7
12.2012 8.1350 -2.7991 0.1875 0 7
12.1271 8.2451 -2.7991 0.1875 0 7
12.0520 8.3545 -2.7991 0.1875 0 7
11.9759 8.4632 -2.7991 0.1875 0 7
11.8989 8.5712 -2.7991 0.1875 0 7
11.8208 8.6784 -2.7991 0.1875 0 7
11.7418 8.7850 -2.7991 0.1875 0 7
11.6619 8.8909 -2.7991 0.1875 0 7
11.5810 8.9960 -2.7991 0.1875 0 7
11.4991 9.1004 -2.7991 0.1875 0 7
11.4163 9.2041 -2.7991 0.1875 0 7
11.3326 9.3070 -2.7991 0.1875 0 7
11.2479 9.4092 -2.7991 0.1875 0 7
11.1603 9.5088 -2.7986 0.1904 0 8
11.0652 9.6019 -2.7964 0.1906 0 8
10.9694 9.6941 -2.7943 0.1907 0 8
10.8728 9.7853 -2.7921 0.1909 0 8
10.5163 9.6381 -2.7228 0.3207 0 8
10.1651 9.4869 -2.6540 0.3447 0 8
10.0511 9.5521 -2.6467 0.1875 0 8
9.9643 9.6427 -2.6467 0.1875 0 8
9.8767 9.7324 -2.6467 0.1875 0 8
9.7882 9.8214 -2.6467 0.1875 0 8
9.6990 9.9095 -2.6467 0.1875 0 8
9.6089 9.9968 -2.6467 0.1875 0 8
9.5181 10.0834 -2.6467 0.1875 0 8
9.4265 10.1691 -2.6467 0.1875 0 8
9.3341 10.2539 -2.6467 0.1875 0 8
9.2409 10.3380 -2.6467 0.1875 0 8
9.1470 10.4211 -2.6467 0.1875 0 8
9.0524 10.5035 -2.6467 0.1875 0 8
8.9570 10.5849 -2.6467 0.1875 0 8
8.8609 10.6655 -2.6467 0.1875 0 8
8.7640 10.7452 -2.6467 0.1875 0 8
8.6664 10.8241 -2.6467 0.1875 0 8
8.5682 10.9021 -2.6467 0.1875 0 8
8.4692 10.9791 -2.6467 0.1875 0 8
8.3695 11.0553 -2.6467 0.1875 0 8
8.2691 11.1306 -2.6467 0.1875 0 8
8.1681 11.2049 -2.6467 0.1875 0 8
8.0664 11.2784 -2.6467 0.1875 0 8
7.9640 11.3509 -2.6467 0.1875 0 8
7.8610 11.4225 -2.6467 0.1875 0 8
7.7574 11.4931 -2.6467 0.1875 0 8
7.6531 11.5628 -2.6467 0.1875 0 8
7.5481 11.6316 -2.6467 0.1875 0 8
7.4426 11.6994 -2.6467 0.1875 0 8
7.3365 11.7662 -2.6467 0.1875 0 8
7.2297 11.8321 -2.6467 0.1875 0 8
7.1224 11.8971 -2.6467 0.1875 0 8
7.0145 11.9610 -2.6467 0.1875 0 8
6.9060 12.0240 -2.6467 0.1875 0 8
6.7969 12.0860 -2.6467 0.1875 0 8
6.6873 12.1470 -2.6467 0.1875 0 8
6.5771 12.2070 -2.6467 0.1875 0 8
6.4664 12.2660 -2.6467 0.1875 0 8
6.3552 12.3240 -2.6467 0.1875 0 8
6.2434 12.3809 -2.6467 0.1875 0 8
6.1312 12.4369 -2.6467 0.1875 0 8
6.0184 12.4919 -2.6467 0.1875 0 8
5.9051 12.5458 -2.6467 0.1875 0 8
5.7914 12.5987 -2.6467 0.1875 0 8
5.6772 12.6506 -2.6467 0.1875 0 8
5.5625 12.7015 -2.6467 0.1875 0 8
5.4474 12.7513 -2.6467 0.1875 0 8
5.3318 12.8000 -2.6467 0.1875 0 8
5.2158 12.8477 -2.6467 0.1875 0 8
5.0993 12.8944 -2.6467 0.1875 0 8
4.9825 12.9400 -2.6467 0.1875 0 8
4.8652 12.9845 -2.6467 0.1875 0 8
4.7475 13.0280 -2.6467 0.1875 0 8
4.6295 13.0704 -2.6467 0.1875 0 8
4.5110 13.1118 -2.6467 0.1875 0 8
4.3922 13.1521 -2.6467 0.1875 0 8
4.2731 13.1913 -2.6467 0.1875 0 8
4.1535 13.2294 -2.6467 0.1875 0 8
3.0103 9.9007 -1.9752 0.9843 0 5
2.9181 9.9189 -1.9735 0.9852 0 5
3.7930 13.3372 -2.6467 0.1875 0 8
3.6722 13.3710 -2.6467 0.1875 0 8
3.5511 13.4037 -2.6467 0.1875 0 8
3.4296 13.4352 -2.6467 0.1875 0 8
3.3080 13.4657 -2.6467 0.1875 0 8
3.1860 13.4951 -2.6467 0.1875 0 8
3.0638 13.5234 -2.6467 0.1875 0 8
2.9413 13.5505 -2.6467 0.1875 0 8
2.8186 13.5766 -2.6467 0.1875 0 8
2.6957 13.6015 -2.6467 0.1875 0 8
2.5725 13.6254 -2.6467 0.1875 0 8
2.4491 13.6481 -2.6467 0.1875 0 8
2.3256 13.6697 -2.6467 0.1875 0 8
2.2018 13.6902 -2.6467 0.1875 0 8
2.0779 13.7095 -2.6467 0.1875 0 8
1.9537 13.7278 -2.6467 0.1875 0 8
1.8295 13.7449 -2.6467 0.1875 0 8
1.7050 13.7609 -2.6467 0.1875 0 8
1.5805 13.7757 -2.6467 0.1875 0 8
1.4558 13.7895 -2.6467 0.1875 0 8
1.3310 13.8021 -2.6467 0.1875 0 8
1.2061 13.8135 -2.6467 0.1875 0 8
1.0810 13.8239 -2.6467 0.1875 0 8
0.9559 13.8331 -2.6467 0.1875 0 8
0.8307 13.8412 -2.6467 0.1875 0 8
0.7055 13.8481 -2.6467 0.1875 0 8
0.5802 13.8539 -2.6467 0.1875 0 8
0.4548 13.8586 -2.6467 0.1875 0 8
0.3294 13.8622 -2.6467 0.1875 0 8
0.2040 13.8646 -2.6467 0.1875 0 8
0.0786 13.8659 -2.6467 0.1875 0 8
-0.0469 13.8660 -2.6467 0.1875 0 8
-0.1723 13.8650 -2.6467 0.1875 0 8
-0.2978 13.8629 -2.6467 0.1875 0 8
-0.4232 13.8596 -2.6467 0.1875 0 8
-0.5485 13.8552 -2.6467 0.1875 0 8
-0.6739 13.8497 -2.6467 0.1875 0 8
-0.7991 13.8430 -2.6467 0.1875 0 8
-0.9243 13.8352 -2.6467 0.1875 0 8
-1.0495 13.8263 -2.6467 0.1875 0 8
-1.1745 13.8162 -2.6467 0.1875 0 8
-1.2994 13.8051 -2.6467 0.1875 0 8
-1.4243 13.7927 -2.6467 0.1875 0 8
-1.5490 13.7793 -2.6467 0.1875 0 8
-1.6736 13.7647 -2.6467 0.1875 0 8
-1.7981 13.7490 -2.6467 0.1875 0 8
-1.9224 13.7322 -2.6467 0.1875 0 8
-2.0465 13.7142 -2.6467 0.1875 0 8
-2.1705 13.6952 -2.6467 0.1875 0 8
-2.2943 13.6750 -2.6467 0.1875 0 8
-2.4179 13.6536 -2.6467 0.1875 0 8
-2.5414 13.6312 -2.6467 0.1875 0 8
-2.6646 13.6077 -2.6467 0.1875 0 8
-2.7876 13.5830 -2.6467 0.1875 0 8
-2.9103 13.5572 -2.6467 0.1875 0 8
-3.0329 13.5303 -2.6467 0.1875 0 8
-3.1552 13.5023 -2.6467 0.1875 0 8
-3.2772 13.4732 -2.6467 0.1875 0 8
-3.3989 13.4431 -2.6467 0.1875 0 8
-3.5204 13.4118 -2.6467 0.1875 0 8
-3.6416 13.3794 -2.6467 0.1875 0 8
-3.7625 13.3459 -2.6467 0.1875 0 8
-3.8831 13.3113 -2.6467 0.1875 0 8
-4.0033 13.2756 -2.6467 0.1875 0 8
-4.1233 13.2388 -2.6467 0.1875 0 8
-4.2429 13.2010 -2.6467 0.1875 0 8
-4.3621 13.1621 -2.6467 0.1875 0 8
-4.4810 13.1221 -2.6467 0.1875 0 8
-4.5996 13.0810 -2.6467 0.1875 0 8
-4.7177 13.0388 -2.6467 0.1875 0 8
-4.8355 12.9956 -2.6467 0.1875 0 8
-4.9529 12.9513 -2.6467 0.1875 0 8
-5.0698 12.9060 -2.6467 0.1875 0 8
-5.1864 12.8596 -2.6467 0.1875 0 8
-5.3025 12.8122 -2.6467 0.1875 0 8
-5.4182 12.7637 -2.6467 0.1875 0 8
-5.5335 12.7141 -2.6467 0.1875 0 8
-5.6483 12.6636 -2.6467 0.1875 0 8
-5.7626 12.6119 -2.6467 0.1875 0 8
-5.8765 12.5593 -2.6467 0.1875 0 8
-5.9898 12.5056 -2.6467 0.1875 0 8
-6.1027 12.4509 -2.6467 0.1875 0 8
-6.2151 12.3952 -2.6467 0.1875 0 8
-6.3270 12.3385 -2.6467 0.1875 0 8
-6.4384 12.2807 -2.6467 0.1875 0 8
-6.5492 12.2220 -2.6467 0.1875 0 8
-6.6595 12.1622 -2.6467 0.1875 0 8
-6.7693 12.1015 -2.6467 0.1875 0 8
-6.8785 12.0397 -2.6467 0.1875 0 8
-6.9871 11.9770 -2.6467 0.1875 0 8
-7.0952 11.9133 -2.6467 0.1875 0 8
-7.2027 11.8486 -2.6467 0.1875 0 8
-7.3096 11.7830 -2.6467 0.1875 0 8
-7.4159 11.7164 -2.6467 0.1875 0 8
-7.5216 11.6488 -2.6467 0.1875 0 8
-7.6266 11.5803 -2.6467 0.1875 0 8
-7.7311 11.5108 -2.6467 0.1875 0 8
-7.8349 11.4404 -2.6467 0.1875 0 8
-7.9381 11.3690 -2.6467 0.1875 0 8
-8.0465 11.3051 -2.6487 0.6094 0 8
-8.1425 11.2236 -2.6467 0.1875 0 8
-8.2725 11.1884 -2.6560 0.6845 0 8
-8.4532 11.2191 -2.6813 0.6819 0 8
-8.6368 11.2495 -2.7071 0.6754 0 8
-8.8239 11.2805 -2.7337 0.6688 0 8
-9.0148 11.3120 -2.7610 0.6622 0 8
-9.2094 11.3442 -2.7890 0.6556 0 8
-9.3248 11.2763 -2.7930 0.1981 0 8
-9.4320 11.1981 -2.7946 0.1979 0 8
-9.5386 11.1189 -2.7963 0.1978 0 8
-9.6446 11.0387 -2.7980 0.1977 0 8
-9.7480 10.9555 -2.7991 0.1875 0 7
-9.8467 10.8669 -2.7991 0.1875 0 7
-9.9447 10.7774 -2.7991 0.1875 0 7
-10.0418 10.6869 -2.7991 0.1875 0 7
-10.1380 10.5957 -2.7991 0.1875 0 7
-10.2335 10.5035 -2.7991 0.1875 0 7
-10.3281 10.4105 -2.7991 0.1875 0 7
-10.4218 10.3167 -2.7991 0.1875 0 7
-10.5147 10.2219 -2.7991 0.1875 0 7
-10.6068 10.1264 -2.7991 0.1875 0 7
-10.6980 10.0300 -2.7991 0.1875 0 7
-10.7883 9.9328 -2.7991 0.1875 0 7
-10.8777 9.8348 -2.7991 0.1875 0 7
-10.9662 9.7360 -2.7991 0.1875 0 7
-11.0538 9.6364 -2.7991 0.1875 0 7
-11.1406 9.5360 -2.7991 0.1875 0 7
-11.2264 9.4348 -2.7991 0.1875 0 7
-11.3113 9.3329 -2.7991 0.1875 0 7
-11.3952 9.2302 -2.7991 0.1875 0 6
-11.4783 9.1267 -2.7991 0.1875 0 7
-11.5604 9.0225 -2.7991 0.1875 0 7
-11.6415 8.9175 -2.7991 0.1875 0 7
-11.7217 8.8118 -2.7991 0.1875 0 7
-11.8010 8.7054 -2.7991 0.1875 0 7
-11.8793 8.5983 -2.7991 0.1875 0 7
-11.9566 8.4905 -2.7991 0.1875 0 7
-12.0329 8.3820 -2.7991 0.1875 0 7
-12.1082 8.2728 -2.7991 0.1875 0 7
-12.1826 8.1629 -2.7991 0.1875 0 7
-12.2559 8.0524 -2.7991 0.1875 0 7
-12.3283 7.9411 -2.7991 0.1875 0 7
-12.3996 7.8293 -2.7991 0.1875 0 7
-12.4699 7.7168 -2.7991 0.1875 0 7
-12.5392 7.6036 -2.7991 0.1875 0 7
-12.6075 7.4899 -2.7991 0.1875 0 7
-12.6747 7.3755 -2.7991 0.1875 0 7
-12.7410 7.2606 -2.7991 0.1875 0 7
-12.8061 7.1450 -2.7991 0.1875 0 7
-12.8702 7.0289 -2.7991 0.1875 0 7
-12.9333 6.9121 -2.7991 0.1875 0 7
-12.9953 6.7949 -2.7991 0.1875 0 7
-13.0562 6.6770 -2.7991 0.1875 0 7
-13.1161 6.5586 -2.7991 0.1875 0 7
-13.1749 6.4397 -2.7991 0.1875 0 7
-13.2326 6.3202 -2.7991 0.1875 0 7
-13.2893 6.2003 -2.7991 0.1875 0 7
-13.3448 6.0798 -2.7991 0.1875 0 7
-13.3993 5.9588 -2.7991 0.1875 0 7
-13.4526 5.8373 -2.7991 0.1875 0 7
-13.5049 5.7154 -2.7991 0.1875 0 7
-13.5560 5.5930 -2.7991 0.1875 0 7
-13.6061 5.4701 -2.7991 0.1875 0 7
-13.6550 5.3468 -2.7991 0.1875 0 7
-13.7028 5.2230 -2.7991 0.1875 0 7
-13.7495 5.0989 -2.7991 0.1875 0 7
-13.7951 4.9743 -2.7991 0.1875 0 7
-13.8395 4.8493 -2.7991 0.1875 0 7
-13.8828 4.7239 -2.7991 0.1875 0 7
-13.9250 4.5981 -2.7991 0.1875 0 7
-13.9660 4.4719 -2.7991 0.1875 0 7
-14.0059 4.3454 -2.7991 0.1875 0 7
-14.0447 4.2185 -2.7991 0.1875 0 7
-14.0822 4.0912 -2.7991 0.1875 0 7
-14.1187 3.9637 -2.7991 0.1875 0 7
-14.1540 3.8358 -2.7991 0.1875 0 7
-14.1881 3.7076 -2.7991 0.1875 0 7
-14.2210 3.5791 -2.7991 0.1875 0 7
-14.2528 3.4503 -2.7991 0.1875 0 7
-14.2835 3.3212 -2.7991 0.1875 0 7
-14.3129 3.1918 -2.7991 0.1875 0 7
-14.3412 3.0622 -2.7991 0.1875 0 7
-14.3683 2.9323 -2.7991 0.1875 0 7
-14.3943 2.8022 -2.7991 0.1875 0 6
-14.4190 2.6719 -2.7991 0.1875 0 7
-14.4426 2.5413 -2.7991 0.1875 0 6
-14.4650 2.4106 -2.7991 0.1875 0 7
-14.4862 2.2796 -2.7991 0.1875 0 7
-14.5063 2.1485 -2.7991 0.1875 0 7
-14.5251 2.0171 -2.7991 0.1875 0 7
-14.5428 1.8856 -2.7991 0.1875 0 7
-14.5592 1.7540 -2.7991 0.1875 0 7
-14.5745 1.6222 -2.7991 0.1875 0 7
-14.5886 1.4903 -2.7991 0.1875 0 7
-14.6015 1.3583 -2.7991 0.1875 0 7
-14.6132 1.2261 -2.7991 0.1875 0 7
-14.6237 1.0938 -2.7991 0.1875 0 7
-14.6330 0.9615 -2.7991 0.1875 0 7
-14.6411 0.8291 -2.7991 0.1875 0 7
-14.6479 0.6966 -2.7991 0.1875 0 7
-14.6537 0.5640 -2.7991 0.1875 0 7
-14.6582 0.4315 -2.7991 0.1875 0 7
-14.6615 0.2988 -2.7991 0.1875 0 7
-14.6636 0.1662 -2.7991 0.1875 0 7
-14.6645 0.0335 -2.7991 0.1875 0 7
-14.6642 -0.0992 -2.7991 0.1875 0 7
-14.6627 -0.2318 -2.7991 0.1875 0 7
-14.6600 -0.3645 -2.7991 0.1875 0 7
-14.6561 -0.4971 -2.7991 0.1875 0 7
-14.6510 -0.6296 -2.7991 0.1875 0 7
-14.6447 -0.7622 -2.7991 0.1875 0 7
-14.6372 -0.8946 -2.7991 0.1875 0 7
-14.6285 -1.0270 -2.7991 0.1875 0 7
-14.6186 -1.1593 -2.7991 0.1875 0 7
-14.6075 -1.2915 -2.7991 0.1875 0 7
-14.5952 -1.4236 -2.7991 0.1875 0 7
-14.5818 -1.5556 -2.7991 0.1875 0 7
-14.5671 -1.6875 -2.7991 0.1875 0 7
-14.5512 -1.8192 -2.7991 0.1875 0 7
-14.5342 -1.9507 -2.7991 0.1875 0 7
-14.5159 -2.0822 -2.7991 0.1875 0 7
-14.4965 -2.2134 -2.7991 0.1875 0 7
-14.4759 -2.3444 -2.7991 0.1875 0 7
-14.4541 -2.4753 -2.7991 0.1875 0 7
-14.4311 -2.6060 -2.7991 0.1875 0 7
-14.4069 -2.7364 -2.7991 0.1875 0 7
-14.3816 -2.8666 -2.7991 0.1875 0 7
-14.3551 -2.9966 -2.7991 0.1875 0 7
-14.3274 -3.1264 -2.7991 0.1875 0 7
-14.2985 -3.2559 -2.7991 0.1875 0 7
-14.2685 -3.3851 -2.7991 0.1875 0 7
-14.2373 -3.5140 -2.7991 0.1875 0 7
-14.2049 -3.6427 -2.7991 0.1875 0 7
-14.1713 -3.7711 -2.7991 0.1875 0 7
-14.1366 -3.8991 -2.7991 0.1875 0 7
-14.1008 -4.0268 -2.7991 0.1875 0 7
-14.0638 -4.1543 -2.7991 0.1875 0 7
-14.0256 -4.2813 -2.7991 0.1875 0 7
-13.9863 -4.4080 -2.7991 0.1875 0 7
-13.9459 -4.5344 -2.7991 0.1875 0 6
-13.9043 -4.6604 -2.7991 0.1875 0 7
-13.8615 -4.7860 -2.7991 0.1875 0 7
-13.8177 -4.9112 -2.7991 0.1875 0 7
-13.7727 -5.0360 -2.7991 0.1875 0 7
-13.7266 -5.1604 -2.7991 0.1875 0 7
-13.6793 -5.2843 -2.7991 0.1875 0 7
-13.6309 -5.4079 -2.7991 0.1875 0 7
-13.5815 -5.5310 -2.7991 0.1875 0 7
-13.5309 -5.6536 -2.7991 0.1875 0 7
-13.4792 -5.7758 -2.7991 0.1875 0 7
-13.4264 -5.8975 -2.7991 0.1875 0 7
-13.3725 -6.0187 -2.7991 0.1875 0 7
-13.3175 -6.1395 -2.7991 0.1875 0 7
-13.2614 -6.2597 -2.7991 0.1875 0 7
-13.2042 -6.3794 -2.7991 0.1875 0 7
-13.1459 -6.4986 -2.7991 0.1875 0 7
-13.0866 -6.6173 -2.7991 0.1875 0 7
-13.0243 -6.7344 -2.7987 0.1978 0 8
-12.9552 -6.8479 -2.7970 0.1979 0 8
-12.8850 -6.9607 -2.7954 0.1980 0 8
-12.8140 -7.0728 -2.7938 0.1981 0 8
-12.7421 -7.1843 -2.7921 0.1982 0 8
-12.5969 -7.2534 -2.7746 0.6655 0 8
-12.4080 -7.2949 -2.7474 0.6721 0 8
-12.2226 -7.3355 -2.7209 0.6786 0 8
-12.0407 -7.3753 -2.6952 0.6851 0 8
-11.8633 -7.4151 -2.6704 0.6954 0 8
-11.6954 -7.4581 -2.6477 0.6126 0 8
-11.6233 -7.5609 -2.6467 0.1875 0 8
-11.5544 -7.6657 -2.6467 0.1875 0 8
-11.4846 -7.7700 -2.6467 0.1875 0 8
-11.4138 -7.8735 -2.6467 0.1875 0 8
-11.3421 -7.9765 -2.6467 0.1875 0 8
-11.2695 -8.0788 -2.6467 0.1875 0 8
-11.1960 -8.1804 -2.6467 0.1875 0 8
-11.1215 -8.2813 -2.6467 0.1875 0 8
-11.0461 -8.3816 -2.6467 0.1875 0 8
-10.9698 -8.4812 -2.6467 0.1875 0 8
-10.8927 -8.5801 -2.6467 0.1875 0 8
-10.8146 -8.6783 -2.6467 0.1875 0 8
-10.7356 -8.7758 -2.6467 0.1875 0 8
-10.6558 -8.8725 -2.6467 0.1875 0 8
-10.5751 -8.9686 -2.6467 0.1875 0 8
-10.4935 -9.0639 -2.6467 0.1875 0 8
-10.4111 -9.1584 -2.6467 0.1875 0 8
-10.3278 -9.2523 -2.6467 0.1875 0 8
-10.2437 -9.3453 -2.6467 0.1875 0 8
-10.1587 -9.4376 -2.6467 0.1875 0 8
-10.0729 -9.5291 -2.6467 0.1875 0 8
-9.9863 -9.6199 -2.6467 0.1875 0 8
-9.8989 -9.7098 -2.6467 0.1875 0 8
-9.8106 -9.7990 -2.6467 0.1875 0 8
-9.7216 -9.8873 -2.6467 0.1875 0 8
-9.6317 -9.9749 -2.6467 0.1875 0 8
-9.5411 -10.0616 -2.6467 0.1875 0 8
-9.4497 -10.1475 -2.6467 0.1875 0 8
-9.3575 -10.2326 -2.6467 0.1875 0 8
-9.2645 -10.3168 -2.6467 0.1875 0 8
-9.1708 -10.4002 -2.6467 0.1875 0 8
-9.0764 -10.4827 -2.6467 0.1875 0 8
-8.9811 -10.5644 -2.6467 0.1875 0 8
-8.8852 -10.6453 -2.6467 0.1875 0 8
-8.7885 -10.7252 -2.6467 0.1875 0 8
-8.6911 -10.8043 -2.6467 0.1875 0 8
-8.5930 -10.8825 -2.6467 0.1875 0 8
-8.4942 -10.9598 -2.6467 0.1875 0 8
-8.3947 -11.0362 -2.6467 0.1875 0 8
-8.2946 -11.1117 -2.6467 0.1875 0 8
-8.1937 -11.1862 -2.6467 0.1875 0 8
-8.0921 -11.2599 -2.6467 0.1875 0 8
-7.9900 -11.3327 -2.6467 0.1875 0 8
-7.8871 -11.4045 -2.6467 0.1875 0 8
-7.7836 -11.4754 -2.6467 0.1875 0 8
-7.6795 -11.5453 -2.6467 0.1875 0 8
-7.5747 -11.6143 -2.6467 0.1875 0 8
-7.4693 -11.6824 -2.6467 0.1875 0 8
-7.3633 -11.7495 -2.6467 0.1875 0 8
-7.2567 -11.8156 -2.6467 0.1875 0 8
-7.1495 -11.8808 -2.6467 0.1875 0 8
-7.0418 -11.9450 -2.6467 0.1875 0 8
-6.9334 -12.0082 -2.6467 0.1875 0 8
-6.8245 -12.0704 -2.6467 0.1875 0 8
-6.7150 -12.1316 -2.6467 0.1875 0 8
-6.6050 -12.1919 -2.6467 0.1875 0 8
-6.4944 -12.2512 -2.6467 0.1875 0 8
-6.3833 -12.3094 -2.6467 0.1875 0 8
-6.2717 -12.3667 -2.6467 0.1875 0 8
-6.1596 -12.4229 -2.6467 0.1875 0 8
-6.0469 -12.4781 -2.6467 0.1875 0 8
-5.9338 -12.5323 -2.6467 0.1875 0 8
-5.8202 -12.5855 -2.6467 0.1875 0 8
-5.7061 -12.6376 -2.6467 0.1875 0 8
-5.5915 -12.6887 -2.6467 0.1875 0 8
-5.4765 -12.7388 -2.6467 0.1875 0 8
-5.3610 -12.7878 -2.6467 0.1875 0 8
-5.2451 -12.8358 -2.6467 0.1875 0 8
-5.1288 -12.8827 -2.6467 0.1875 0 8
-5.0120 -12.9286 -2.6467 0.1875 0 8
-4.8948 -12.9734 -2.6467 0.1875 0 8
-4.7773 -13.0171 -2.6467 0.1875 0 8
-4.6593 -13.0598 -2.6467 0.1875 0 8
-4.5410 -13.1014 -2.6467 0.1875 0 8
-4.4223 -13.1420 -2.6467 0.1875 0 8
-4.3032 -13.1815 -2.6467 0.1875 0 8
-4.1838 -13.2199 -2.6467 0.1875 0 8
-4.0640 -13.2572 -2.6467 0.1875 0 8
-3.9439 -13.2934 -2.6467 0.1875 0 8
-3.8235 -13.3285 -2.6467 0.1875 0 8
-3.7027 -13.3626 -2.6467 0.1875 0 8
-3.5817 -13.3955 -2.6467 0.1875 0 8
-3.4603 -13.4274 -2.6467 0.1875 0 8
-3.3387 -13.4581 -2.6467 0.1875 0 8
-3.2168 -13.4878 -2.6467 0.1875 0 8
-3.0947 -13.5163 -2.6467 0.1875 0 8
-2.9723 -13.5438 -2.6467 0.1875 0 8
-2.8496 -13.5701 -2.6467 0.1875 0 8
-2.7267 -13.5953 -2.6467 0.1875 0 8
-2.6036 -13.6195 -2.6467 0.1875 0 8
-2.4803 -13.6424 -2.6467 0.1875 0 8
-2.3568 -13.6643 -2.6467 0.1875 0 8
-2.2331 -13.6851 -2.6467 0.1875 0 8
-2.1092 -13.7047 -2.6467 0.1875 0 8
-1.9851 -13.7233 -2.6467 0.1875 0 8
-1.8609 -13.7407 -2.6467 0.1875 0 8
-1.7365 -13.7569 -2.6467 0.1875 0 8
-1.6120 -13.7721 -2.6467 0.1875 0 8
-1.4873 -13.7861 -2.6467 0.1875 0 8
-1.3625 -13.7990 -2.6467 0.1875 0 8
-1.2376 -13.8107 -2.6467 0.1875 0 8
-1.1126 -13.8214 -2.6467 0.1875 0 8
-0.9875 -13.8309 -2.6467 0.1875 0 8
-0.8624 -13.8392 -2.6467 0.1875 0 8
-0.7371 -13.8465 -2.6467 0.1875 0 8
-0.6118 -13.8526 -2.6467 0.1875 0 8
-0.4865 -13.8576 -2.6467 0.1875 0 8
-0.3611 -13.8614 -2.6467 0.1875 0 8
-0.2357 -13.8641 -2.6467 0.1875 0 8
-0.1102 -13.8656 -2.6467 0.1875 0 8
0.0152 -13.8661 -2.6467 0.1875 0 8
0.1406 -13.8654 -2.6467 0.1875 0 8
0.2661 -13.8635 -2.6467 0.1875 0 8
0.3915 -13.8606 -2.6467 0.1875 0 8
0.5169 -13.8565 -2.6467 0.1875 0 8
0.6422 -13.8512 -2.6467 0.1875 0 8
0.7675 -13.8448 -2.6467 0.1875 0 8
0.8927 -13.8373 -2.6467 0.1875 0 8
1.0179 -13.8287 -2.6467 0.1875 0 8
1.1429 -13.8189 -2.6467 0.1875 0 8
1.2679 -13.8080 -2.6467 0.1875 0 8
1.3928 -13.7960 -2.6467 0.1875 0 8
1.5175 -13.7828 -2.6467 0.1875 0 8
1.6421 -13.7685 -2.6467 0.1875 0 8
1.7666 -13.7531 -2.6467 0.1875 0 8
1.8910 -13.7365 -2.6467 0.1875 0 8
2.0152 -13.7189 -2.6467 0.1875 0 8
2.1392 -13.7001 -2.6467 0.1875 0 8
2.2631 -13.6802 -2.6467 0.1875 0 8
2.3867 -13.6591 -2.6467 0.1875 0 8
2.5102 -13.6370 -2.6467 0.1875 0 8
2.6335 -13.6137 -2.6467 0.1875 0 8
2.7565 -13.5893 -2.6467 0.1875 0 8
2.8794 -13.5638 -2.6467 0.1875 0 8
3.0020 -13.5372 -2.6467 0.1875 0 8
3.1243 -13.5095 -2.6467 0.1875 0 8
3.2464 -13.4807 -2.6467 0.1875 0 8
3.3682 -13.4508 -2.6467 0.1875 0 8
3.4898 -13.4198 -2.6467 0.1875 0 8
3.6110 -13.3876 -2.6467 0.1875 0 8
3.7320 -13.3544 -2.6467 0.1875 0 8
3.8527 -13.3201 -2.6467 0.1875 0 8
3.9730 -13.2847 -2.6467 0.1875 0 8
4.0930 -13.2482 -2.6467 0.1875 0 8
4.2127 -13.2107 -2.6467 0.1875 0 8
4.3321 -13.1720 -2.6467 0.1875 0 8
4.4510 -13.1323 -2.6467 0.1875 0 8
4.5697 -13.0915 -2.6467 0.1875 0 8
4.6879 -13.0496 -2.6467 0.1875 0 8
4.8058 -13.0067 -2.6467 0.1875 0 8
4.9233 -12.9626 -2.6467 0.1875 0 8
5.0403 -12.9176 -2.6467 0.1875 0 8
5.1570 -12.8714 -2.6467 0.1875 0 8
5.2732 -12.8243 -2.6467 0.1875 0 8
5.3890 -12.7760 -2.6467 0.1875 0 8
5.5044 -12.7267 -2.6467 0.1875 0 8
5.6193 -12.6764 -2.6467 0.1875 0 8
5.7338 -12.6251 -2.6467 0.1875 0 8
5.8477 -12.5727 -2.6467 0.1875 0 8
5.9612 -12.5193 -2.6467 0.1875 0 8
6.0819 -12.4805 -2.6500 0.3825 0 8
6.1868 -12.4094 -2.6467 0.1875 0 8
6.4261 -12.6027 -2.7002 0.2863 0 8
6.7387 -12.9253 -2.7823 0.2779 0 8
6.8829 -12.9156 -2.7935 0.1901 0 8
7.0050 -12.8628 -2.7957 0.1900 0 8
7.1266 -12.8090 -2.7979 0.1898 0 8
7.2454 -12.7496 -2.7991 0.1875 0 7
7.3605 -12.6835 -2.7991 0.1875 0 7
7.4749 -12.6164 -2.7991 0.1875 0 7
7.5887 -12.5483 -2.7991 0.1875 0 7
7.7020 -12.4791 -2.7991 0.1875 0 7
7.8145 -12.4089 -2.7991 0.1875 0 7
7.9265 -12.3377 -2.7991 0.1875 0 7
8.0378 -12.2655 -2.7991 0.1875 0 7
8.1484 -12.1923 -2.7991 0.1875 0 7
8.2584 -12.1180 -2.7991 0.1875 0 7
8.3677 -12.0428 -2.7991 0.1875 0 7
8.4763 -11.9666 -2.7991 0.1875 0 7
8.5842 -11.8895 -2.7991 0.1875 0 7
8.6914 -11.8113 -2.7991 0.1875 0 7
8.7979 -11.7322 -2.7991 0.1875 0 7
8.9037 -11.6521 -2.7991 0.1875 0 7
9.0087 -11.5711 -2.7991 0.1875 0 7
9.1130 -11.4891 -2.7991 0.1875 0 6
9.2166 -11.4062 -2.7991 0.1875 0 7
9.3194 -11.3224 -2.7991 0.1875 0 7
9.4215 -11.2376 -2.7991 0.1875 0 7
9.5228 -11.1519 -2.7991 0.1875 0 7
9.6233 -11.0653 -2.7991 0.1875 0 7
9.7230 -10.9778 -2.7991 0.1875 0 7
9.8219 -10.8894 -2.7991 0.1875 0 7
9.9200 -10.8001 -2.7991 0.1875 0 7
10.0173 -10.7099 -2.7991 0.1875 0 7
10.1138 -10.6188 -2.7991 0.1875 0 7
10.2094 -10.5269 -2.7991 0.1875 0 7
10.3042 -10.4341 -2.7991 0.1875 0 7
10.3982 -10.3404 -2.7991 0.1875 0 7
10.4913 -10.2459 -2.7991 0.1875 0 7
10.5836 -10.1506 -2.7991 0.1875 0 7
10.6750 -10.0545 -2.7991 0.1875 0 7
10.7655 -9.9575 -2.7991 0.1875 0 7
10.8552 -9.8597 -2.7991 0.1875 0 7
10.9439 -9.7611 -2.7991 0.1875 0 7
11.0318 -9.6616 -2.7991 0.1875 0 7
11.1187 -9.5615 -2.7991 0.1875 0 7
11.2048 -9.4605 -2.7991 0.1875 0 7
11.2899 -9.3587 -2.7991 0.1875 0 7
11.3741 -9.2562 -2.7991 0.1875 0 7
11.4574 -9.1529 -2.7991 0.1875 0 7
11.5397 -9.0489 -2.7991 0.1875 0 7
11.6211 -8.9441 -2.7991 0.1875 0 7
11.7016 -8.8386 -2.7991 0.1875 0 7
11.7811 -8.7324 -2.7991 0.1875 0 7
11.8596 -8.6255 -2.7991 0.1875 0 7
11.9371 -8.5178 -2.7991 0.1875 0 7
12.0137 -8.4095 -2.7991 0.1875 0 7
12.0893 -8.3004 -2.7991 0.1875 0 7
12.1639 -8.1907 -2.7991 0.1875 0 7
12.2375 -8.0803 -2.7991 0.1875 0 7
12.3101 -7.9693 -2.7991 0.1875 0 7
12.3817 -7.8576 -2.7991 0.1875 0 7
12.4523 -7.7453 -2.7991 0.1875 0 7
12.5218 -7.6323 -2.7991 0.1875 0 7
12.5904 -7.5187 -2.7991 0.1875 0 7
12.6579 -7.4045 -2.7991 0.1875 0 7
12.7243 -7.2897 -2.7991 0.1875 0 7
12.7898 -7.1743 -2.7991 0.1875 0 7
12.8541 -7.0583 -2.7991 0.1875 0 7
12.9175 -6.9417 -2.7991 0.1875 0 7
12.9797 -6.8245 -2.7991 0.1875 0 7
13.0409 -6.7068 -2.7991 0.1875 0 7
13.1011 -6.5886 -2.7991 0.1875 0 7
13.1602 -6.4698 -2.7991 0.1875 0 7
13.2181 -6.3505 -2.7991 0.1875 0 7
13.2751 -6.2306 -2.7991 0.1875 0 7
13.3309 -6.1103 -2.7991 0.1875 0 7
13.3856 -5.9894 -2.7991 0.1875 0 7
13.4393 -5.8681 -2.7991 0.1875 0 7
13.4918 -5.7463 -2.7991 0.1875 0 7
13.5432 -5.6240 -2.7991 0.1875 0 7
13.5935 -5.5012 -2.7991 0.1875 0 7
13.6428 -5.3780 -2.7991 0.1875 0 7
13.6909 -5.2544 -2.7991 0.1875 0 7
13.7378 -5.1303 -2.7991 0.1875 0 7
13.7837 -5.0058 -2.7991 0.1875 0 7
13.8284 -4.8809 -2.7991 0.1875 0 7
13.8720 -4.7556 -2.7991 0.1875 0 7
13.9145 -4.6299 -2.7991 0.1875 0 7
13.9558 -4.5038 -2.7991 0.1875 0 7
13.9959 -4.3774 -2.7991 0.1875 0 7
14.0350 -4.2506 -2.7991 0.1875 0 7
14.0729 -4.1234 -2.7991 0.1875 0 7
14.1096 -3.9959 -2.7991 0.1875 0 7
14.1452 -3.8681 -2.7991 0.1875 0 7
14.1796 -3.7400 -2.7991 0.1875 0 7
14.2128 -3.6116 -2.7991 0.1875 0 7
14.2449 -3.4828 -2.7991 0.1875 0 7
14.2758 -3.3538 -2.7991 0.1875 0 7
14.3056 -3.2245 -2.7991 0.1875 0 7
14.3342 -3.0950 -2.7991 0.1875 0 7
14.3616 -2.9652 -2.7991 0.1875 0 7
14.3878 -2.8351 -2.7991 0.1875 0 7
14.4129 -2.7048 -2.7991 0.1875 0 7
14.4368 -2.5743 -2.7991 0.1875 0 7
14.4595 -2.4436 -2.7991 0.1875 0 7
14.4810 -2.3127 -2.7991 0.1875 0 7
14.5013 -2.1816 -2.7991 0.1875 0 7
14.5205 -2.0503 -2.7991 0.1875 0 7
14.5384 -1.9189 -2.7991 0.1875 0 7
14.5552 -1.7873 -2.7991 0.1875 0 7
14.5708 -1.6555 -2.7991 0.1875 0 7
14.5851 -1.5236 -2.7991 0.1875 0 7
14.5983 -1.3916 -2.7991 0.1875 0 7
14.6103 -1.2595 -2.7991 0.1875 0 7
14.6211 -1.1273 -2.7991 0.1875 0 7
14.6307 -0.9950 -2.7991 0.1875 0 7
14.6391 -0.8625 -2.7991 0.1875 0 7
14.6463 -0.7301 -2.7991 0.1875 0 7
14.6523 -0.5975 -2.7991 0.1875 0 7
14.6571 -0.4650 -2.7991 0.1875 0 7
14.6607 -0.3323 -2.7991 0.1875 0 7
14.6631 -0.1997 -2.7991 0.1875 0 7
14.6644 -0.0670 -2.7991 0.1875 0 7
14.6644 0.0656 -2.7991 0.1875 0 7
14.6632 0.1983 -2.7991 0.1875 0 7
14.6608 0.3310 -2.7991 0.1875 0 7
14.6572 0.4636 -2.7991 0.1875 0 7
14.6524 0.5962 -2.7991 0.1875 0 7
14.6464 0.7287 -2.7991 0.1875 0 7
14.6392 0.8612 -2.7991 0.1875 0 7
14.6308 0.9936 -2.7991 0.1875 0 7
14.6212 1.1259 -2.7991 0.1875 0 7
14.6104 1.2581 -2.7991 0.1875 0 7
14.5985 1.3903 -2.7991 0.1875 0 7
14.5853 1.5223 -2.7991 0.1875 0 7
14.5709 1.6542 -2.7991 0.1875 0 7
14.5554 1.7859 -2.7991 0.1875 0 7
14.5386 1.9175 -2.7991 0.1875 0 7
14.5207 2.0490 -2.7991 0.1875 0 7
14.5015 2.1803 -2.7991 0.1875 0 7
14.4812 2.3114 -2.7991 0.1875 0 7
14.4597 2.4423 -2.7991 0.1875 0 7
14.4370 2.5730 -2.7991 0.1875 0 7
14.4132 2.7035 -2.7991 0.1875 0 7
14.3881 2.8338 -2.7991 0.1875 0 7
14.3619 2.9638 -2.7991 0.1875 0 7
14.3345 3.0936 -2.7991 0.1875 0 7
14.3059 3.2232 -2.7991 0.1875 0 7
14.2762 3.3525 -2.7991 0.1875 0 7
14.2452 3.4815 -2.7991 0.1875 0 7
14.2132 3.6102 -2.7991 0.1875 0 7
14.1799 3.7387 -2.7991 0.1875 0 7
14.1455 3.8668 -2.7991 0.1875 0 7
14.1100 3.9946 -2.7991 0.1875 0 7
14.0732 4.1221 -2.7991 0.1875 0 7
14.0354 4.2492 -2.7991 0.1875 0 7
13.9964 4.3760 -2.7991 0.1875 0 7
13.9562 4.5025 -2.7991 0.1875 0 7
13.9149 4.6286 -2.7991 0.1875 0 7
13.8724 4.7543 -2.7991 0.1875 0 7
13.8289 4.8796 -2.7991 0.1875 0 7
13.7842 5.0045 -2.7991 0.1875 0 7
13.7383 5.1290 -2.7991 0.1875 0 7
13.6914 5.2531 -2.7991 0.1875 0 7
13.6433 5.3767 -2.7991 0.1875 0 7
13.5941 5.4999 -2.7991 0.1875 0 7
13.5438 5.6227 -2.7991 0.1875 0 7
13.4923 5.7450 -2.7991 0.1875 0 7
13.4398 5.8668 -2.7991 0.1875 0 7
13.3862 5.9881 -2.7991 0.1875 0 7
13.3315 6.1090 -2.7991 0.1875 0 7
13.2756 6.2294 -2.7991 0.1875 0 7
13.2188 6.3492 -2.7991 0.1875 0 7
13.1608 6.4685 -2.7991 0.1875 0 7
13.1017 6.5873 -2.7991 0.1875 0 7
13.0416 6.7056 -2.7991 0.1875 0 7
12.9804 6.8233 -2.7991 0.1875 0 7
12.9181 6.9405 -2.7991 0.1875 0 7
12.8548 7.0571 -2.7991 0.1875 0 7
12.7904 7.1731 -2.7991 0.1875 0 7
12.7250 7.2885 -2.7991 0.1875 0 7
12.6586 7.4033 -2.7991 0.1875 0 7
12.5910 7.5175 -2.7991 0.1875 0 7
12.5225 7.6311 -2.7991 0.1875 0 7
12.4530 7.7441 -2.7991 0.1875 0 7
12.3824 7.8564 -2.7991 0.1875 0 7
12.3108 7.9681 -2.7991 0.1875 0 7
12.2382 8.0792 -2.7991 0.1875 0 7
12.1647 8.1896 -2.7991 0.1875 0 7
12.0901 8.2993 -2.7991 0.1875 0 7
12.0145 8.4083 -2.7991 0.1875 0 7
11.9379 8.5167 -2.7991 0.1875 0 7
11.8604 8.6243 -2.7991 0.1875 0 7
11.7819 8.7313 -2.7991 0.1875 0 7
11.7024 8.8375 -2.7991 0.1875 0 7
11.6220 8.9430 -2.7991 0.1875 0 7
11.5406 9.0478 -2.7991 0.1875 0 7
11.4583 9.1518 -2.7991 0.1875 0 7
11.3750 9.2551 -2.7991 0.1875 0 7
11.2908 9.3577 -2.7991 0.1875 0 7
11.2057 9.4594 -2.7991 0.1875 0 7
11.1133 9.5550 -2.7975 0.1905 0 8
11.0179 9.6476 -2.7954 0.1907 0 8
10.9217 9.7394 -2.7932 0.1908 0 8
10.7418 9.7548 -2.7696 0.2362 0 8
10.3400 9.5621 -2.6882 0.3248 0 8
10.0947 9.5061 -2.6467 0.1875 0 8
10.0083 9.5970 -2.6467 0.1875 0 8
9.9210 9.6872 -2.6467 0.1875 0 8
9.8330 9.7765 -2.6467 0.1875 0 8
9.7442 9.8651 -2.6467 0.1875 0 8
9.6545 9.9528 -2.6467 0.1875 0 8
9.5641 10.0398 -2.6467 0.1875 0 8
9.4728 10.1259 -2.6467 0.1875 0 8
9.3809 10.2112 -2.6467 0.1875 0 8
9.2881 10.2956 -2.6467 0.1875 0 8
9.1946 10.3792 -2.6467 0.1875 0 8
9.1003 10.4620 -2.6467 0.1875 0 8
9.0053 10.5439 -2.6467 0.1875 0 8
8.9095 10.6249 -2.6467 0.1875 0 8
8.8130 10.7051 -2.6467 0.1875 0 8
8.7158 10.7844 -2.6467 0.1875 0 8
8.6179 10.8628 -2.6467 0.1875 0 8
8.5193 10.9403 -2.6467 0.1875 0 8
8.4199 11.0169 -2.6467 0.1875 0 8
8.3199 11.0927 -2.6467 0.1875 0 8
8.2192 11.1675 -2.6467 0.1875 0 8
8.1179 11.2414 -2.6467 0.1875 0 8
8.0158 11.3144 -2.6467 0.1875 0 8
7.9131 11.3864 -2.6467 0.1875 0 8
7.8098 11.4575 -2.6467 0.1875 0 8
13.0603 0.0000 -2.7991 0.2096 0 7
13.0598 0.1182 -2.7991 0.2096 0 7
13.0582 0.2363 -2.7991 0.2096 0 7
13.0555 0.3544 -2.7991 0.2096 0 7
13.0517 0.4725 -2.7991 0.2096 0 7
13.0469 0.5906 -2.7991 0.2096 0 7
13.0411 0.7086 -2.7991 0.2096 0 7
13.0341 0.8265 -2.7991 0.2096 0 7
13.0261 0.9444 -2.7991 0.2096 0 7
13.0170 1.0622 -2.7991 0.2096 0 7
13.0069 1.1800 -2.7991 0.2096 0 7
12.9957 1.2976 -2.7991 0.2096 0 7
12.9834 1.4151 -2.7991 0.2096 0 7
12.9701 1.5325 -2.7991 0.2096 0 7
12.9557 1.6498 -2.7991 0.2096 0 7
12.9402 1.7669 -2.7991 0.2096 0 7
12.9237 1.8839 -2.7991 0.2096 0 7
12.9061 2.0007 -2.7991 0.2096 0 7
12.8875 2.1174 -2.7991 0.2096 0 7
12.8678 2.2339 -2.7991 0.2096 0 7
12.8471 2.3502 -2.7991 0.2096 0 7
12.8253 2.4664 -2.7991 0.2096 0 7
12.8025 2.5823 -2.7991 0.2096 0 7
12.7786 2.6980 -2.7991 0.2096 0 7
12.7536 2.8135 -2.7991 0.2096 0 7
12.7277 2.9288 -2.7991 0.2096 0 7
12.7006 3.0438 -2.7991 0.2096 0 7
12.6726 3.1586 -2.7991 0.2096 0 7
12.6435 3.2731 -2.7991 0.2096 0 7
12.6134 3.3873 -2.7991 0.2096 0 7
12.5822 3.5013 -2.7991 0.2096 0 7
12.5500 3.6150 -2.7991 0.2096 0 7
12.5168 3.7284 -2.7991 0.2096 0 7
12.4826 3.8415 -2.7991 0.2096 0 7
12.4473 3.9543 -2.7991 0.2096 0 7
12.4110 4.0667 -2.7991 0.2096 0 7
12.3737 4.1788 -2.7991 0.2096 0 7
12.3354 4.2906 -2.7991 0.2096 0 7
12.2961 4.4020 -2.7991 0.2096 0 7
12.2557 4.5131 -2.7991 0.2096 0 7
12.2144 4.6238 -2.7991 0.2096 0 7
12.1721 4.7341 -2.7991 0.2096 0 7
12.1288 4.8440 -2.7991 0.2096 0 7
12.0844 4.9535 -2.7991 0.2096 0 7
12.0391 5.0627 -2.7991 0.2096 0 7
11.9928 5.1714 -2.7991 0.2096 0 7
11.9456 5.2797 -2.7991 0.2096 0 7
11.8973 5.3875 -2.7991 0.2096 0 7
11.8481 5.4949 -2.7991 0.2096 0 7
11.7979 5.6019 -2.7991 0.2096 0 7
11.7467 5.7084 -2.7991 0.2096 0 7
11.6946 5.8144 -2.7991 0.2096 0 7
11.6415 5.9200 -2.7991 0.2096 0 7
11.5875 6.0251 -2.7991 0.2096 0 7
11.5325 6.1297 -2.7991 0.2096 0 7
11.4766 6.2337 -2.7991 0.2096 0 7
11.4197 6.3373 -2.7991 0.2096 0 7
11.3619 6.4404 -2.7991 0.2096 0 7
11.3032 6.5429 -2.7991 0.2096 0 7
11.2435 6.6449 -2.7991 0.2096 0 7
11.1829 6.7463 -2.7991 0.2096 0 7
11.1215 6.8472 -2.7991 0.2096 0 7
11.0591 6.9476 -2.7991 0.2096 0 7
10.9958 7.0473 -2.7991 0.2096 0 7
10.9315 7.1465 -2.7991 0.2096 0 7
10.8664 7.2451 -2.7991 0.2096 0 7
10.8005 7.3431 -2.7991 0.2096 0 7
10.7336 7.4405 -2.7991 0.2096 0 7
10.6658 7.5373 -2.7991 0.2096 0 7
10.5972 7.6335 -2.7991 0.2096 0 7
10.5277 7.7291 -2.7991 0.2096 0 7
10.4574 7.8240 -2.7991 0.2096 0 7
10.3861 7.9183 -2.7991 0.2096 0 7
10.3141 8.0119 -2.7991 0.2096 0 7
10.2412 8.1049 -2.7991 0.2096 0 7
10.1674 8.1972 -2.7991 0.2096 0 7
10.0929 8.2889 -2.7991 0.2096 0 7
10.0175 8.3798 -2.7991 0.2096 0 7
9.9412 8.4701 -2.7991 0.2096 0 7
9.8642 8.5597 -2.7991 0.2096 0 7
9.7864 8.6486 -2.7991 0.2096 0 7
9.7077 8.7368 -2.7991 0.2096 0 7
9.6240 8.8203 -2.7979 0.2158 0 8
9.5377 8.9013 -2.7961 0.2159 0 8
9.4507 8.9815 -2.7943 0.2161 0 8
9.3631 9.0608 -2.7925 0.2162 0 8
9.2035 9.0691 -2.7693 0.4323 0 8
8.9628 8.9932 -2.7212 0.5130 0 8
8.7524 8.9424 -2.6818 0.5205 0 8
8.5578 8.9033 -2.6467 0.2096 0 8
8.4769 8.9803 -2.6467 0.2096 0 8
8.3953 9.0566 -2.6467 0.2096 0 8
8.3130 9.1322 -2.6467 0.2096 0 8
8.2300 9.2071 -2.6467 0.2096 0 8
8.1464 9.2811 -2.6467 0.2096 0 8
8.0621 9.3545 -2.6467 0.2096 0 8
7.9771 9.4270 -2.6467 0.2096 0 8
7.8915 9.4988 -2.6467 0.2096 0 8
7.8053 9.5698 -2.6467 0.2096 0 8
7.7184 9.6400 -2.6467 0.2096 0 8
7.6308 9.7094 -2.6467 0.2096 0 8
7.5427 9.7781 -2.6467 0.2096 0 8
7.4539 9.8459 -2.6467 0.2096 0 8
7.3645 9.9130 -2.6467 0.2096 0 8
7.2746 9.9792 -2.6467 0.2096 0 8
7.1840 10.0446 -2.6467 0.2096 0 8
7.0928 10.1092 -2.6467 0.2096 0 8
7.0011 10.1729 -2.6467 0.2096 0 8
6.9088 10.2358 -2.6467 0.2096 0 8
6.8159 10.2979 -2.6467 0.2096 0 8
6.7224 10.3592 -2.6467 0.2096 0 8
6.6284 10.4195 -2.6467 0.2096 0 8
6.5339 10.4791 -2.6467 0.2096 0 8
6.4388 10.5378 -2.6467 0.2096 0 8
6.3432 10.5956 -2.6467 0.2096 0 8
6.2471 10.6525 -2.6467 0.2096 0 8
6.1505 10.7086 -2.6467 0.2096 0 8
6.0534 10.7638 -2.6467 0.2096 0 8
5.9557 10.8181 -2.6467 0.2096 0 8
5.8576 10.8716 -2.6467 0.2096 0 8
5.7590 10.9242 -2.6467 0.2096 0 8
5.6600 10.9757 -2.6467 0.2096 0 8
5.5604 11.0265 -2.6467 0.2096 0 8
5.4605 11.0764 -2.6467 0.2096 0 8
5.3600 11.1254 -2.6467 0.2096 0 8
5.2591 11.1734 -2.6467 0.2096 0 8
5.1578 11.2205 -2.6467 0.2096 0 8
5.0561 11.2667 -2.6467 0.2096 0 8
4.9540 11.3120 -2.6467 0.2096 0 8
4.8515 11.3563 -2.6467 0.2096 0 8
4.7485 11.3998 -2.6467 0.2096 0 8
4.6452 11.4423 -2.6467 0.2096 0 8
4.5415 11.4838 -2.6467 0.2096 0 8
4.4374 11.5244 -2.6467 0.2096 0 8
4.3330 11.5641 -2.6467 0.2096 0 8
4.2282 11.6028 -2.6467 0.2096 0 8
4.1230 11.6406 -2.6467 0.2096 0 8
4.0175 11.6774 -2.6467 0.2096 0 8
3.9117 11.7133 -2.6467 0.2096 0 8
3.8056 11.7482 -2.6467 0.2096 0 8
3.0996 9.8726 -2.2178 0.9799 0 5
3.0073 9.8909 -2.2157 0.9808 0 5
2.9152 9.9091 -2.2137 0.9817 0 5
2.8828 10.1367 -2.2587 0.0897 0 5
3.2705 11.9083 -2.6467 0.2096 0 8
3.1626 11.9374 -2.6467 0.2096 0 8
3.0545 11.9655 -2.6467 0.2096 0 8
2.9461 11.9927 -2.6467 0.2096 0 8
2.8375 12.0188 -2.6467 0.2096 0 8
2.7286 12.0440 -2.6467 0.2096 0 8
2.6196 12.0682 -2.6467 0.2096 0 8
2.5103 12.0914 -2.6467 0.2096 0 8
2.4008 12.1136 -2.6467 0.2096 0 8
2.2911 12.1348 -2.6467 0.2096 0 8
2.1812 12.1551 -2.6467 0.2096 0 8
2.0712 12.1743 -2.6467 0.2096 0 8
1.9609 12.1925 -2.6467 0.2096 0 8
1.8505 12.2098 -2.6467 0.2096 0 8
1.7400 12.2260 -2.6467 0.2096 0 8
1.6293 12.2413 -2.6467 0.2096 0 8
1.5185 12.2555 -2.6467 0.2096 0 8
1.4076 12.2687 -2.6467 0.2096 0 8
1.2965 12.2810 -2.6467 0.2096 0 8
1.1854 12.2922 -2.6467 0.2096 0 8
1.0741 12.3024 -2.6467 0.2096 0 8
0.9628 12.3116 -2.6467 0.2096 0 8
0.8514 12.3198 -2.6467 0.2096 0 8
0.7399 12.3270 -2.6467 0.2096 0 8
0.6283 12.3332 -2.6467 0.2096 0 8
0.5167 12.3384 -2.6467 0.2096 0 8
0.4051 12.3426 -2.6467 0.2096 0 8
0.2934 12.3457 -2.6467 0.2096 0 8
0.1817 12.3479 -2.6467 0.2096 0 8
0.0700 12.3490 -2.6467 0.2096 0 8
-0.0418 12.3491 -2.6467 0.2096 0 8
-0.1535 12.3483 -2.6467 0.2096 0 8
-0.2652 12.3464 -2.6467 0.2096 0 8
-0.3769 12.3435 -2.6467 0.2096 0 8
-0.4885 12.3396 -2.6467 0.2096 0 8
-0.6001 12.3346 -2.6467 0.2096 0 8
-0.7117 12.3287 -2.6467 0.2096 0 8
-0.8232 12.3218 -2.6467 0.2096 0 8
-0.9346 12.3138 -2.6467 0.2096 0 8
-1.0460 12.3048 -2.6467 0.2096 0 8
-1.1573 12.2949 -2.6467 0.2096 0 8
-1.2685 12.2839 -2.6467 0.2096 0 8
-1.3795 12.2719 -2.6467 0.2096 0 8
-1.4905 12.2589 -2.6467 0.2096 0 8
-1.6014 12.2450 -2.6467 0.2096 0 8
-1.7121 12.2300 -2.6467 0.2096 0 8
-1.8226 12.2140 -2.6467 0.2096 0 8
-1.9331 12.1970 -2.6467 0.2096 0 8
-2.0433 12.1790 -2.6467 0.2096 0 8
-2.1534 12.1600 -2.6467 0.2096 0 8
-2.2634 12.1400 -2.6467 0.2096 0 8
-2.3731 12.1191 -2.6467 0.2096 0 8
-2.4826 12.0971 -2.6467 0.2096 0 8
-2.5920 12.0741 -2.6467 0.2096 0 8
-2.7011 12.0502 -2.6467 0.2096 0 8
-2.8100 12.0253 -2.6467 0.2096 0 8
-2.9187 11.9994 -2.6467 0.2096 0 8
-3.0271 11.9725 -2.6467 0.2096 0 8
-3.1353 11.9446 -2.6467 0.2096 0 8
-3.2432 11.9157 -2.6467 0.2096 0 8
-3.3509 11.8859 -2.6467 0.2096 0 8
-3.4583 11.8551 -2.6467 0.2096 0 8
-3.5654 11.8233 -2.6467 0.2096 0 8
-3.6722 11.7906 -2.6467 0.2096 0 8
-3.7787 11.7569 -2.6467 0.2096 0 8
-3.8850 11.7222 -2.6467 0.2096 0 8
-3.9908 11.6866 -2.6467 0.2096 0 8
-4.0964 11.6500 -2.6467 0.2096 0 8
-4.2016 11.6125 -2.6467 0.2096 0 8
-4.3065 11.5740 -2.6467 0.2096 0 8
-4.4111 11.5345 -2.6467 0.2096 0 8
-4.5152 11.4942 -2.6467 0.2096 0 8
-4.6190 11.4528 -2.6467 0.2096 0 8
-4.7225 11.4106 -2.6467 0.2096 0 8
-4.8255 11.3674 -2.6467 0.2096 0 8
-4.9281 11.3233 -2.6467 0.2096 0 8
-5.0304 11.2782 -2.6467 0.2096 0 8
-5.1322 11.2323 -2.6467 0.2096 0 8
-5.2336 11.1854 -2.6467 0.2096 0 8
-5.3346 11.1376 -2.6467 0.2096 0 8
-5.4351 11.0888 -2.6467 0.2096 0 8
-5.5352 11.0392 -2.6467 0.2096 0 8
-5.6349 10.9887 -2.6467 0.2096 0 8
-5.7340 10.9373 -2.6467 0.2096 0 8
-5.8328 10.8849 -2.6467 0.2096 0 8
-5.9310 10.8317 -2.6467 0.2096 0 8
-6.0287 10.7776 -2.6467 0.2096 0 8
-6.1517 10.7676 -2.6578 0.7624 0 8
-6.2964 10.7929 -2.6780 0.7566 0 8
-6.4430 10.8182 -2.6986 0.7529 0 8
-6.5917 10.8436 -2.7197 0.7471 0 8
-6.7429 10.8695 -2.7414 0.7412 0 8
-6.8964 10.8957 -2.7636 0.7352 0 8
-7.0524 10.9223 -2.7865 0.7292 0 8
-7.1665 10.8817 -2.7925 0.2213 0 8
-7.2682 10.8215 -2.7939 0.2212 0 8
-7.3693 10.7605 -2.7952 0.2211 0 8
-7.4700 10.6986 -2.7966 0.2210 0 8
-7.5702 10.6358 -2.7979 0.2209 0 8
-7.6693 10.5713 -2.7991 0.2096 0 7
-7.7646 10.5015 -2.7991 0.2096 0 7
-7.8593 10.4308 -2.7991 0.2096 0 7
-7.9534 10.3593 -2.7991 0.2096 0 7
-8.0468 10.2869 -2.7991 0.2096 0 7
-8.1395 10.2137 -2.7991 0.2096 0 7
-8.2316 10.1396 -2.7991 0.2096 0 7
-8.3230 10.0648 -2.7991 0.2096 0 7
-8.4137 9.9891 -2.7991 0.2096 0 7
-8.5037 9.9125 -2.7991 0.2096 0 7
-8.5930 9.8352 -2.7991 0.2096 0 7
-8.6817 9.7571 -2.7991 0.2096 0 7
-8.7696 9.6781 -2.7991 0.2096 0 7
-8.8568 9.5984 -2.7991 0.2096 0 7
-8.9432 9.5179 -2.7991 0.2096 0 7
-9.0290 9.4366 -2.7991 0.2096 0 7
-9.1140 9.3545 -2.7991 0.2096 0 7
-9.1982 9.2717 -2.7991 0.2096 0 7
-9.2817 9.1881 -2.7991 0.2096 0 7
-9.3645 9.1037 -2.7991 0.2096 0 7
-9.4465 9.0186 -2.7991 0.2096 0 7
-9.5277 8.9328 -2.7991 0.2096 0 6
-9.6081 8.8462 -2.7991 0.2096 0 7
-9.6877 8.7590 -2.7991 0.2096 0 7
-9.7666 8.6710 -2.7991 0.2096 0 7
-9.8446 8.5822 -2.7991 0.2096 0 7
-9.9219 8.4928 -2.7991 0.2096 0 7
-9.9983 8.4027 -2.7991 0.2096 0 7
-10.0739 8.3119 -2.7991 0.2096 0 7
-10.1487 8.2204 -2.7991 0.2096 0 7
-10.2226 8.1283 -2.7991 0.2096 0 7
-10.2957 8.0355 -2.7991 0.2096 0 7
-10.3680 7.9420 -2.7991 0.2096 0 7
-10.4395 7.8479 -2.7991 0.2096 0 7
-10.5100 7.7531 -2.7991 0.2096 0 7
-10.5797 7.6577 -2.7991 0.2096 0 7
-10.6486 7.5617 -2.7991 0.2096 0 7
-10.7165 7.4650 -2.7991 0.2096 0 7
-10.7836 7.3678 -2.7991 0.2096 0 7
-10.8499 7.2699 -2.7991 0.2096 0 7
-10.9152 7.1715 -2.7991 0.2096 0 7
-10.9796 7.0724 -2.7991 0.2096 0 7
-11.0432 6.9728 -2.7991 0.2096 0 7
-11.1058 6.8726 -2.7991 0.2096 0 7
-11.1675 6.7719 -2.7991 0.2096 0 7
-11.2283 6.6706 -2.7991 0.2096 0 7
-11.2882 6.5687 -2.7991 0.2096 0 7
-11.3472 6.4663 -2.7991 0.2096 0 7
-11.4052 6.3634 -2.7991 0.2096 0 7
-11.4623 6.2599 -2.7991 0.2096 0 7
-11.5185 6.1560 -2.7991 0.2096 0 7
-11.5737 6.0515 -2.7991 0.2096 0 7
-11.6280 5.9466 -2.7991 0.2096 0 7
-11.6813 5.8411 -2.7991 0.2096 0 7
-11.7336 5.7352 -2.7991 0.2096 0 7
-11.7850 5.6288 -2.7991 0.2096 0 7
-11.8355 5.5220 -2.7991 0.2096 0 7
-11.8850 5.4147 -2.7991 0.2096 0 7
-11.9335 5.3069 -2.7991 0.2096 0 7
-11.9810 5.1988 -2.7991 0.2096 0 7
-12.0275 5.0902 -2.7991 0.2096 0 7
-12.0731 4.9811 -2.7991 0.2096 0 7
-12.1177 4.8717 -2.7991 0.2096 0 7
-12.1612 4.7619 -2.7991 0.2096 0 7
-12.2038 4.6517 -2.7991 0.2096 0 7
-12.2454 4.5411 -2.7991 0.2096 0 7
-12.2860 4.4301 -2.7991 0.2096 0 7
-12.3256 4.3188 -2.7991 0.2096 0 7
-12.3641 4.2071 -2.7991 0.2096 0 7
-12.4017 4.0951 -2.7991 0.2096 0 7
-12.4382 3.9827 -2.7991 0.2096 0 7
-12.4737 3.8700 -2.7991 0.2096 0 7
-12.5082 3.7570 -2.7991 0.2096 0 7
-12.5417 3.6437 -2.7991 0.2096 0 7
-12.5742 3.5301 -2.7991 0.2096 0 7
-12.6056 3.4162 -2.7991 0.2096 0 7
-12.6360 3.3020 -2.7991 0.2096 0 7
-12.6653 3.1875 -2.7991 0.2096 0 7
-12.6937 3.0728 -2.7991 0.2096 0 7
-12.7209 2.9579 -2.7991 0.2096 0 7
-12.7472 2.8427 -2.7991 0.2096 0 7
-12.7724 2.7272 -2.7991 0.2096 0 7
-12.7965 2.6115 -2.7991 0.2096 0 7
-12.8196 2.4957 -2.7991 0.2096 0 6
-12.8417 2.3796 -2.7991 0.2096 0 7
-12.8627 2.2633 -2.7991 0.2096 0 6
-12.8826 2.1469 -2.7991 0.2096 0 7
-12.9015 2.0302 -2.7991 0.2096 0 7
-12.9194 1.9134 -2.7991 0.2096 0 7
-12.9361 1.7965 -2.7991 0.2096 0 7
-12.9519 1.6794 -2.7991 0.2096 0 7
-12.9665 1.5621 -2.7991 0.2096 0 7
-12.9801 1.4448 -2.7991 0.2096 0 7
-12.9927 1.3273 -2.7991 0.2096 0 7
-13.0042 1.2097 -2.7991 0.2096 0 7
-13.0146 1.0920 -2.7991 0.2096 0 7
-13.0239 0.9742 -2.7991 0.2096 0 7
-13.0322 0.8563 -2.7991 0.2096 0 7
-13.0394 0.7384 -2.7991 0.2096 0 7
-13.0456 0.6204 -2.7991 0.2096 0 7
-13.0506 0.5023 -2.7991 0.2096 0 7
-13.0546 0.3843 -2.7991 0.2096 0 7
-13.0576 0.2661 -2.7991 0.2096 0 7
-13.0595 0.1480 -2.7991 0.2096 0 7
-13.0603 0.0298 -2.7991 0.2096 0 7
-13.0600 -0.0883 -2.7991 0.2096 0 7
-13.0587 -0.2065 -2.7991 0.2096 0 7
-13.0563 -0.3246 -2.7991 0.2096 0 7
-13.0528 -0.4427 -2.7991 0.2096 0 7
-13.0483 -0.5608 -2.7991 0.2096 0 7
-13.0426 -0.6788 -2.7991 0.2096 0 7
-13.0360 -0.7968 -2.7991 0.2096 0 7
-13.0282 -0.9147 -2.7991 0.2096 0 7
-13.0194 -1.0325 -2.7991 0.2096 0 7
-13.0095 -1.1502 -2.7991 0.2096 0 7
-12.9986 -1.2679 -2.7991 0.2096 0 7
-12.9866 -1.3854 -2.7991 0.2096 0 7
-12.9735 -1.5029 -2.7991 0.2096 0 7
-12.9594 -1.6202 -2.7991 0.2096 0 7
-12.9442 -1.7373 -2.7991 0.2096 0 7
-12.9280 -1.8544 -2.7991 0.2096 0 7
-12.9107 -1.9712 -2.7991 0.2096 0 7
-12.8923 -2.0880 -2.7991 0.2096 0 7
-12.8729 -2.2045 -2.7991 0.2096 0 7
-12.8524 -2.3209 -2.7991 0.2096 0 7
-12.8309 -2.4371 -2.7991 0.2096 0 7
-12.8083 -2.5531 -2.7991 0.2096 0 7
-12.7847 -2.6688 -2.7991 0.2096 0 7
-12.7600 -2.7844 -2.7991 0.2096 0 7
-12.7343 -2.8997 -2.7991 0.2096 0 7
-12.7076 -3.0148 -2.7991 0.2096 0 7
-12.6798 -3.1296 -2.7991 0.2096 0 7
-12.6509 -3.2442 -2.7991 0.2096 0 7
-12.6211 -3.3585 -2.7991 0.2096 0 7
-12.5902 -3.4726 -2.7991 0.2096 0 7
-12.5582 -3.5863 -2.7991 0.2096 0 7
-12.5253 -3.6998 -2.7991 0.2096 0 7
-12.4913 -3.8130 -2.7991 0.2096 0 7
-12.4563 -3.9258 -2.7991 0.2096 0 7
-12.4203 -4.0383 -2.7991 0.2096 0 7
-12.3832 -4.1505 -2.7991 0.2096 0 7
-12.3452 -4.2624 -2.7991 0.2096 0 7
-12.3061 -4.3739 -2.7991 0.2096 0 7
-12.2660 -4.4851 -2.7991 0.2096 0 7
-12.2249 -4.5959 -2.7991 0.2096 0 7
-12.1829 -4.7063 -2.7991 0.2096 0 7
-12.1398 -4.8163 -2.7991 0.2096 0 6
-12.0957 -4.9259 -2.7991 0.2096 0 7
-12.0507 -5.0351 -2.7991 0.2096 0 7
-12.0046 -5.1440 -2.7991 0.2096 0 7
-11.9576 -5.2524 -2.7991 0.2096 0 7
-11.9096 -5.3603 -2.7991 0.2096 0 7
-11.8606 -5.4678 -2.7991 0.2096 0 7
-11.8107 -5.5749 -2.7991 0.2096 0 7
-11.7597 -5.6815 -2.7991 0.2096 0 7
-11.7079 -5.7877 -2.7991 0.2096 0 7
-11.6550 -5.8934 -2.7991 0.2096 0 7
-11.6012 -5.9986 -2.7991 0.2096 0 7
-11.5465 -6.1033 -2.7991 0.2096 0 7
-11.4908 -6.2075 -2.7991 0.2096 0 7
-11.4342 -6.3112 -2.7991 0.2096 0 7
-11.3766 -6.4144 -2.7991 0.2096 0 7
-11.3181 -6.5170 -2.7991 0.2096 0 7
