ply
format ascii 1.0
element vertex 1372
property float32 x
property float32 y
property float32 z
property float32 CosAngle
property uint32 ObjIdx
property uint32 ObjTag
end_header
-0.8157 -34.1311 -2.5999 0.0759 0 8
-0.5067 -34.1371 -2.5999 0.0759 0 8
-0.1977 -34.1403 -2.5999 0.0759 0 8
0.1113 -34.1407 -2.5999 0.0759 0 8
0.4203 -34.1383 -2.5999 0.0759 0 8
0.7293 -34.1331 -2.5999 0.0759 0 8
1.0382 -34.1251 -2.5999 0.0759 0 8
1.3470 -34.1143 -2.5999 0.0759 0 8
1.6557 -34.1007 -2.5999 0.0759 0 8
1.9643 -34.0843 -2.5999 0.0759 0 8
2.2727 -34.0651 -2.5999 0.0759 0 8
2.5809 -34.0432 -2.5999 0.0759 0 8
2.8890 -34.0184 -2.5999 0.0759 0 8
3.1968 -33.9908 -2.5999 0.0759 0 8
3.5043 -33.9605 -2.5999 0.0759 0 8
3.8115 -33.9274 -2.5999 0.0759 0 8
4.1184 -33.8915 -2.5999 0.0759 0 8
4.4250 -33.8529 -2.5999 0.0759 0 8
4.7312 -33.8114 -2.5999 0.0759 0 8
5.0371 -33.7672 -2.5999 0.0759 0 8
5.3425 -33.7202 -2.5999 0.0759 0 8
5.6475 -33.6705 -2.5999 0.0759 0 8
5.9520 -33.6180 -2.5999 0.0759 0 8
6.2560 -33.5628 -2.5999 0.0759 0 8
6.5595 -33.5048 -2.5999 0.0759 0 8
6.8625 -33.4440 -2.5999 0.0759 0 8
7.1650 -33.3805 -2.5999 0.0759 0 8
7.4668 -33.3143 -2.5999 0.0759 0 8
7.7680 -33.2454 -2.5999 0.0759 0 8
8.0686 -33.1737 -2.5999 0.0759 0 8
5.1488 -20.3647 -1.5996 0.7272 0 19
8.6678 -33.0222 -2.5999 0.0759 0 8
8.9663 -32.9424 -2.5999 0.0759 0 8
9.2641 -32.8599 -2.5999 0.0759 0 8
9.5611 -32.7747 -2.5999 0.0759 0 8
9.8574 -32.6868 -2.5999 0.0759 0 8
10.1528 -32.5963 -2.5999 0.0759 0 8
10.4475 -32.5030 -2.5999 0.0759 0 8
10.7412 -32.4072 -2.5999 0.0759 0 8
11.0341 -32.3086 -2.5999 0.0759 0 8
11.3261 -32.2074 -2.5999 0.0759 0 8
11.6171 -32.1036 -2.5999 0.0759 0 8
11.9072 -31.9971 -2.5999 0.0759 0 8
12.1964 -31.8880 -2.5999 0.0759 0 8
12.4844 -31.7763 -2.5999 0.0759 0 8
12.7716 -31.6620 -2.5999 0.0759 0 8
8.4670 -20.4549 -1.6859 0.3001 0 19
5.7526 -13.5491 -1.1210 0.6373 0 5
8.8002 -20.2163 -1.6791 0.9004 0 19
9.0176 -20.2140 -1.6856 0.9440 0 19
9.2292 -20.1950 -1.6909 0.9411 0 19
9.4395 -20.1702 -1.6959 0.9640 0 19
9.6449 -20.1324 -1.7000 0.9653 0 19
9.8505 -20.0929 -1.7041 0.9630 0 19
15.3055 -30.5178 -2.5999 0.0759 0 8
15.5811 -30.3780 -2.5999 0.0759 0 8
13.0418 -24.8703 -2.1386 0.3848 0 19
12.9859 -24.2280 -2.0934 0.3931 0 19
12.9235 -23.5960 -2.0488 0.3615 0 19
13.3640 -23.8847 -2.0842 0.3238 0 19
13.6436 -23.8747 -2.0941 0.4178 0 19
13.8267 -23.6946 -2.0892 0.0759 0 19
14.0406 -23.5685 -2.0892 0.0759 0 19
17.7380 -29.1712 -2.5999 0.0759 0 8
18.0013 -29.0095 -2.5999 0.0759 0 8
18.2631 -28.8454 -2.5999 0.0759 0 8
18.5235 -28.6789 -2.5999 0.0759 0 8
18.7823 -28.5100 -2.5999 0.0759 0 8
19.0396 -28.3389 -2.5999 0.0759 0 8
19.2953 -28.1654 -2.5999 0.0759 0 8
19.5494 -27.9896 -2.5999 0.0759 0 8
19.8020 -27.8115 -2.5999 0.0759 0 8
20.0529 -27.6311 -2.5999 0.0759 0 8
20.3021 -27.4485 -2.5999 0.0759 0 8
20.5497 -27.2636 -2.5999 0.0759 0 8
20.7957 -27.0765 -2.5999 0.0759 0 8
21.0399 -26.8872 -2.5999 0.0759 0 8
21.2824 -26.6957 -2.5999 0.0759 0 8
21.5231 -26.5019 -2.5999 0.0759 0 8
21.7621 -26.3060 -2.5999 0.0759 0 8
21.9993 -26.1080 -2.5999 0.0759 0 8
21.0983 -24.5836 -2.4670 0.8210 0 5
23.7853 -27.2123 -2.7523 0.0759 0 7
24.0307 -26.9959 -2.7523 0.0759 0 7
24.2740 -26.7773 -2.7523 0.0759 0 7
24.5154 -26.5565 -2.7523 0.0759 0 7
24.7548 -26.3336 -2.7523 0.0759 0 6
24.9921 -26.1084 -2.7523 0.0759 0 7
25.2274 -25.8811 -2.7523 0.0759 0 7
25.4605 -25.6517 -2.7523 0.0759 0 7
25.6917 -25.4202 -2.7523 0.0759 0 7
25.9207 -25.1866 -2.7523 0.0759 0 7
26.1476 -24.9510 -2.7523 0.0759 0 7
26.3724 -24.7133 -2.7523 0.0759 0 7
26.5950 -24.4736 -2.7523 0.0759 0 7
26.8154 -24.2319 -2.7523 0.0759 0 7
27.0336 -23.9882 -2.7523 0.0759 0 7
27.2497 -23.7425 -2.7523 0.0759 0 7
27.4634 -23.4949 -2.7523 0.0759 0 7
27.6749 -23.2454 -2.7523 0.0759 0 7
27.8842 -22.9939 -2.7523 0.0759 0 7
28.0912 -22.7406 -2.7523 0.0759 0 7
28.2959 -22.4854 -2.7523 0.0759 0 7
28.4982 -22.2284 -2.7523 0.0759 0 7
28.6983 -21.9695 -2.7523 0.0759 0 7
28.8959 -21.7089 -2.7523 0.0759 0 7
29.0912 -21.4465 -2.7523 0.0759 0 7
29.2841 -21.1823 -2.7523 0.0759 0 7
29.4747 -20.9163 -2.7523 0.0759 0 7
29.6629 -20.6486 -2.7523 0.0759 0 7
29.8485 -20.3794 -2.7523 0.0759 0 7
30.0317 -20.1084 -2.7523 0.0759 0 7
30.2125 -19.8358 -2.7523 0.0759 0 7
30.3908 -19.5615 -2.7523 0.0759 0 7
30.5666 -19.2856 -2.7523 0.0759 0 7
30.7399 -19.0082 -2.7523 0.0759 0 7
30.9106 -18.7292 -2.7523 0.0759 0 7
31.0789 -18.4486 -2.7523 0.0759 0 6
31.2446 -18.1666 -2.7523 0.0759 0 7
31.4078 -17.8830 -2.7523 0.0759 0 7
31.5683 -17.5980 -2.7523 0.0759 0 7
31.7263 -17.3116 -2.7523 0.0759 0 7
31.8817 -17.0237 -2.7523 0.0759 0 7
32.0345 -16.7345 -2.7523 0.0759 0 7
32.1846 -16.4438 -2.7523 0.0759 0 7
32.3321 -16.1519 -2.7523 0.0759 0 7
32.4770 -15.8586 -2.7523 0.0759 0 7
32.6192 -15.5640 -2.7523 0.0759 0 7
32.7587 -15.2681 -2.7523 0.0759 0 7
32.8956 -14.9710 -2.7523 0.0759 0 7
33.0297 -14.6726 -2.7523 0.0759 0 7
33.1612 -14.3731 -2.7523 0.0759 0 7
33.2899 -14.0723 -2.7523 0.0759 0 7
33.4159 -13.7704 -2.7523 0.0759 0 7
33.5392 -13.4674 -2.7523 0.0759 0 7
33.6597 -13.1633 -2.7523 0.0759 0 7
33.7775 -12.8581 -2.7523 0.0759 0 7
33.8925 -12.5519 -2.7523 0.0759 0 7
34.0047 -12.2446 -2.7523 0.0759 0 7
34.1141 -11.9363 -2.7523 0.0759 0 7
34.2208 -11.6270 -2.7523 0.0759 0 7
34.3246 -11.3168 -2.7523 0.0759 0 7
34.4256 -11.0057 -2.7523 0.0759 0 7
34.5238 -10.6937 -2.7523 0.0759 0 7
34.6192 -10.3807 -2.7523 0.0759 0 7
34.7117 -10.0670 -2.7523 0.0759 0 7
34.8015 -9.7524 -2.7523 0.0759 0 7
34.8883 -9.4370 -2.7523 0.0759 0 7
34.9723 -9.1208 -2.7523 0.0759 0 7
35.0534 -8.8040 -2.7523 0.0759 0 7
35.1317 -8.4863 -2.7523 0.0759 0 7
35.2070 -8.1680 -2.7523 0.0759 0 7
35.2795 -7.8490 -2.7523 0.0759 0 7
35.3491 -7.5294 -2.7523 0.0759 0 7
35.4158 -7.2091 -2.7523 0.0759 0 7
35.4796 -6.8883 -2.7523 0.0759 0 7
35.5405 -6.5669 -2.7523 0.0759 0 7
35.5985 -6.2449 -2.7523 0.0759 0 7
35.6536 -5.9225 -2.7523 0.0759 0 7
35.7057 -5.5995 -2.7523 0.0759 0 7
35.7549 -5.2761 -2.7523 0.0759 0 7
35.8012 -4.9523 -2.7523 0.0759 0 7
35.8446 -4.6280 -2.7523 0.0759 0 7
35.8850 -4.3034 -2.7523 0.0759 0 7
35.9224 -3.9784 -2.7523 0.0759 0 7
35.9570 -3.6531 -2.7523 0.0759 0 7
35.9886 -3.3275 -2.7523 0.0759 0 7
36.0172 -3.0017 -2.7523 0.0759 0 7
36.0429 -2.6755 -2.7523 0.0759 0 7
36.0657 -2.3492 -2.7523 0.0759 0 7
36.0854 -2.0227 -2.7523 0.0759 0 7
36.1023 -1.6960 -2.7523 0.0759 0 7
36.1161 -1.3692 -2.7523 0.0759 0 6
36.1271 -1.0422 -2.7523 0.0759 0 6
36.1350 -0.7152 -2.7523 0.0759 0 7
36.1400 -0.3881 -2.7523 0.0759 0 7
36.1420 -0.0610 -2.7523 0.0759 0 7
36.1411 0.2662 -2.7523 0.0759 0 7
36.1372 0.5933 -2.7523 0.0759 0 7
36.1304 0.9203 -2.7523 0.0759 0 7
36.1206 1.2473 -2.7523 0.0759 0 7
36.1078 1.5742 -2.7523 0.0759 0 7
36.0921 1.9009 -2.7523 0.0759 0 7
36.0734 2.2275 -2.7523 0.0759 0 7
36.0517 2.5539 -2.7523 0.0759 0 7
36.0271 2.8801 -2.7523 0.0759 0 7
35.9996 3.2061 -2.7523 0.0759 0 7
35.9691 3.5318 -2.7523 0.0759 0 7
35.9357 3.8572 -2.7523 0.0759 0 7
35.8993 4.1823 -2.7523 0.0759 0 7
35.8600 4.5070 -2.7523 0.0759 0 7
35.8177 4.8314 -2.7523 0.0759 0 7
35.7725 5.1554 -2.7523 0.0759 0 7
35.7244 5.4790 -2.7523 0.0759 0 7
35.6733 5.8021 -2.7523 0.0759 0 7
35.6193 6.1247 -2.7523 0.0759 0 7
35.5625 6.4469 -2.7523 0.0759 0 7
35.5026 6.7685 -2.7523 0.0759 0 7
35.4399 7.0896 -2.7523 0.0759 0 7
35.3743 7.4100 -2.7523 0.0759 0 7
35.3058 7.7299 -2.7523 0.0759 0 7
35.2344 8.0492 -2.7523 0.0759 0 7
35.1601 8.3677 -2.7523 0.0759 0 7
35.0829 8.6858 -2.7523 0.0759 0 6
35.0028 9.0028 -2.7523 0.0759 0 6
34.9199 9.3192 -2.7523 0.0759 0 6
34.8342 9.6349 -2.7523 0.0759 0 7
34.7455 9.9498 -2.7523 0.0759 0 7
34.6541 10.2639 -2.7523 0.0759 0 7
34.5597 10.5771 -2.7523 0.0759 0 7
34.4626 10.8895 -2.7523 0.0759 0 7
34.3626 11.2010 -2.7523 0.0759 0 7
34.2598 11.5115 -2.7523 0.0759 0 7
34.1542 11.8212 -2.7523 0.0759 0 7
34.0458 12.1298 -2.7523 0.0759 0 7
33.9347 12.4374 -2.7523 0.0759 0 7
33.8207 12.7441 -2.7523 0.0759 0 7
33.7040 13.0497 -2.7523 0.0759 0 7
33.5845 13.3542 -2.7523 0.0759 0 7
33.4622 13.6576 -2.7523 0.0759 0 7
33.3372 13.9599 -2.7523 0.0759 0 7
33.2095 14.2611 -2.7523 0.0759 0 7
33.0791 14.5611 -2.7523 0.0759 0 7
32.9459 14.8599 -2.7523 0.0759 0 7
32.8101 15.1575 -2.7523 0.0759 0 7
32.6716 15.4538 -2.7523 0.0759 0 7
32.5303 15.7489 -2.7523 0.0759 0 7
32.3865 16.0427 -2.7523 0.0759 0 7
32.2399 16.3352 -2.7523 0.0759 0 7
32.0908 16.6263 -2.7523 0.0759 0 7
31.9390 16.9161 -2.7523 0.0759 0 7
31.7845 17.2044 -2.7523 0.0759 0 7
31.6275 17.4914 -2.7523 0.0759 0 7
31.4679 17.7770 -2.7523 0.0759 0 7
31.3057 18.0611 -2.7523 0.0759 0 7
31.1410 18.3437 -2.7523 0.0759 0 7
30.9737 18.6248 -2.7523 0.0759 0 7
30.8038 18.9043 -2.7523 0.0759 0 7
30.6315 19.1824 -2.7523 0.0759 0 7
30.4566 19.4588 -2.7523 0.0759 0 7
30.2792 19.7337 -2.7523 0.0759 0 7
30.0994 20.0070 -2.7523 0.0759 0 7
29.9171 20.2786 -2.7523 0.0759 0 6
29.7323 20.5485 -2.7523 0.0759 0 7
29.5451 20.8168 -2.7523 0.0759 0 7
29.3555 21.0834 -2.7523 0.0759 0 7
29.1634 21.3482 -2.7523 0.0759 0 7
28.9690 21.6113 -2.7523 0.0759 0 7
28.7722 21.8726 -2.7523 0.0759 0 7
28.5731 22.1321 -2.7523 0.0759 0 7
28.3716 22.3898 -2.7523 0.0759 0 7
28.1678 22.6457 -2.7523 0.0759 0 7
27.9616 22.8997 -2.7523 0.0759 0 7
27.7532 23.1519 -2.7523 0.0759 0 7
27.5426 23.4021 -2.7523 0.0759 0 7
27.3296 23.6504 -2.7523 0.0759 0 7
27.1144 23.8968 -2.7523 0.0759 0 7
26.8970 24.1413 -2.7523 0.0759 0 7
26.6775 24.3837 -2.7523 0.0759 0 7
26.4556 24.6242 -2.7523 0.0759 0 7
26.2317 24.8626 -2.7523 0.0759 0 7
26.0056 25.0990 -2.7523 0.0759 0 7
25.7774 25.3333 -2.7523 0.0759 0 7
25.5470 25.5656 -2.7523 0.0759 0 7
25.3146 25.7958 -2.7523 0.0759 0 7
25.0801 26.0239 -2.7523 0.0759 0 7
24.8435 26.2498 -2.7523 0.0759 0 7
24.6049 26.4736 -2.7523 0.0759 0 7
24.3643 26.6952 -2.7523 0.0759 0 6
24.1217 26.9146 -2.7523 0.0759 0 7
10.0200 11.3859 -1.1550 0.5100 0 9
9.8527 11.4023 -1.1476 0.5133 0 9
9.4674 11.1589 -1.1144 0.7427 0 9
9.3039 11.1696 -1.1070 0.6238 0 9
9.0645 11.0847 -1.0904 0.8147 0 9
8.9105 11.1000 -1.0840 0.9734 0 9
8.6280 10.9496 -1.0616 0.8070 0 9
8.4950 10.9838 -1.0574 0.8102 0 9
8.2155 10.8234 -1.0348 0.7171 0 9
8.0631 10.8248 -1.0279 0.7220 0 9
7.6978 10.5320 -0.9934 0.0701 0 9
7.7234 10.7703 -1.0093 0.5175 0 9
7.2766 10.3436 -0.9631 0.1241 0 9
7.2158 10.4571 -0.9675 0.1236 0 9
7.1242 10.5269 -0.9680 0.4733 0 9
6.9206 10.4282 -0.9531 0.2130 0 9
6.6596 10.2349 -0.9299 0.2275 0 9
6.5459 10.2621 -0.9269 0.2282 0 9
6.2302 9.9649 -0.8950 0.2428 0 9
6.3114 10.3011 -0.9200 0.2317 0 9
6.0749 10.1194 -0.8988 0.7741 0 9
5.8566 9.9590 -0.8798 0.3640 0 9
5.8194 10.1039 -0.8879 0.5801 0 9
5.5189 9.7860 -0.8556 0.1120 0 9
5.3601 9.7087 -0.8445 0.5509 0 9
5.2641 9.7421 -0.8433 0.5517 0 9
5.0776 9.6039 -0.8273 0.3497 0 9
5.1028 9.8666 -0.8459 0.8605 0 9
4.8149 9.5202 -0.8124 0.2906 0 9
4.7041 9.5139 -0.8082 0.6609 0 9
4.5794 9.4767 -0.8015 0.6057 0 9
4.4576 9.4418 -0.7951 0.6718 0 9
4.3373 9.4067 -0.7888 0.6772 0 9
4.2183 9.3706 -0.7826 0.0792 0 9
4.0941 9.3192 -0.7751 0.8419 0 9
3.9376 9.1878 -0.7612 0.5988 0 9
3.8528 9.2197 -0.7609 0.7057 0 9
3.7448 9.1942 -0.7560 0.2697 0 9
3.6674 9.2428 -0.7573 0.5795 0 9
3.5588 9.2114 -0.7520 0.5836 0 9
3.4311 9.1258 -0.7425 0.1077 0 9
3.3461 9.1501 -0.7419 0.5915 0 9
3.2418 9.1202 -0.7371 0.5954 0 9
3.2084 9.2918 -0.7486 0.3960 0 9
3.0938 9.2299 -0.7413 0.8012 0 9
3.0284 9.3137 -0.7458 0.6761 0 9
2.8698 9.1052 -0.7270 0.5565 0 9
2.7167 8.8997 -0.7086 0.6322 0 9
2.6872 9.0972 -0.7224 0.3646 0 9
2.6155 9.1588 -0.7254 0.5692 0 9
2.5025 9.0733 -0.7168 0.5761 0 9
2.4227 9.1045 -0.7175 0.9056 0 9
2.2765 8.8780 -0.6980 0.8715 0 9
2.1919 8.8811 -0.6966 0.8732 0 9
2.1075 8.8842 -0.6953 0.8748 0 9
2.0235 8.8874 -0.6941 0.8763 0 9
1.9690 9.0246 -0.7034 0.9382 0 9
1.9355 9.2734 -0.7214 0.3824 0 9
1.9172 9.6205 -0.7470 0.7510 0 9
1.6924 8.9125 -0.6908 0.8179 0 9
1.6177 8.9610 -0.6934 0.8149 0 9
1.5425 9.0098 -0.6961 0.8117 0 9
1.5012 9.2722 -0.7153 0.1674 0 9
1.3737 9.0002 -0.6933 0.2043 0 9
1.3217 9.2188 -0.7092 0.4941 0 9
1.2425 9.2618 -0.7116 0.5162 0 9
1.1131 8.9088 -0.6837 0.8009 0 9
1.0524 9.0914 -0.6970 0.6347 0 9
0.9719 9.1168 -0.6982 0.6102 0 9
0.8708 8.9355 -0.6837 0.0392 0 9
0.7990 9.0462 -0.6916 0.9614 0 9
0.7101 8.9644 -0.6848 0.6821 0 9
0.6293 8.9763 -0.6853 0.7755 0 9
0.5398 8.8466 -0.6749 0.4964 0 9
0.4626 8.9062 -0.6791 0.6888 0 9
0.3861 9.0070 -0.6865 0.6624 0 9
0.3035 8.9800 -0.6842 0.5495 0 9
0.2206 8.9167 -0.6792 0.6410 0 9
0.1413 9.0090 -0.6861 0.7045 0 9
0.0591 8.9131 -0.6788 0.4733 0 9
-0.0216 8.9261 -0.6798 0.5866 0 9
-0.0986 8.5962 -0.6547 0.7758 0 9
-0.1823 8.8823 -0.6766 0.5992 0 9
-0.2594 8.7704 -0.6682 0.1715 0 9
-0.3404 8.8108 -0.6715 0.7146 0 9
-0.4329 9.0746 -0.6918 0.4752 0 9
-0.5059 8.9100 -0.6796 0.3935 0 9
-0.5696 8.6474 -0.6600 0.8801 0 9
-0.6437 8.5867 -0.6557 0.8848 0 9
-0.7222 8.5904 -0.6565 0.8838 0 9
-0.8110 8.7025 -0.6656 0.9764 0 9
-0.9643 9.4235 -0.7214 0.5471 0 9
-3.7829 33.9307 -2.5999 0.0759 0 14
-1.0936 9.0637 -0.6952 0.8814 0 9
-1.1179 8.6086 -0.6611 0.6716 0 9
-1.2052 8.6664 -0.6663 0.6664 0 9
-1.3038 8.7909 -0.6768 0.3073 0 9
-1.4001 8.8853 -0.6850 0.3632 0 9
-1.4566 8.7295 -0.6740 0.4893 0 9
-1.5608 8.8596 -0.6851 0.6327 0 9
-1.6766 9.0372 -0.7000 0.3864 0 9
-1.7001 8.7226 -0.6768 0.1073 0 9
-1.7608 8.6181 -0.6699 0.8290 0 9
-1.8965 8.8719 -0.6909 0.9050 0 9
-1.9700 8.8244 -0.6885 0.9081 0 9
-2.0504 8.8089 -0.6888 0.7842 0 9
-2.1033 8.6796 -0.6801 0.4733 0 9
-2.1907 8.6955 -0.6829 0.6057 0 9
-2.2716 8.6840 -0.6836 0.7948 0 9
-2.3443 8.6417 -0.6819 0.7967 0 9
-2.4584 8.7482 -0.6920 0.4063 0 9
-2.5326 8.7089 -0.6907 0.7919 0 9
-2.6004 8.6494 -0.6878 0.7952 0 9
-2.7048 8.7099 -0.6945 0.8826 0 9
-2.7588 8.6077 -0.6883 0.3456 0 9
-2.8578 8.6467 -0.6935 0.7702 0 9
-2.9202 8.5743 -0.6898 0.7744 0 9
-2.9216 8.3305 -0.6723 0.8446 0 9
-3.0723 8.5126 -0.6892 0.1969 0 9
-3.1568 8.5051 -0.6909 0.9028 0 9
-3.3135 8.6853 -0.7079 0.6527 0 9
-3.3570 8.5657 -0.7006 0.6595 0 9
-3.3356 8.2894 -0.6805 0.1510 0 9
-3.4356 8.3198 -0.6855 0.8055 0 9
-3.5263 8.3250 -0.6885 0.8020 0 9
-3.6178 8.3303 -0.6916 0.7984 0 9
-3.9545 8.8845 -0.7406 0.5194 0 9
-3.8833 8.5163 -0.7128 0.4188 0 9
-3.9055 8.3636 -0.7029 0.4480 0 9
-3.9331 8.2276 -0.6945 0.4534 0 9
-4.1883 8.5615 -0.7258 0.3268 0 9
-4.2347 8.4615 -0.7206 0.5417 0 9
-4.3824 8.5620 -0.7325 0.8207 0 9
-4.5161 8.6298 -0.7417 0.3662 0 9
-4.6215 8.6400 -0.7462 0.9572 0 9
-4.5775 8.3745 -0.7268 0.7766 0 9
-4.7700 8.5420 -0.7450 0.9673 0 9
-4.7650 8.3546 -0.7324 0.5933 0 9
-4.8791 8.3775 -0.7383 0.6928 0 9
-4.9690 8.3569 -0.7404 0.6908 0 9
-5.0391 8.3030 -0.7396 0.5488 0 9
-5.0914 8.2204 -0.7364 0.5629 0 9
-5.2420 8.2949 -0.7472 0.6844 0 9
-5.3343 8.2741 -0.7497 0.6822 0 9
-5.5851 8.4933 -0.7741 0.8207 0 9
-5.6645 8.4466 -0.7745 0.8203 0 9
-5.6157 8.2122 -0.7576 0.2040 0 9
-5.7875 8.3012 -0.7706 0.8688 0 9
-5.7556 8.0981 -0.7566 0.8297 0 9
-5.8401 8.0615 -0.7581 0.8280 0 9
-5.9250 8.0248 -0.7596 0.8263 0 9
-6.2004 8.2406 -0.7853 0.8361 0 9
-6.1678 8.0447 -0.7720 0.4099 0 9
-6.3151 8.0843 -0.7812 0.6709 0 9
-6.4403 8.0924 -0.7876 0.6655 0 9
-6.5674 8.1006 -0.7942 0.6600 0 9
-6.6543 8.0575 -0.7958 0.5784 0 9
-6.6719 7.9315 -0.7893 0.5914 0 9
-6.9091 8.0642 -0.8087 0.4457 0 9
-7.0870 8.1219 -0.8209 0.8600 0 9
-7.2622 8.1722 -0.8326 0.6390 0 9
-7.3875 8.1632 -0.8384 0.6841 0 9
-7.4737 8.1096 -0.8398 0.4428 0 9
-7.6623 8.1647 -0.8527 0.4835 0 9
-7.7588 8.1190 -0.8552 0.1891 0 9
-5.6765 5.8335 -0.6198 0.8717 0 5
-5.7561 5.8091 -0.6228 0.4772 0 5
-7.9918 7.9207 -0.8569 0.7042 0 9
-8.0958 7.8798 -0.8603 0.8480 0 9
-8.5088 8.1331 -0.8964 0.6870 0 9
-8.4410 7.9234 -0.8816 0.3406 0 9
-8.5040 7.8389 -0.8808 0.0418 0 9
-8.6194 7.8022 -0.8854 0.1915 0 9
-8.6976 7.7309 -0.8862 0.1913 0 9
-8.8955 7.7638 -0.8991 0.7647 0 9
-8.9944 7.7079 -0.9021 0.4909 0 9
-9.3307 7.8507 -0.9286 0.4099 0 9
-9.3734 7.7428 -0.9259 0.6718 0 9
-9.6612 7.8345 -0.9472 0.8095 0 9
-9.7360 7.7501 -0.9476 0.6053 0 9
-10.0072 7.8191 -0.9671 0.9503 0 9
-10.1360 7.7731 -0.9727 0.3355 0 9
-10.3886 7.8185 -0.9901 0.3313 0 9
-10.4086 7.6869 -0.9854 0.6853 0 9
-10.2871 7.4542 -0.9674 0.1033 0 9
-10.7246 7.6242 -1.0021 0.8339 0 9
-10.7896 7.5244 -1.0017 0.8342 0 9
-11.0885 7.5845 -1.0231 0.6880 0 9
-11.1802 7.4996 -1.0252 0.6866 0 9
-11.2724 7.4144 -1.0275 0.6851 0 9
-11.4992 7.4154 -1.0420 0.8255 0 9
-11.7849 7.4495 -1.0617 0.6857 0 9
-12.0804 7.4841 -1.0822 0.4878 0 9
-12.1763 7.3918 -1.0848 0.4866 0 9
-12.2728 7.2992 -1.0874 0.4854 0 9
-12.8809 7.5039 -1.1352 0.7481 0 9
-13.0368 7.4375 -1.1430 0.7954 0 9
-13.0214 7.2733 -1.1358 0.8004 0 9
-13.4543 7.3561 -1.1677 0.7340 0 9
-13.5866 7.2695 -1.1735 0.7394 0 9
-13.7644 7.2052 -1.1831 0.8305 0 9
-14.0940 7.2159 -1.2058 0.2903 0 9
-14.3979 7.2078 -1.2262 0.8502 0 9
-14.6658 7.1766 -1.2434 0.7732 0 9
-14.8492 7.1005 -1.2534 0.4807 0 9
-15.2942 7.1440 -1.2855 0.7236 0 9
-15.8314 7.2211 -1.3251 0.7734 0 9
-15.8573 7.0602 -1.3219 0.7752 0 9
-16.1225 7.0041 -1.3386 0.7586 0 9
-16.5454 7.0105 -1.3684 0.7596 0 9
-16.7318 6.9115 -1.3786 0.8193 0 9
-17.2868 6.9583 -1.4191 0.9943 0 9
-17.4916 6.8574 -1.4307 0.7812 0 9
-17.8677 6.8189 -1.4564 0.6746 0 9
-18.1924 6.7549 -1.4778 0.4884 0 9
-18.7890 6.7836 -1.5212 0.7414 0 9
-19.2262 6.7453 -1.5516 0.7700 0 9
27.8444 0.0000 -2.7523 0.0984 0 7
27.8433 0.2520 -2.7523 0.0984 0 7
27.8398 0.5040 -2.7523 0.0984 0 7
27.8341 0.7560 -2.7523 0.0984 0 7
27.8262 1.0079 -2.7523 0.0984 0 7
27.8159 1.2597 -2.7523 0.0984 0 7
27.8033 1.5114 -2.7523 0.0984 0 7
27.7885 1.7630 -2.7523 0.0984 0 7
27.7714 2.0144 -2.7523 0.0984 0 7
27.7521 2.2657 -2.7523 0.0984 0 7
27.7304 2.5168 -2.7523 0.0984 0 7
27.7065 2.7677 -2.7523 0.0984 0 7
27.6803 3.0184 -2.7523 0.0984 0 7
27.6518 3.2687 -2.7523 0.0984 0 7
27.6212 3.5189 -2.7523 0.0984 0 7
27.5882 3.7687 -2.7523 0.0984 0 7
27.5529 4.0183 -2.7523 0.0984 0 7
27.5154 4.2675 -2.7523 0.0984 0 7
27.4757 4.5164 -2.7523 0.0984 0 7
27.4337 4.7649 -2.7523 0.0984 0 7
27.3894 5.0130 -2.7523 0.0984 0 7
27.3429 5.2607 -2.7523 0.0984 0 7
27.2942 5.5079 -2.7523 0.0984 0 7
27.2432 5.7548 -2.7523 0.0984 0 7
27.1900 6.0011 -2.7523 0.0984 0 7
27.1346 6.2470 -2.7523 0.0984 0 7
27.0769 6.4923 -2.7523 0.0984 0 7
27.0170 6.7371 -2.7523 0.0984 0 7
26.9550 6.9814 -2.7523 0.0984 0 7
26.8907 7.2250 -2.7523 0.0984 0 7
26.8242 7.4682 -2.7523 0.0984 0 7
26.7555 7.7106 -2.7523 0.0984 0 7
26.6846 7.9525 -2.7523 0.0984 0 7
26.6115 8.1937 -2.7523 0.0984 0 7
26.5363 8.4342 -2.7523 0.0984 0 7
26.4589 8.6740 -2.7523 0.0984 0 7
26.3793 8.9132 -2.7523 0.0984 0 7
26.2975 9.1516 -2.7523 0.0984 0 7
26.2136 9.3892 -2.7523 0.0984 0 7
26.1276 9.6261 -2.7523 0.0984 0 7
26.0394 9.8622 -2.7523 0.0984 0 7
25.9490 10.0974 -2.7523 0.0984 0 7
25.8566 10.3319 -2.7523 0.0984 0 7
25.7620 10.5655 -2.7523 0.0984 0 7
25.6653 10.7983 -2.7523 0.0984 0 7
25.5665 11.0301 -2.7523 0.0984 0 7
25.4656 11.2610 -2.7523 0.0984 0 7
25.3627 11.4911 -2.7523 0.0984 0 7
25.2577 11.7201 -2.7523 0.0984 0 7
25.1505 11.9483 -2.7523 0.0984 0 7
25.0413 12.1754 -2.7523 0.0984 0 7
24.9301 12.4016 -2.7523 0.0984 0 7
24.8169 12.6267 -2.7523 0.0984 0 7
24.7016 12.8508 -2.7523 0.0984 0 7
24.5842 13.0739 -2.7523 0.0984 0 7
24.4649 13.2958 -2.7523 0.0984 0 7
24.3435 13.5167 -2.7523 0.0984 0 7
24.2202 13.7365 -2.7523 0.0984 0 7
24.0949 13.9552 -2.7523 0.0984 0 7
23.9676 14.1727 -2.7523 0.0984 0 7
23.8383 14.3890 -2.7523 0.0984 0 7
23.7071 14.6042 -2.7523 0.0984 0 7
23.5740 14.8182 -2.7523 0.0984 0 7
23.4389 15.0309 -2.7523 0.0984 0 7
23.3019 15.2425 -2.7523 0.0984 0 7
23.1630 15.4527 -2.7523 0.0984 0 7
23.0221 15.6618 -2.7523 0.0984 0 7
22.8795 15.8695 -2.7523 0.0984 0 7
22.7349 16.0759 -2.7523 0.0984 0 7
22.5884 16.2811 -2.7523 0.0984 0 7
22.4401 16.4848 -2.7523 0.0984 0 7
22.2900 16.6873 -2.7523 0.0984 0 7
22.1381 16.8883 -2.7523 0.0984 0 7
21.9843 17.0880 -2.7523 0.0984 0 7
21.7265 17.2053 -2.7394 0.1342 0 20
21.5568 17.3907 -2.7378 0.1879 0 20
21.5122 17.6786 -2.7523 0.0984 0 7
21.3514 17.8726 -2.7523 0.0984 0 7
21.1887 18.0651 -2.7523 0.0984 0 7
21.0244 18.2561 -2.7523 0.0984 0 7
20.8583 18.4457 -2.7523 0.0984 0 7
20.6905 18.6337 -2.7523 0.0984 0 7
20.5210 18.8202 -2.7523 0.0984 0 7
20.3498 19.0052 -2.7523 0.0984 0 7
20.1769 19.1886 -2.7523 0.0984 0 7
20.0024 19.3704 -2.7523 0.0984 0 7
19.8263 19.5507 -2.7523 0.0984 0 7
19.6485 19.7293 -2.7523 0.0984 0 7
19.4691 19.9063 -2.7523 0.0984 0 7
16.6825 17.3689 -2.3805 0.5794 0 5
16.5562 17.5526 -2.3851 0.8099 0 5
18.9215 20.4276 -2.7523 0.0984 0 7
18.7358 20.5980 -2.7523 0.0984 0 7
18.5486 20.7668 -2.7523 0.0984 0 7
9.8663 11.2494 -1.4790 0.6972 0 9
9.7116 11.2774 -1.4711 0.6552 0 9
9.6527 11.4164 -1.4778 0.6522 0 9
9.1580 11.0322 -1.4173 0.6578 0 9
8.8197 10.8225 -1.3800 0.3472 0 9
8.7354 10.9195 -1.3822 0.3466 0 9
8.4924 10.8150 -1.3592 0.6470 0 9
8.5155 11.0489 -1.3789 0.8668 0 9
7.9067 10.4532 -1.2956 0.4274 0 9
7.7747 10.4744 -1.2894 0.4295 0 9
7.6437 10.4951 -1.2834 0.4315 0 9
7.4322 10.4012 -1.2636 0.4984 0 9
7.3640 10.5056 -1.2682 0.6605 0 9
7.1962 10.4665 -1.2555 0.4071 0 9
7.1248 10.5661 -1.2597 0.7884 0 9
7.0062 10.5959 -1.2556 0.7909 0 9
6.5383 10.0856 -1.1881 0.5761 0 9
6.4171 10.0976 -1.1826 0.5788 0 9
6.1372 9.8532 -1.1474 0.7855 0 9
6.0379 9.8920 -1.1455 0.7868 0 9
5.9086 9.8801 -1.1379 0.6859 0 9
5.7998 9.9006 -1.1342 0.6881 0 9
5.6917 9.9209 -1.1306 0.6903 0 9
5.5107 9.8100 -1.1122 0.4095 0 9
5.4823 9.9697 -1.1246 0.4986 0 9
5.2124 9.6856 -1.0872 0.8673 0 9
5.1131 9.7106 -1.0848 0.8692 0 9
4.9148 9.5426 -1.0610 0.5511 0 9
4.8108 9.5521 -1.0572 0.8126 0 9
4.6400 9.4244 -1.0384 0.3609 0 9
4.5223 9.3988 -1.0310 0.9008 0 9
4.2866 9.1193 -0.9960 0.3697 0 9
4.2309 9.2168 -1.0025 0.8047 0 9
4.1400 9.2382 -1.0007 0.8062 0 9
4.0493 9.2596 -0.9990 0.8075 0 9
3.8046 8.9191 -0.9585 0.2785 0 9
3.7253 8.9569 -0.9589 0.2784 0 9
3.6458 8.9945 -0.9593 0.2783 0 9
3.6546 9.2561 -0.9837 0.1652 0 9
3.4640 9.0112 -0.9543 0.7779 0 9
3.3938 9.0730 -0.9575 0.7752 0 9
3.3093 9.0973 -0.9569 0.5393 0 9
3.1864 9.0125 -0.9449 0.2760 0 9
3.1642 9.2140 -0.9630 0.6107 0 9
3.0677 9.2033 -0.9589 0.8728 0 9
2.9837 9.2290 -0.9587 0.8729 0 9
2.7614 8.8132 -0.9129 0.5741 0 9
2.6905 8.8674 -0.9160 0.5722 0 9
2.6191 8.9218 -0.9191 0.5703 0 9
2.5370 8.9408 -0.9187 0.6318 0 9
2.4364 8.8921 -0.9113 0.6368 0 9
2.3754 8.9878 -0.9189 0.3044 0 9
2.2506 8.8388 -0.9016 0.3103 0 9
2.2145 9.0383 -0.9198 0.9118 0 9
2.0975 8.9090 -0.9047 0.2987 0 9
2.0280 8.9770 -0.9097 0.8662 0 9
1.9434 8.9801 -0.9082 0.8676 0 9
1.8482 8.9304 -0.9014 0.7289 0 9
1.7731 8.9760 -0.9044 0.7265 0 9
1.6840 8.9505 -0.9003 0.8650 0 9
1.5954 8.9233 -0.8960 0.8691 0 9
1.5076 8.8963 -0.8919 0.8731 0 9
1.4470 9.0343 -0.9044 0.7348 0 9
1.3540 8.9728 -0.8970 0.7409 0 9
1.2781 9.0229 -0.9008 0.3821 0 9
1.1825 8.9289 -0.8903 0.8148 0 9
1.1028 8.9491 -0.8913 0.8139 0 9
1.0230 8.9694 -0.8923 0.8130 0 9
0.9448 9.0068 -0.8952 0.7903 0 9
0.8594 8.9749 -0.8912 0.9665 0 9
0.7857 9.0698 -0.8999 0.9339 0 9
0.6810 8.7850 -0.8710 0.6655 0 9
0.6054 8.8490 -0.8767 0.6611 0 9
0.5279 8.8987 -0.8812 0.6833 0 9
0.4377 8.7105 -0.8621 0.4536 0 9
0.3694 8.9719 -0.8876 0.4530 0 9
0.2842 8.8509 -0.8753 0.4593 0 9
0.2059 8.9320 -0.8831 0.4401 0 9
0.1250 8.9300 -0.8828 0.3764 0 9
0.0429 8.6723 -0.8572 0.1306 0 9
-0.0354 8.6328 -0.8533 0.4877 0 9
-0.1143 8.6886 -0.8589 0.4845 0 9
-0.1926 8.6711 -0.8573 0.7675 0 9
-0.2700 8.6348 -0.8539 0.7705 0 9
-0.3468 8.5989 -0.8507 0.7735 0 9
-0.4276 8.6564 -0.8567 0.4836 0 9
-0.5067 8.6651 -0.8580 0.8761 0 9
-0.5857 8.6688 -0.8588 0.8752 0 9
-0.6649 8.6727 -0.8598 0.8742 0 9
-0.7442 8.6765 -0.8608 0.8732 0 9
-0.8237 8.6804 -0.8619 0.8721 0 9
-0.9035 8.6844 -0.8631 0.8709 0 9
-0.9640 8.5160 -0.8471 0.2092 0 9
-1.0622 8.6797 -0.8644 0.6654 0 9
-1.1406 8.6690 -0.8643 0.9631 0 9
-1.2172 8.6457 -0.8630 0.9645 0 9
-1.2937 8.6226 -0.8619 0.9658 0 9
-1.3930 8.7444 -0.8753 0.4881 0 9
-1.4924 8.8521 -0.8874 0.6328 0 9
-1.5562 8.7468 -0.8782 0.6394 0 9
-1.6203 8.6523 -0.8701 0.1414 0 9
-1.7020 8.6546 -0.8719 0.7389 0 9
-1.7883 8.6782 -0.8758 0.7355 0 9
-1.8798 8.7219 -0.8819 0.8156 0 9
-1.9568 8.6961 -0.8811 0.8538 0 9
-2.0599 8.7825 -0.8917 0.7079 0 9
-2.1391 8.7628 -0.8916 0.7079 0 9
-2.1629 8.5247 -0.8693 0.4796 0 9
-2.2040 8.3682 -0.8554 0.5979 0 9
-2.3241 8.5104 -0.8720 0.8378 0 9
-2.3874 8.4408 -0.8671 0.6011 0 9
-2.4655 8.4250 -0.8677 0.8420 0 9
-2.6038 8.6080 -0.8889 0.2067 0 9
-2.6766 8.5679 -0.8873 0.2071 0 9
-2.7489 8.5276 -0.8856 0.2074 0 9
-2.8210 8.4871 -0.8841 0.2078 0 9
-2.8459 8.3100 -0.8683 0.3550 0 9
-2.9101 8.2530 -0.8650 0.1202 0 9
-2.9925 8.2479 -0.8673 0.1199 0 9
-3.0751 8.2421 -0.8696 0.1196 0 9
-3.1941 8.3302 -0.8819 0.8341 0 9
-3.2679 8.2972 -0.8815 0.8345 0 9
-3.3596 8.3085 -0.8859 0.6196 0 9
-3.4902 8.4117 -0.9002 0.7946 0 9
-3.5822 8.4174 -0.9042 0.7911 0 9
-3.6750 8.4232 -0.9084 0.7875 0 9
-3.7335 8.3501 -0.9041 0.4278 0 9
-3.7562 8.2008 -0.8916 0.4338 0 9
-3.9424 8.4056 -0.9177 0.9655 0 9
-4.0239 8.3812 -0.9190 0.9641 0 9
-4.0787 8.3019 -0.9143 0.2087 0 9
-4.2255 8.4075 -0.9301 0.7213 0 9
-4.3181 8.4015 -0.9337 0.9934 0 9
-4.3896 8.3537 -0.9328 0.9944 0 9
-4.4824 8.3460 -0.9364 0.3927 0 9
-4.6174 8.4138 -0.9487 0.4459 0 9
-4.6058 8.2155 -0.9310 0.1982 0 9
-4.7127 8.2305 -0.9375 0.1968 0 9
-4.8193 8.2429 -0.9438 0.2258 0 9
-5.0415 8.4465 -0.9723 0.5501 0 9
-5.0013 8.2095 -0.9502 0.4032 0 9
-5.0603 8.1394 -0.9474 0.7408 0 9
-5.2248 8.2368 -0.9642 0.8690 0 9
-5.3011 8.1922 -0.9645 0.8687 0 9
-5.3673 8.1322 -0.9631 0.6764 0 9
-5.4312 8.0692 -0.9615 0.6775 0 9
-5.7796 8.4212 -1.0096 0.6077 0 9
-5.6579 8.0860 -0.9755 0.3346 0 9
-5.7805 8.1041 -0.9840 0.6525 0 9
-5.8079 7.9886 -0.9763 0.6576 0 9
-5.9438 8.0219 -0.9869 0.8149 0 9
-6.1025 8.0821 -1.0011 0.3791 0 9
-6.1478 7.9907 -0.9966 0.4155 0 9
-6.2787 8.0097 -1.0060 0.8083 0 9
-6.3808 7.9900 -1.0107 0.6762 0 9
-6.4454 7.9227 -1.0096 0.6770 0 9
-6.7531 8.1492 -1.0462 0.8984 0 9
-6.8534 8.1195 -1.0503 0.8947 0 9
-6.9232 8.0531 -1.0497 0.4221 0 9
-7.1168 8.1284 -1.0679 0.9917 0 9
-7.1988 8.0733 -1.0692 0.9905 0 9
-7.1652 7.8907 -1.0536 0.2172 0 9
-7.3681 7.9680 -1.0727 0.5847 0 9
-7.5021 7.9671 -1.0817 0.3165 0 9
-7.5851 7.9105 -1.0833 0.6388 0 9
-5.6814 5.8188 -0.8039 0.9570 0 5
-7.8744 7.9201 -1.1040 0.5254 0 9
-7.9807 7.8831 -1.1088 0.8046 0 9
-8.0364 7.7957 -1.1067 0.8061 0 9
-8.2956 7.9026 -1.1325 0.8346 0 9
-8.4283 7.8847 -1.1408 0.4760 0 9
-8.5102 7.8181 -1.1423 0.4754 0 9
-8.5924 7.7514 -1.1439 0.4747 0 9
-8.7178 7.7226 -1.1512 0.7629 0 9
-8.8877 7.7307 -1.1644 0.3641 0 9
-9.0808 7.7553 -1.1804 0.2053 0 9
-9.3247 7.8188 -1.2029 0.1780 0 9
-9.4803 7.8043 -1.2138 0.4799 0 9
-9.6661 7.8115 -1.2285 0.6859 0 9
-9.7947 7.7700 -1.2358 0.9959 0 9
-9.9840 7.7739 -1.2508 0.9700 0 9
-10.1408 7.7496 -1.2616 0.6920 0 9
-10.2431 7.6819 -1.2656 0.6671 0 9
-10.3230 7.5968 -1.2669 0.5214 0 9
-10.5074 7.5869 -1.2811 0.7176 0 9
-10.6453 7.5408 -1.2895 0.6801 0 9
-10.8525 7.5410 -1.3063 0.6901 0 9
-11.0120 7.5050 -1.3173 0.8218 0 9
-11.2959 7.5496 -1.3430 0.1960 0 9
-11.5901 7.5954 -1.3697 0.9088 0 9
-11.6418 7.4796 -1.3678 0.8266 0 9
-11.8255 7.4472 -1.3814 0.7018 0 9
-12.0925 7.4634 -1.4046 0.2689 0 9
-12.1686 7.3591 -1.4057 0.6676 0 9
-12.3978 7.3453 -1.4244 0.4763 0 9
-13.0156 7.5530 -1.4875 0.4187 0 9
-13.1873 7.4939 -1.4993 0.6186 0 9
-13.1999 7.3438 -1.4931 0.6209 0 9
-13.3238 7.2556 -1.4996 0.6975 0 9
-13.7808 7.3435 -1.5435 0.6640 0 9
-13.9942 7.2954 -1.5600 0.6676 0 9
-14.2949 7.2884 -1.5861 0.8365 0 9
-14.3325 7.1448 -1.5830 0.8381 0 9
-14.5935 7.1108 -1.6047 0.7445 0 9
-15.0637 7.1719 -1.6491 0.3407 0 9
-15.2599 7.0966 -1.6635 0.6646 0 9
-15.7351 7.1451 -1.7082 0.5346 0 9
-15.8956 7.0451 -1.7186 0.7939 0 9
-16.1177 6.9697 -1.7358 0.0848 0 9
-16.5516 6.9802 -1.7756 0.5926 0 9
-17.0223 6.9980 -1.8192 0.4189 0 9
-17.2725 6.9187 -1.8392 0.8495 0 9
-17.6160 6.8719 -1.8691 0.0637 0 9
-17.9241 6.8058 -1.8952 0.6554 0 9
-18.7717 6.9340 -1.9781 0.1808 0 9
-18.8305 6.7627 -1.9777 0.4360 0 9
-19.3082 6.7375 -2.0214 0.7006 0 9
-19.6949 6.6731 -2.0555 0.7383 0 9
-19.9761 6.5674 -2.0786 0.4024 0 1
-20.4543 6.5201 -2.1221 0.3942 0 1
-20.9530 6.4708 -2.1677 0.3859 0 1
-21.4736 6.4192 -2.2154 0.3775 0 1
-22.0178 6.3654 -2.2655 0.3692 0 1
-22.5871 6.3090 -2.3181 0.3608 0 1
-23.1836 6.2500 -2.3734 0.3524 0 1
-23.8092 6.1881 -2.4317 0.3440 0 1
-24.4665 6.1230 -2.4930 0.3355 0 1
-25.1577 6.0546 -2.5578 0.3270 0 1
-25.6271 5.9227 -2.5999 0.0984 0 8
-25.6797 5.6905 -2.5999 0.0984 0 8
-25.7301 5.4578 -2.5999 0.0984 0 8
-25.7785 5.2247 -2.5999 0.0984 0 8
-25.8247 4.9912 -2.5999 0.0984 0 8
-25.8688 4.7573 -2.5999 0.0984 0 8
-25.9108 4.5229 -2.5999 0.0984 0 8
-25.9507 4.2882 -2.5999 0.0984 0 8
-25.4854 3.9747 -2.5496 0.9660 0 5
-25.4613 3.7352 -2.5437 0.9683 0 5
-26.0576 3.5821 -2.5999 0.0984 0 8
-26.0889 3.3461 -2.5999 0.0984 0 8
-26.1181 3.1098 -2.5999 0.0984 0 8
-26.7917 2.9443 -2.6642 0.2200 0 8
-27.6379 2.7844 -2.7457 0.1017 0 8
-27.7027 2.5379 -2.7498 0.1015 0 8
-27.7501 2.2891 -2.7523 0.0984 0 7
-27.7697 2.0379 -2.7523 0.0984 0 7
-27.7870 1.7864 -2.7523 0.0984 0 7
-27.8021 1.5349 -2.7523 0.0984 0 7
-27.8148 1.2832 -2.7523 0.0984 0 7
-27.8253 1.0314 -2.7523 0.0984 0 7
-27.8335 0.7795 -2.7523 0.0984 0 7
-27.8394 0.5275 -2.7523 0.0984 0 7
-27.8431 0.2755 -2.7523 0.0984 0 7
-27.8444 0.0235 -2.7523 0.0984 0 7
-27.8435 -0.2285 -2.7523 0.0984 0 7
-27.8402 -0.4805 -2.7523 0.0984 0 7
-27.8348 -0.7325 -2.7523 0.0984 0 7
-27.8270 -0.9844 -2.7523 0.0984 0 7
-27.8169 -1.2362 -2.7523 0.0984 0 7
-27.8046 -1.4879 -2.7523 0.0984 0 7
-27.7900 -1.7395 -2.7523 0.0984 0 7
-27.7731 -1.9910 -2.7523 0.0984 0 7
-27.7540 -2.2423 -2.7523 0.0984 0 7
-27.7325 -2.4934 -2.7523 0.0984 0 7
-27.7088 -2.7443 -2.7523 0.0984 0 7
-27.6829 -2.9950 -2.7523 0.0984 0 7
-27.6546 -3.2454 -2.7523 0.0984 0 7
-27.6241 -3.4956 -2.7523 0.0984 0 7
-27.5913 -3.7455 -2.7523 0.0984 0 7
-27.5563 -3.9951 -2.7523 0.0984 0 7
-27.5190 -4.2443 -2.7523 0.0984 0 7
-27.4795 -4.4932 -2.7523 0.0984 0 7
-27.4377 -4.7417 -2.7523 0.0984 0 7
-27.3936 -4.9899 -2.7523 0.0984 0 7
-27.3473 -5.2376 -2.7523 0.0984 0 7
-27.2988 -5.4849 -2.7523 0.0984 0 7
-27.2481 -5.7318 -2.7523 0.0984 0 7
-27.1951 -5.9781 -2.7523 0.0984 0 7
-27.1398 -6.2241 -2.7523 0.0984 0 7
-27.0824 -6.4694 -2.7523 0.0984 0 6
-27.0227 -6.7143 -2.7523 0.0984 0 6
-26.9609 -6.9586 -2.7523 0.0984 0 7
-26.8968 -7.2024 -2.7523 0.0984 0 7
-26.8305 -7.4455 -2.7523 0.0984 0 7
-26.7620 -7.6880 -2.7523 0.0984 0 7
-26.6913 -7.9300 -2.7523 0.0984 0 7
-26.6184 -8.1712 -2.7523 0.0984 0 7
-26.5434 -8.4118 -2.7523 0.0984 0 7
-26.4662 -8.6517 -2.7523 0.0984 0 7
-26.3868 -8.8909 -2.7523 0.0984 0 7
-26.3052 -9.1294 -2.7523 0.0984 0 7
-26.2215 -9.3671 -2.7523 0.0984 0 7
-26.1357 -9.6040 -2.7523 0.0984 0 7
-26.0477 -9.8402 -2.7523 0.0984 0 7
-25.9575 -10.0755 -2.7523 0.0984 0 7
-25.8653 -10.3101 -2.7523 0.0984 0 7
-25.7709 -10.5438 -2.7523 0.0984 0 7
-25.6744 -10.7766 -2.7523 0.0984 0 7
-25.5758 -11.0085 -2.7523 0.0984 0 7
-25.4751 -11.2395 -2.7523 0.0984 0 7
-25.3724 -11.4697 -2.7523 0.0984 0 7
-25.2675 -11.6988 -2.7523 0.0984 0 7
-25.1606 -11.9270 -2.7523 0.0984 0 7
-25.0516 -12.1543 -2.7523 0.0984 0 7
-24.9406 -12.3805 -2.7523 0.0984 0 7
-24.8275 -12.6058 -2.7523 0.0984 0 7
-24.7124 -12.8300 -2.7523 0.0984 0 7
-24.5953 -13.0531 -2.7523 0.0984 0 7
-24.4761 -13.2752 -2.7523 0.0984 0 7
-24.3549 -13.4961 -2.7523 0.0984 0 7
-24.2318 -13.7161 -2.7523 0.0984 0 7
-24.1067 -13.9348 -2.7523 0.0984 0 7
-23.9795 -14.1524 -2.7523 0.0984 0 7
-23.8505 -14.3689 -2.7523 0.0984 0 7
-23.7194 -14.5842 -2.7523 0.0984 0 7
-23.5865 -14.7982 -2.7523 0.0984 0 7
-23.4516 -15.0111 -2.7523 0.0984 0 7
-23.3147 -15.2228 -2.7523 0.0984 0 7
-23.1583 -15.4214 -2.7502 0.1048 0 8
-22.9868 -15.6094 -2.7465 0.1050 0 8
-22.6256 -15.6651 -2.7202 0.4655 0 8
-22.1196 -15.6129 -2.6762 0.5008 0 8
-21.6453 -15.5735 -2.6358 0.5085 0 8
-21.2108 -15.5541 -2.5999 0.0984 0 8
-21.0691 -15.7455 -2.5999 0.0984 0 8
-20.9257 -15.9355 -2.5999 0.0984 0 8
-20.7806 -16.1243 -2.5999 0.0984 0 8
-20.6338 -16.3117 -2.5999 0.0984 0 8
-20.4854 -16.4978 -2.5999 0.0984 0 8
-20.3352 -16.6825 -2.5999 0.0984 0 8
-20.1834 -16.8659 -2.5999 0.0984 0 8
-19.5375 -16.6288 -2.5360 0.5662 0 9
-19.1385 -16.5903 -2.5036 0.4751 0 9
-18.8265 -16.6206 -2.4824 0.5809 0 9
-18.5647 -16.6909 -2.4677 0.8027 0 9
-18.5366 -16.9715 -2.4843 0.7974 0 9
-18.4599 -17.2110 -2.4948 0.6295 0 9
-18.4216 -17.4896 -2.5109 0.7864 0 9
-18.3924 -17.7812 -2.5287 0.7809 0 9
-18.7441 -18.4523 -2.5999 0.0984 0 8
-18.5763 -18.6212 -2.5999 0.0984 0 8
-18.4070 -18.7886 -2.5999 0.0984 0 8
-18.2362 -18.9544 -2.5999 0.0984 0 8
-18.0639 -19.1187 -2.5999 0.0984 0 8
-17.8901 -19.2814 -2.5999 0.0984 0 8
-17.7148 -19.4425 -2.5999 0.0984 0 8
-17.5381 -19.6021 -2.5999 0.0984 0 8
-17.3600 -19.7600 -2.5999 0.0984 0 8
-17.1804 -19.9163 -2.5999 0.0984 0 8
-16.9995 -20.0710 -2.5999 0.0984 0 8
-16.8171 -20.2241 -2.5999 0.0984 0 8
-16.6334 -20.3754 -2.5999 0.0984 0 8
-12.2319 -15.2638 -1.9335 0.7132 0 5
-12.0747 -15.3503 -1.9305 0.6948 0 5
-16.0740 -20.8195 -2.5999 0.0984 0 8
-15.8850 -20.9641 -2.5999 0.0984 0 8
-15.5067 -20.8544 -2.5688 0.7344 0 19
-15.1922 -20.8224 -2.5478 0.7405 0 19
-14.9694 -20.9120 -2.5421 0.6581 0 19
-20.9296 -29.8046 -3.5999 0.0984 0 22
-20.6590 -29.9928 -3.5999 0.0984 0 22
-20.3867 -30.1786 -3.5999 0.0984 0 22
-20.1127 -30.3619 -3.5999 0.0984 0 22
-19.8370 -30.5427 -3.5999 0.0984 0 22
-14.1263 -22.1872 -2.5999 0.0984 0 8
-13.9250 -22.3142 -2.5999 0.0984 0 8
-12.5279 -20.4858 -2.3736 0.7747 0 19
-13.5188 -22.5626 -2.5999 0.0984 0 8
-13.3140 -22.6840 -2.5999 0.0984 0 8
-13.1082 -22.8036 -2.5999 0.0984 0 8
-12.9013 -22.9213 -2.5999 0.0984 0 8
-11.2199 -20.3630 -2.2981 0.8761 0 19
-8.6685 -16.0750 -1.8053 0.5718 0 9
-8.4715 -16.0558 -1.7944 0.9968 0 9
-8.3257 -16.1317 -1.7944 0.8248 0 9
-8.2385 -16.3236 -1.8074 0.2181 0 9
-11.6381 -23.5878 -2.5999 0.0984 0 8
-11.4241 -23.6921 -2.5999 0.0984 0 8
-11.2092 -23.7946 -2.5999 0.0984 0 8
-10.9934 -23.8950 -2.5999 0.0984 0 8
-10.7766 -23.9936 -2.5999 0.0984 0 8
-10.5590 -24.0901 -2.5999 0.0984 0 8
-10.3406 -24.1847 -2.5999 0.0984 0 8
-10.1212 -24.2773 -2.5999 0.0984 0 8
-9.9010 -24.3679 -2.5999 0.0984 0 8
-8.0789 -20.4112 -2.1699 0.8821 0 11
-7.8571 -20.3879 -2.1597 0.8862 0 11
-7.6693 -20.4504 -2.1589 0.8903 0 11
-7.4505 -20.4275 -2.1493 0.8943 0 11
-7.2337 -20.4048 -2.1399 0.8982 0 11
-7.0187 -20.3823 -2.1308 0.9020 0 11
-6.2885 -18.8135 -1.9608 0.3519 0 20
-6.0901 -18.7836 -1.9519 0.9107 0 20
-5.8966 -18.7640 -1.9442 0.9143 0 20
-5.7046 -18.7444 -1.9367 0.9178 0 20
-5.5140 -18.7250 -1.9295 0.9213 0 20
-5.3248 -18.7058 -1.9225 0.9247 0 20
-5.1370 -18.6867 -1.9156 0.9279 0 20
-4.9505 -18.6678 -1.9090 0.9312 0 20
-4.7653 -18.6489 -1.9026 0.9343 0 20
-4.5813 -18.6302 -1.8964 0.9374 0 20
-4.3984 -18.6116 -1.8904 0.9403 0 20
-4.2168 -18.5932 -1.8845 0.9433 0 20
-4.0362 -18.5748 -1.8789 0.9461 0 20
-3.8567 -18.5565 -1.8734 0.9488 0 20
-3.7583 -18.9419 -1.9088 0.2914 0 20
-3.5875 -18.9797 -1.9093 0.2828 0 20
-3.5975 -20.0238 -2.0110 0.9558 0 11
-3.3148 -19.4610 -1.9514 0.0984 0 20
-3.1290 -19.4307 -1.9454 0.9614 0 20
-2.9460 -19.4121 -1.9408 0.9637 0 20
-2.7638 -19.3936 -1.9364 0.9659 0 20
-2.5825 -19.3751 -1.9321 0.9681 0 20
-2.4908 -20.0728 -1.9993 0.0498 0 20
-2.3227 -20.2137 -2.0112 0.2565 0 20
-2.6444 -25.0072 -2.4857 0.2011 0 11
-2.4864 -25.7388 -2.5560 0.1923 0 11
-2.2921 -26.2025 -2.5999 0.0984 0 8
-2.0548 -26.2222 -2.5999 0.0984 0 8
-1.8174 -26.2397 -2.5999 0.0984 0 8
-1.5798 -26.2551 -2.5999 0.0984 0 8
-1.3421 -26.2683 -2.5999 0.0984 0 8
-1.1043 -26.2794 -2.5999 0.0984 0 8
-0.8664 -26.2883 -2.5999 0.0984 0 8
-0.6284 -26.2951 -2.5999 0.0984 0 8
-0.3904 -26.2997 -2.5999 0.0984 0 8
-0.1523 -26.3022 -2.5999 0.0984 0 8
0.0857 -26.3025 -2.5999 0.0984 0 8
0.3238 -26.3006 -2.5999 0.0984 0 8
0.5618 -26.2966 -2.5999 0.0984 0 8
0.7999 -26.2904 -2.5999 0.0984 0 8
1.0378 -26.2821 -2.5999 0.0984 0 8
1.2758 -26.2716 -2.5999 0.0984 0 8
1.5134 -26.2590 -2.5999 0.0984 0 8
1.3933 -20.8839 -2.0689 0.9940 0 19
1.5838 -20.8910 -2.0709 0.9930 0 19
1.7741 -20.8909 -2.0724 0.9965 0 19
1.9634 -20.8764 -2.0727 0.9994 0 19
2.1525 -20.8600 -2.0729 0.9993 0 19
2.3400 -20.8288 -2.0718 0.9976 0 19
2.5268 -20.7937 -2.0705 0.9973 0 19
2.6644 -20.3834 -2.0320 0.9719 0 19
3.6451 -26.0488 -2.5999 0.0984 0 8
3.8807 -26.0147 -2.5999 0.0984 0 8
4.1160 -25.9786 -2.5999 0.0984 0 8
4.3509 -25.9402 -2.5999 0.0984 0 8
4.5855 -25.8998 -2.5999 0.0984 0 8
4.8198 -25.8572 -2.5999 0.0984 0 8
5.0536 -25.8126 -2.5999 0.0984 0 8
5.2871 -25.7657 -2.5999 0.0984 0 8
5.5201 -25.7168 -2.5999 0.0984 0 8
5.7526 -25.6658 -2.5999 0.0984 0 8
5.9846 -25.6127 -2.5999 0.0984 0 8
6.2162 -25.5575 -2.5999 0.0984 0 8
5.1555 -20.3912 -2.0790 0.7798 0 19
5.3437 -20.3582 -2.0805 0.9168 0 19
6.9078 -25.3793 -2.5999 0.0984 0 8
7.1372 -25.3157 -2.5999 0.0984 0 8
7.3660 -25.2501 -2.5999 0.0984 0 8
7.5943 -25.1824 -2.5999 0.0984 0 8
7.8219 -25.1126 -2.5999 0.0984 0 8
8.0489 -25.0408 -2.5999 0.0984 0 8
8.2752 -24.9669 -2.5999 0.0984 0 8
8.5008 -24.8910 -2.5999 0.0984 0 8
8.7258 -24.8131 -2.5999 0.0984 0 8
8.9500 -24.7331 -2.5999 0.0984 0 8
9.1735 -24.6510 -2.5999 0.0984 0 8
9.3962 -24.5670 -2.5999 0.0984 0 8
9.6182 -24.4810 -2.5999 0.0984 0 8
9.8394 -24.3929 -2.5999 0.0984 0 8
8.4656 -20.4516 -2.1879 0.2995 0 19
5.7516 -13.5468 -1.4547 0.6361 0 5
8.6017 -19.7605 -2.1303 0.9434 0 19
8.8073 -19.7426 -2.1369 0.9405 0 19
10.9328 -23.9228 -2.5999 0.0984 0 8
11.1489 -23.8229 -2.5999 0.0984 0 8
9.9604 -20.7909 -2.2788 0.9353 0 19
9.8641 -20.1205 -2.2150 0.3590 0 19
9.8403 -19.6206 -2.1697 0.9614 0 19
12.0039 -23.4037 -2.5999 0.0984 0 8
12.2153 -23.2941 -2.5999 0.0984 0 8
12.4256 -23.1826 -2.5999 0.0984 0 8
12.6349 -23.0692 -2.5999 0.0984 0 8
12.8432 -22.9539 -2.5999 0.0984 0 8
13.0504 -22.8367 -2.5999 0.0984 0 8
13.2566 -22.7176 -2.5999 0.0984 0 8
13.4616 -22.5967 -2.5999 0.0984 0 8
13.6656 -22.4739 -2.5999 0.0984 0 8
13.8685 -22.3493 -2.5999 0.0984 0 8
14.0702 -22.2229 -2.5999 0.0984 0 8
14.2707 -22.0946 -2.5999 0.0984 0 8
14.4702 -21.9646 -2.5999 0.0984 0 8
14.6683 -21.8327 -2.5999 0.0984 0 8
14.8654 -21.6990 -2.5999 0.0984 0 8
15.0612 -21.5636 -2.5999 0.0984 0 8
15.2557 -21.4264 -2.5999 0.0984 0 8
15.4490 -21.2874 -2.5999 0.0984 0 8
15.6411 -21.1467 -2.5999 0.0984 0 8
15.8318 -21.0043 -2.5999 0.0984 0 8
16.0213 -20.8601 -2.5999 0.0984 0 8
16.2094 -20.7143 -2.5999 0.0984 0 8
16.3963 -20.5667 -2.5999 0.0984 0 8
16.5817 -20.4175 -2.5999 0.0984 0 8
16.7659 -20.2665 -2.5999 0.0984 0 8
16.9486 -20.1140 -2.5999 0.0984 0 8
17.1300 -19.9598 -2.5999 0.0984 0 8
17.3099 -19.8039 -2.5999 0.0984 0 8
17.4885 -19.6464 -2.5999 0.0984 0 8
17.6655 -19.4873 -2.5999 0.0984 0 8
17.8412 -19.3266 -2.5999 0.0984 0 8
18.0154 -19.1643 -2.5999 0.0984 0 8
18.1881 -19.0005 -2.5999 0.0984 0 8
18.3593 -18.8351 -2.5999 0.0984 0 8
18.5291 -18.6682 -2.5999 0.0984 0 8
18.6973 -18.4997 -2.5999 0.0984 0 8
18.8640 -18.3297 -2.5999 0.0984 0 8
19.0291 -18.1582 -2.5999 0.0984 0 8
19.1926 -17.9853 -2.5999 0.0984 0 8
19.3546 -17.8108 -2.5999 0.0984 0 8
19.5151 -17.6349 -2.5999 0.0984 0 8
19.6739 -17.4575 -2.5999 0.0984 0 8
19.8311 -17.2787 -2.5999 0.0984 0 8
19.9867 -17.0985 -2.5999 0.0984 0 8
20.1406 -16.9169 -2.5999 0.0984 0 8
20.2929 -16.7340 -2.5999 0.0984 0 8
20.4435 -16.5496 -2.5999 0.0984 0 8
20.5925 -16.3639 -2.5999 0.0984 0 8
18.3254 -14.2936 -2.2973 0.9982 0 5
18.4583 -14.1305 -2.2978 0.9980 0 5
22.2618 -16.7248 -2.7523 0.0984 0 7
22.4123 -16.5227 -2.7523 0.0984 0 7
22.5609 -16.3191 -2.7523 0.0984 0 7
22.7077 -16.1143 -2.7523 0.0984 0 7
22.8526 -15.9081 -2.7523 0.0984 0 7
22.9957 -15.7006 -2.7523 0.0984 0 7
23.1368 -15.4918 -2.7523 0.0984 0 7
23.2761 -15.2818 -2.7523 0.0984 0 7
23.4135 -15.0704 -2.7523 0.0984 0 7
23.5489 -14.8579 -2.7523 0.0984 0 7
23.6824 -14.6442 -2.7523 0.0984 0 7
23.8140 -14.4292 -2.7523 0.0984 0 7
23.9436 -14.2131 -2.7523 0.0984 0 7
24.0713 -13.9958 -2.7523 0.0984 0 7
24.1970 -13.7773 -2.7523 0.0984 0 7
24.3207 -13.5578 -2.7523 0.0984 0 7
24.4424 -13.3371 -2.7523 0.0984 0 7
24.5621 -13.1153 -2.7523 0.0984 0 7
24.6798 -12.8925 -2.7523 0.0984 0 7
24.7955 -12.6686 -2.7523 0.0984 0 7
24.9091 -12.4436 -2.7523 0.0984 0 6
25.0208 -12.2177 -2.7523 0.0984 0 7
25.1303 -11.9907 -2.7523 0.0984 0 7
25.2378 -11.7627 -2.7523 0.0984 0 7
25.3432 -11.5339 -2.7523 0.0984 0 7
25.4466 -11.3040 -2.7523 0.0984 0 7
25.5479 -11.0732 -2.7523 0.0984 0 7
25.6471 -10.8415 -2.7523 0.0984 0 7
25.7441 -10.6089 -2.7523 0.0984 0 7
25.8391 -10.3755 -2.7523 0.0984 0 7
25.9320 -10.1412 -2.7523 0.0984 0 7
26.0227 -9.9061 -2.7523 0.0984 0 7
26.1113 -9.6701 -2.7523 0.0984 0 7
26.1977 -9.4334 -2.7523 0.0984 0 7
26.2821 -9.1959 -2.7523 0.0984 0 7
26.3642 -8.9576 -2.7523 0.0984 0 7
26.4442 -8.7186 -2.7523 0.0984 0 6
26.5220 -8.4789 -2.7523 0.0984 0 7
26.5977 -8.2386 -2.7523 0.0984 0 7
26.6712 -7.9975 -2.7523 0.0984 0 7
26.7424 -7.7557 -2.7523 0.0984 0 7
26.8115 -7.5134 -2.7523 0.0984 0 7
26.8784 -7.2704 -2.7523 0.0984 0 7
26.9432 -7.0268 -2.7523 0.0984 0 7
27.0056 -6.7827 -2.7523 0.0984 0 7
27.0659 -6.5380 -2.7523 0.0984 0 7
27.1240 -6.2927 -2.7523 0.0984 0 7
27.1799 -6.0470 -2.7523 0.0984 0 7
27.2335 -5.8007 -2.7523 0.0984 0 7
27.2849 -5.5540 -2.7523 0.0984 0 7
27.3340 -5.3068 -2.7523 0.0984 0 7
27.3809 -5.0592 -2.7523 0.0984 0 7
27.4256 -4.8112 -2.7523 0.0984 0 7
27.4680 -4.5627 -2.7523 0.0984 0 7
27.5082 -4.3139 -2.7523 0.0984 0 7
27.5461 -4.0648 -2.7523 0.0984 0 7
27.5818 -3.8153 -2.7523 0.0984 0 7
27.6152 -3.5655 -2.7523 0.0984 0 7
27.6463 -3.3154 -2.7523 0.0984 0 7
27.6752 -3.0650 -2.7523 0.0984 0 7
27.7018 -2.8144 -2.7523 0.0984 0 7
27.7261 -2.5636 -2.7523 0.0984 0 7
27.7482 -2.3125 -2.7523 0.0984 0 7
27.7680 -2.0613 -2.7523 0.0984 0 7
27.7855 -1.8099 -2.7523 0.0984 0 7
27.8008 -1.5583 -2.7523 0.0984 0 7
27.8137 -1.3066 -2.7523 0.0984 0 7
27.8244 -1.0548 -2.7523 0.0984 0 7
27.8328 -0.8029 -2.7523 0.0984 0 7
27.8389 -0.5510 -2.7523 0.0984 0 7
27.8428 -0.2990 -2.7523 0.0984 0 7
27.8444 -0.0470 -2.7523 0.0984 0 7
27.8436 0.2050 -2.7523 0.0984 0 7
27.8406 0.4571 -2.7523 0.0984 0 7
27.8354 0.7090 -2.7523 0.0984 0 7
27.8278 0.9609 -2.7523 0.0984 0 7
27.8180 1.2128 -2.7523 0.0984 0 7
27.8058 1.4645 -2.7523 0.0984 0 7
27.7915 1.7161 -2.7523 0.0984 0 7
27.7748 1.9676 -2.7523 0.0984 0 7
27.7558 2.2189 -2.7523 0.0984 0 7
27.7346 2.4700 -2.7523 0.0984 0 7
27.7111 2.7209 -2.7523 0.0984 0 7
27.6854 2.9717 -2.7523 0.0984 0 7
27.6573 3.2221 -2.7523 0.0984 0 7
27.6270 3.4723 -2.7523 0.0984 0 7
27.5945 3.7222 -2.7523 0.0984 0 7
27.5597 3.9718 -2.7523 0.0984 0 7
27.5226 4.2211 -2.7523 0.0984 0 7
27.4832 4.4700 -2.7523 0.0984 0 7
27.4417 4.7186 -2.7523 0.0984 0 7
27.3978 4.9668 -2.7523 0.0984 0 7
27.3518 5.2146 -2.7523 0.0984 0 7
27.3034 5.4619 -2.7523 0.0984 0 7
27.2529 5.7088 -2.7523 0.0984 0 7
27.2001 5.9552 -2.7523 0.0984 0 7
27.1451 6.2012 -2.7523 0.0984 0 7
27.0878 6.4466 -2.7523 0.0984 0 7
27.0284 6.6915 -2.7523 0.0984 0 7
26.9667 6.9359 -2.7523 0.0984 0 7
26.9029 7.1797 -2.7523 0.0984 0 7
26.8368 7.4229 -2.7523 0.0984 0 7
26.7685 7.6655 -2.7523 0.0984 0 7
26.6980 7.9075 -2.7523 0.0984 0 7
26.6253 8.1488 -2.7523 0.0984 0 7
26.5505 8.3894 -2.7523 0.0984 0 7
26.4735 8.6294 -2.7523 0.0984 0 7
26.3943 8.8687 -2.7523 0.0984 0 7
26.3129 9.1072 -2.7523 0.0984 0 7
26.2294 9.3450 -2.7523 0.0984 0 7
26.1437 9.5820 -2.7523 0.0984 0 7
26.0559 9.8182 -2.7523 0.0984 0 7
25.9660 10.0537 -2.7523 0.0984 0 7
25.8740 10.2883 -2.7523 0.0984 0 7
25.7798 10.5220 -2.7523 0.0984 0 7
25.6835 10.7550 -2.7523 0.0984 0 7
25.5851 10.9870 -2.7523 0.0984 0 7
25.4846 11.2181 -2.7523 0.0984 0 7
25.3820 11.4483 -2.7523 0.0984 0 7
25.2774 11.6775 -2.7523 0.0984 0 7
25.1706 11.9059 -2.7523 0.0984 0 7
25.0619 12.1332 -2.7523 0.0984 0 7
24.9510 12.3595 -2.7523 0.0984 0 7
24.8381 12.5848 -2.7523 0.0984 0 7
24.7232 12.8091 -2.7523 0.0984 0 7
24.6063 13.0324 -2.7523 0.0984 0 7
24.4873 13.2545 -2.7523 0.0984 0 7
24.3663 13.4756 -2.7523 0.0984 0 7
24.2434 13.6956 -2.7523 0.0984 0 7
24.1184 13.9145 -2.7523 0.0984 0 7
23.9915 14.1322 -2.7523 0.0984 0 7
23.8626 14.3488 -2.7523 0.0984 0 7
23.7317 14.5642 -2.7523 0.0984 0 7
23.5989 14.7784 -2.7523 0.0984 0 7
23.4642 14.9914 -2.7523 0.0984 0 7
23.3276 15.2032 -2.7523 0.0984 0 7
23.1890 15.4137 -2.7523 0.0984 0 7
23.0485 15.6229 -2.7523 0.0984 0 7
22.9062 15.8309 -2.7523 0.0984 0 7
22.7620 16.0376 -2.7523 0.0984 0 7
22.6159 16.2429 -2.7523 0.0984 0 7
22.4679 16.4470 -2.7523 0.0984 0 7
22.3182 16.6496 -2.7523 0.0984 0 7
22.1665 16.8510 -2.7523 0.0984 0 7
22.0131 17.0509 -2.7523 0.0984 0 7
21.7551 17.1684 -2.7394 0.1342 0 20
21.5781 17.3479 -2.7368 0.1063 0 20
21.5421 17.6423 -2.7523 0.0984 0 7
21.3815 17.8365 -2.7523 0.0984 0 7
21.2192 18.0293 -2.7523 0.0984 0 7
21.0551 18.2206 -2.7523 0.0984 0 7
20.8894 18.4104 -2.7523 0.0984 0 7
20.7219 18.5988 -2.7523 0.0984 0 7
20.5527 18.7856 -2.7523 0.0984 0 7
20.3818 18.9708 -2.7523 0.0984 0 7
20.2093 19.1545 -2.7523 0.0984 0 7
20.0351 19.3367 -2.7523 0.0984 0 7
19.8593 19.5172 -2.7523 0.0984 0 7
19.6818 19.6961 -2.7523 0.0984 0 7
19.5027 19.8735 -2.7523 0.0984 0 7
16.7514 17.3818 -2.3862 0.5780 0 5
16.5657 17.5035 -2.3822 0.8109 0 5
18.9559 20.3957 -2.7523 0.0984 0 7
18.7706 20.5664 -2.7523 0.0984 0 7
18.5837 20.7354 -2.7523 0.0984 0 7
9.8796 11.2264 -1.4782 0.6976 0 9
9.7225 11.2516 -1.4699 0.6557 0 9
9.6637 11.3904 -1.4765 0.6528 0 9
9.2143 11.0620 -1.4231 0.5339 0 9
8.8354 10.8045 -1.3796 0.3473 0 9
8.7511 10.9014 -1.3818 0.3468 0 9
8.5009 10.7882 -1.3577 0.6477 0 9
8.4559 10.9333 -1.3662 0.6352 0 9
7.9314 10.4492 -1.2967 0.4271 0 9
7.7992 10.4704 -1.2905 0.4291 0 9
7.6681 10.4913 -1.2845 0.4311 0 9
7.4280 10.3584 -1.2599 0.4999 0 9
7.3858 10.4989 -1.2688 0.2345 0 9
7.2407 10.4932 -1.2602 0.4056 0 9
7.1486 10.5630 -1.2607 0.6845 0 9
7.0282 10.5904 -1.2564 0.7905 0 9
6.6972 10.2926 -1.2138 0.8104 0 9
6.4396 10.0954 -1.1836 0.5783 0 9
6.3184 10.1060 -1.1781 0.5660 0 9
6.0564 9.8848 -1.1459 0.7866 0 9
5.9289 9.8763 -1.1386 0.6854 0 9
5.8200 9.8968 -1.1349 0.6877 0 9
5.7118 9.9171 -1.1312 0.6899 0 9
5.5408 9.8248 -1.1149 0.2531 0 9
5.4816 9.9288 -1.1211 0.2165 0 9
5.2310 9.6809 -1.0877 0.8669 0 9
5.1316 9.7060 -1.0852 0.8689 0 9
4.9224 9.5179 -1.0592 0.5520 0 9
4.8310 9.5519 -1.0581 0.8119 0 9
4.6729 9.4509 -1.0421 0.3596 0 9
4.5369 9.3887 -1.0307 0.9010 0 9
4.2918 9.0906 -0.9937 0.3706 0 9
4.2635 9.2465 -1.0065 0.3659 0 9
4.1569 9.2342 -1.0010 0.8059 0 9
4.0662 9.2556 -0.9993 0.8073 0 9
3.8194 8.9121 -0.9584 0.2785 0 9
3.7401 8.9499 -0.9588 0.2784 0 9
3.6606 8.9875 -0.9593 0.2783 0 9
3.6648 9.2361 -0.9822 0.9880 0 9
3.4770 8.9997 -0.9537 0.7784 0 9
3.4069 9.0615 -0.9569 0.7757 0 9
3.3276 9.0997 -0.9577 0.7476 0 9
3.2116 9.0351 -0.9478 0.5444 0 9
3.1833 9.2191 -0.9641 0.8873 0 9
3.0833 9.1986 -0.9590 0.8728 0 9
2.9993 9.2242 -0.9588 0.8729 0 9
2.8221 8.9538 -0.9280 0.8695 0 9
2.7037 8.8573 -0.9154 0.5726 0 9
2.6324 8.9117 -0.9185 0.5706 0 9
2.5559 8.9500 -0.9200 0.6308 0 9
2.4550 8.9011 -0.9127 0.6359 0 9
2.3557 8.8530 -0.9055 0.6409 0 9
2.2735 8.8661 -0.9047 0.3092 0 9
2.2311 9.0402 -0.9204 0.9113 0 9
2.1287 8.9735 -0.9116 0.8644 0 9
2.0438 8.9765 -0.9100 0.8659 0 9
1.9591 8.9795 -0.9085 0.8674 0 9
1.8748 8.9826 -0.9070 0.8687 0 9
1.7871 8.9675 -0.9038 0.7270 0 9
1.7006 8.9556 -0.9011 0.8642 0 9
1.6119 8.9283 -0.8968 0.8683 0 9
1.5239 8.9013 -0.8927 0.8724 0 9
1.4645 9.0459 -0.9058 0.7337 0 9
1.3712 8.9842 -0.8983 0.7398 0 9
1.2981 9.0538 -0.9041 0.7846 0 9
1.1973 8.9251 -0.8901 0.8150 0 9
1.1177 8.9453 -0.8911 0.8141 0 9
1.0379 8.9656 -0.8921 0.8132 0 9
0.9604 9.0094 -0.8956 0.7900 0 9
0.8742 8.9701 -0.8909 0.9668 0 9
0.8009 9.0675 -0.8998 0.9339 0 9
0.7171 9.0528 -0.8976 0.6683 0 9
0.6196 8.8370 -0.8757 0.6619 0 9
0.5425 8.8913 -0.8805 0.7819 0 9
0.4533 8.7275 -0.8639 0.4526 0 9
0.3732 8.7063 -0.8614 0.7236 0 9
0.2999 8.8732 -0.8776 0.4581 0 9
0.2216 8.9568 -0.8856 0.8256 0 9
0.1408 8.9766 -0.8874 0.6356 0 9
0.0575 8.6694 -0.8570 0.1306 0 9
-0.0208 8.6225 -0.8523 0.4883 0 9
-0.0995 8.6781 -0.8579 0.4851 0 9
-0.1781 8.6779 -0.8580 0.7669 0 9
-0.2556 8.6415 -0.8546 0.7700 0 9
-0.3325 8.6056 -0.8513 0.7729 0 9
-0.4137 8.6725 -0.8582 0.4828 0 9
-0.4920 8.6644 -0.8578 0.8762 0 9
-0.5709 8.6681 -0.8587 0.8754 0 9
-0.6501 8.6720 -0.8596 0.8744 0 9
-0.7294 8.6758 -0.8606 0.8734 0 9
-0.8089 8.6797 -0.8617 0.8723 0 9
-0.8886 8.6837 -0.8628 0.8711 0 9
-0.9554 8.5690 -0.8523 0.2080 0 9
-1.0460 8.6689 -0.8631 0.6664 0 9
-1.1263 8.6733 -0.8645 0.9628 0 9
-1.2029 8.6501 -0.8633 0.9642 0 9
-1.2794 8.6269 -0.8621 0.9656 0 9
