ply
format ascii 1.0
element vertex 1381
property float32 x
property float32 y
property float32 z
property float32 CosAngle
property uint32 ObjIdx
property uint32 ObjTag
end_header
13.8235 -8.7453 -2.7421 0.1653 0 7
13.9021 -8.6199 -2.7421 0.1653 0 7
13.9795 -8.4937 -2.7421 0.1653 0 7
14.0558 -8.3669 -2.7421 0.1653 0 7
14.1310 -8.2393 -2.7421 0.1653 0 7
14.2049 -8.1111 -2.7421 0.1653 0 7
14.2777 -7.9822 -2.7421 0.1653 0 7
14.3494 -7.8527 -2.7421 0.1653 0 7
14.4199 -7.7225 -2.7421 0.1653 0 7
14.4892 -7.5917 -2.7421 0.1653 0 7
14.5573 -7.4603 -2.7421 0.1653 0 7
14.6242 -7.3283 -2.7421 0.1653 0 7
14.6899 -7.1956 -2.7421 0.1653 0 7
14.7544 -7.0624 -2.7421 0.1653 0 7
14.8177 -6.9286 -2.7421 0.1653 0 7
14.8798 -6.7942 -2.7421 0.1653 0 7
14.9407 -6.6593 -2.7421 0.1653 0 7
15.0003 -6.5238 -2.7421 0.1653 0 7
15.0587 -6.3878 -2.7421 0.1653 0 7
15.1159 -6.2513 -2.7421 0.1653 0 7
15.1719 -6.1142 -2.7421 0.1653 0 7
15.2266 -5.9767 -2.7421 0.1653 0 7
15.2800 -5.8387 -2.7421 0.1653 0 7
15.3322 -5.7002 -2.7421 0.1653 0 7
15.3832 -5.5612 -2.7421 0.1653 0 7
15.4329 -5.4218 -2.7421 0.1653 0 7
15.4813 -5.2819 -2.7421 0.1653 0 7
15.5285 -5.1416 -2.7421 0.1653 0 7
15.5744 -5.0008 -2.7421 0.1653 0 7
15.6190 -4.8597 -2.7421 0.1653 0 7
15.6623 -4.7182 -2.7421 0.1653 0 7
15.7044 -4.5762 -2.7421 0.1653 0 7
15.7452 -4.4339 -2.7421 0.1653 0 7
15.7846 -4.2913 -2.7421 0.1653 0 7
15.8228 -4.1483 -2.7421 0.1653 0 7
15.8597 -4.0049 -2.7421 0.1653 0 7
15.8953 -3.8612 -2.7421 0.1653 0 7
15.9296 -3.7172 -2.7421 0.1653 0 7
15.9626 -3.5729 -2.7421 0.1653 0 7
15.9943 -3.4283 -2.7421 0.1653 0 7
16.0246 -3.2835 -2.7421 0.1653 0 7
16.0537 -3.1383 -2.7421 0.1653 0 7
16.0814 -2.9929 -2.7421 0.1653 0 7
16.1079 -2.8473 -2.7421 0.1653 0 7
16.1330 -2.7014 -2.7421 0.1653 0 7
16.1567 -2.5553 -2.7421 0.1653 0 7
16.1792 -2.4090 -2.7421 0.1653 0 7
16.2003 -2.2625 -2.7421 0.1653 0 7
16.2202 -2.1158 -2.7421 0.1653 0 7
16.2386 -1.9689 -2.7421 0.1653 0 7
16.2558 -1.8219 -2.7421 0.1653 0 7
16.2716 -1.6747 -2.7421 0.1653 0 7
16.2861 -1.5274 -2.7421 0.1653 0 7
16.2993 -1.3800 -2.7421 0.1653 0 7
16.3111 -1.2324 -2.7421 0.1653 0 7
16.3216 -1.0848 -2.7421 0.1653 0 7
16.3307 -0.9370 -2.7421 0.1653 0 7
16.3385 -0.7892 -2.7421 0.1653 0 7
16.3450 -0.6413 -2.7421 0.1653 0 7
16.3501 -0.4934 -2.7421 0.1653 0 7
16.3539 -0.3454 -2.7421 0.1653 0 7
16.3564 -0.1974 -2.7421 0.1653 0 7
16.3575 -0.0494 -2.7421 0.1653 0 7
16.3573 0.0986 -2.7421 0.1653 0 7
16.3557 0.2466 -2.7421 0.1653 0 7
16.3528 0.3946 -2.7421 0.1653 0 7
16.3486 0.5426 -2.7421 0.1653 0 7
16.3430 0.6905 -2.7421 0.1653 0 7
16.3361 0.8384 -2.7421 0.1653 0 7
16.3278 0.9861 -2.7421 0.1653 0 7
16.3182 1.1339 -2.7421 0.1653 0 7
16.3073 1.2815 -2.7421 0.1653 0 7
16.2950 1.4290 -2.7421 0.1653 0 7
16.2814 1.5764 -2.7421 0.1653 0 6
16.2665 1.7237 -2.7421 0.1653 0 6
16.2502 1.8708 -2.7421 0.1653 0 6
16.2326 2.0178 -2.7421 0.1653 0 6
16.2137 2.1646 -2.7421 0.1653 0 6
16.1935 2.3112 -2.7421 0.1653 0 6
16.1719 2.4576 -2.7421 0.1653 0 6
16.1490 2.6039 -2.7421 0.1653 0 7
16.1248 2.7499 -2.7421 0.1653 0 7
16.0992 2.8957 -2.7421 0.1653 0 7
16.0724 3.0413 -2.7421 0.1653 0 7
16.0442 3.1866 -2.7421 0.1653 0 7
16.0147 3.3317 -2.7421 0.1653 0 7
15.9839 3.4764 -2.7421 0.1653 0 7
15.9518 3.6209 -2.7421 0.1653 0 6
15.9183 3.7651 -2.7421 0.1653 0 6
15.8836 3.9090 -2.7421 0.1653 0 6
15.8476 4.0526 -2.7421 0.1653 0 6
15.8103 4.1958 -2.7421 0.1653 0 6
15.7717 4.3387 -2.7421 0.1653 0 7
15.7318 4.4813 -2.7421 0.1653 0 7
15.6906 4.6235 -2.7421 0.1653 0 7
15.6481 4.7652 -2.7421 0.1653 0 7
15.6043 4.9067 -2.7421 0.1653 0 7
15.5593 5.0477 -2.7421 0.1653 0 7
15.5130 5.1882 -2.7421 0.1653 0 7
15.4654 5.3284 -2.7421 0.1653 0 7
15.4165 5.4681 -2.7421 0.1653 0 7
15.3664 5.6074 -2.7421 0.1653 0 7
15.3150 5.7462 -2.7421 0.1653 0 7
15.2624 5.8846 -2.7421 0.1653 0 7
15.2085 6.0225 -2.7421 0.1653 0 7
15.1534 6.1598 -2.7421 0.1653 0 6
15.0971 6.2967 -2.7421 0.1653 0 6
15.0395 6.4331 -2.7421 0.1653 0 6
14.9806 6.5689 -2.7421 0.1653 0 7
14.9206 6.7042 -2.7421 0.1653 0 7
14.8593 6.8389 -2.7421 0.1653 0 7
14.7968 6.9731 -2.7421 0.1653 0 7
14.7331 7.1067 -2.7421 0.1653 0 7
14.6682 7.2398 -2.7421 0.1653 0 7
14.6021 7.3722 -2.7421 0.1653 0 7
14.5348 7.5040 -2.7421 0.1653 0 7
14.4663 7.6353 -2.7421 0.1653 0 7
14.3966 7.7659 -2.7421 0.1653 0 7
14.3257 7.8958 -2.7421 0.1653 0 7
14.2537 8.0251 -2.7421 0.1653 0 7
14.1805 8.1538 -2.7421 0.1653 0 7
14.1061 8.2818 -2.7421 0.1653 0 7
14.0306 8.4091 -2.7421 0.1653 0 6
13.9539 8.5357 -2.7421 0.1653 0 7
13.8761 8.6616 -2.7421 0.1653 0 6
13.7972 8.7868 -2.7421 0.1653 0 7
13.7171 8.9113 -2.7421 0.1653 0 7
13.6359 9.0351 -2.7421 0.1653 0 7
13.5536 9.1581 -2.7421 0.1653 0 7
13.4701 9.2804 -2.7421 0.1653 0 7
13.3856 9.4019 -2.7421 0.1653 0 7
13.3000 9.5226 -2.7421 0.1653 0 7
13.2133 9.6426 -2.7421 0.1653 0 7
13.1255 9.7618 -2.7421 0.1653 0 7
13.0366 9.8801 -2.7421 0.1653 0 7
12.9467 9.9977 -2.7421 0.1653 0 7
12.8557 10.1144 -2.7421 0.1653 0 7
12.7636 10.2304 -2.7421 0.1653 0 7
12.6705 10.3454 -2.7421 0.1653 0 7
12.5764 10.4597 -2.7421 0.1653 0 7
12.4812 10.5731 -2.7421 0.1653 0 7
12.3850 10.6856 -2.7421 0.1653 0 7
12.2878 10.7972 -2.7421 0.1653 0 7
12.1896 10.9080 -2.7421 0.1653 0 7
12.0904 11.0178 -2.7421 0.1653 0 7
11.9902 11.1268 -2.7421 0.1653 0 7
11.8890 11.2348 -2.7421 0.1653 0 7
11.7869 11.3419 -2.7421 0.1653 0 7
11.6837 11.4481 -2.7421 0.1653 0 7
11.5797 11.5534 -2.7421 0.1653 0 7
11.4746 11.6577 -2.7421 0.1653 0 7
11.3687 11.7611 -2.7421 0.1653 0 7
11.2618 11.8635 -2.7421 0.1653 0 7
11.1540 11.9649 -2.7421 0.1653 0 7
11.0452 12.0653 -2.7421 0.1653 0 7
10.9356 12.1648 -2.7421 0.1653 0 7
10.8251 12.2632 -2.7421 0.1653 0 7
10.7137 12.3607 -2.7421 0.1653 0 7
10.6014 12.4571 -2.7421 0.1653 0 7
10.4882 12.5526 -2.7421 0.1653 0 7
10.3742 12.6470 -2.7421 0.1653 0 7
10.2593 12.7403 -2.7421 0.1653 0 7
10.1436 12.8326 -2.7421 0.1653 0 7
10.0271 12.9239 -2.7421 0.1653 0 7
9.9097 13.0141 -2.7421 0.1653 0 7
9.7916 13.1032 -2.7421 0.1653 0 7
9.6726 13.1913 -2.7421 0.1653 0 7
9.5528 13.2783 -2.7421 0.1653 0 7
9.4323 13.3642 -2.7421 0.1653 0 7
9.3110 13.4490 -2.7421 0.1653 0 7
9.1889 13.5327 -2.7421 0.1653 0 7
9.0660 13.6153 -2.7421 0.1653 0 7
8.9425 13.6968 -2.7421 0.1653 0 7
8.8181 13.7772 -2.7421 0.1653 0 7
8.6931 13.8564 -2.7421 0.1653 0 7
8.5674 13.9345 -2.7421 0.1653 0 7
8.4409 14.0114 -2.7421 0.1653 0 6
8.3138 14.0873 -2.7421 0.1653 0 7
8.1860 14.1619 -2.7421 0.1653 0 7
8.0575 14.2354 -2.7421 0.1653 0 7
7.9283 14.3077 -2.7421 0.1653 0 7
7.7985 14.3789 -2.7421 0.1653 0 7
7.6681 14.4489 -2.7421 0.1653 0 7
7.5371 14.5177 -2.7421 0.1653 0 7
7.4054 14.5853 -2.7421 0.1653 0 7
7.2731 14.6517 -2.7421 0.1653 0 7
7.1402 14.7169 -2.7421 0.1653 0 7
7.0067 14.7809 -2.7421 0.1653 0 7
6.8727 14.8437 -2.7421 0.1653 0 7
6.7381 14.9053 -2.7421 0.1653 0 7
6.6029 14.9657 -2.7421 0.1653 0 7
6.4617 15.0119 -2.7397 0.1638 0 8
6.3197 15.0559 -2.7372 0.1639 0 8
5.8500 14.2979 -2.5897 0.1653 0 8
5.7204 14.3503 -2.5897 0.1653 0 8
5.5903 14.4015 -2.5897 0.1653 0 8
5.4597 14.4515 -2.5897 0.1653 0 8
5.3287 14.5003 -2.5897 0.1653 0 8
5.1973 14.5479 -2.5897 0.1653 0 8
5.0654 14.5944 -2.5897 0.1653 0 8
4.9332 14.6396 -2.5897 0.1653 0 8
4.8005 14.6836 -2.5897 0.1653 0 8
4.6674 14.7265 -2.5897 0.1653 0 8
4.5340 14.7681 -2.5897 0.1653 0 8
4.4002 14.8085 -2.5897 0.1653 0 8
4.2660 14.8477 -2.5897 0.1653 0 8
4.1314 14.8857 -2.5897 0.1653 0 8
3.9966 14.9225 -2.5897 0.1653 0 8
3.8614 14.9581 -2.5897 0.1653 0 8
3.7258 14.9924 -2.5897 0.1653 0 8
3.5900 15.0255 -2.5897 0.1653 0 8
3.4539 15.0574 -2.5897 0.1653 0 8
3.3175 15.0880 -2.5897 0.1653 0 8
3.1808 15.1174 -2.5897 0.1653 0 8
3.0439 15.1456 -2.5897 0.1653 0 8
2.9067 15.1725 -2.5897 0.1653 0 8
2.7693 15.1982 -2.5897 0.1653 0 8
2.6317 15.2226 -2.5897 0.1653 0 8
2.4938 15.2458 -2.5897 0.1653 0 8
2.3557 15.2678 -2.5897 0.1653 0 8
2.2175 15.2885 -2.5897 0.1653 0 8
2.0791 15.3079 -2.5897 0.1653 0 8
1.9404 15.3261 -2.5897 0.1653 0 8
1.8017 15.3430 -2.5897 0.1653 0 8
1.6628 15.3587 -2.5897 0.1653 0 8
1.5237 15.3731 -2.5897 0.1653 0 8
1.3845 15.3863 -2.5897 0.1653 0 8
1.2453 15.3982 -2.5897 0.1653 0 8
1.1059 15.4088 -2.5897 0.1653 0 8
0.9664 15.4182 -2.5897 0.1653 0 8
0.8268 15.4263 -2.5897 0.1653 0 8
0.6872 15.4331 -2.5897 0.1653 0 8
0.5475 15.4387 -2.5897 0.1653 0 8
0.4078 15.4431 -2.5897 0.1653 0 8
0.2680 15.4461 -2.5897 0.1653 0 8
0.1282 15.4479 -2.5897 0.1653 0 8
-0.0116 15.4484 -2.5897 0.1653 0 8
-0.1514 15.4477 -2.5897 0.1653 0 8
-0.2911 15.4457 -2.5897 0.1653 0 8
-0.4309 15.4424 -2.5897 0.1653 0 8
-0.5706 15.4379 -2.5897 0.1653 0 8
-0.2023 4.3946 -0.7375 0.9197 0 12
-0.2429 4.4082 -0.7401 0.9164 0 12
-0.2838 4.4220 -0.7428 0.9131 0 12
-0.3250 4.4358 -0.7456 0.9097 0 12
-0.3665 4.4497 -0.7484 0.9062 0 12
-0.4084 4.4637 -0.7514 0.9026 0 12
-0.4506 4.4779 -0.7544 0.8990 0 12
-0.4931 4.4921 -0.7575 0.8953 0 12
14.3655 0.0000 -2.7421 0.1875 0 7
14.3650 0.1300 -2.7421 0.1875 0 7
14.3632 0.2600 -2.7421 0.1875 0 7
14.3603 0.3899 -2.7421 0.1875 0 7
14.3561 0.5199 -2.7421 0.1875 0 7
14.3508 0.6498 -2.7421 0.1875 0 7
14.3444 0.7796 -2.7421 0.1875 0 7
14.3367 0.9094 -2.7421 0.1875 0 7
14.3279 1.0391 -2.7421 0.1875 0 7
14.3179 1.1687 -2.7421 0.1875 0 7
14.3068 1.2982 -2.7421 0.1875 0 7
14.2944 1.4276 -2.7421 0.1875 0 7
14.2809 1.5569 -2.7421 0.1875 0 7
14.2663 1.6861 -2.7421 0.1875 0 7
14.2504 1.8151 -2.7421 0.1875 0 7
14.2334 1.9440 -2.7421 0.1875 0 7
14.2152 2.0727 -2.7421 0.1875 0 7
14.1959 2.2012 -2.7421 0.1875 0 6
14.1754 2.3296 -2.7421 0.1875 0 6
14.1537 2.4578 -2.7421 0.1875 0 6
14.1309 2.5858 -2.7421 0.1875 0 6
14.1069 2.7135 -2.7421 0.1875 0 6
14.0818 2.8411 -2.7421 0.1875 0 6
14.0555 2.9684 -2.7421 0.1875 0 7
14.0281 3.0955 -2.7421 0.1875 0 7
13.9995 3.2223 -2.7421 0.1875 0 7
13.9698 3.3488 -2.7421 0.1875 0 7
13.9389 3.4751 -2.7421 0.1875 0 7
13.9069 3.6011 -2.7421 0.1875 0 7
13.8737 3.7268 -2.7421 0.1875 0 7
13.8394 3.8522 -2.7421 0.1875 0 6
13.8040 3.9773 -2.7421 0.1875 0 6
13.7674 4.1020 -2.7421 0.1875 0 6
13.7298 4.2264 -2.7421 0.1875 0 6
13.6910 4.3505 -2.7421 0.1875 0 6
13.6510 4.4742 -2.7421 0.1875 0 6
13.6100 4.5976 -2.7421 0.1875 0 6
13.5678 4.7205 -2.7421 0.1875 0 7
13.5245 4.8431 -2.7421 0.1875 0 7
13.4802 4.9653 -2.7421 0.1875 0 7
13.4347 5.0871 -2.7421 0.1875 0 7
13.3881 5.2084 -2.7421 0.1875 0 7
13.3404 5.3294 -2.7421 0.1875 0 7
13.2916 5.4499 -2.7421 0.1875 0 7
13.2418 5.5699 -2.7421 0.1875 0 7
13.1908 5.6895 -2.7421 0.1875 0 6
13.1388 5.8087 -2.7421 0.1875 0 6
13.0857 5.9273 -2.7421 0.1875 0 7
13.0315 6.0455 -2.7421 0.1875 0 6
12.9763 6.1632 -2.7421 0.1875 0 7
12.9200 6.2803 -2.7421 0.1875 0 7
12.8626 6.3970 -2.7421 0.1875 0 7
12.8042 6.5131 -2.7421 0.1875 0 7
12.7448 6.6287 -2.7421 0.1875 0 7
12.6843 6.7438 -2.7421 0.1875 0 7
12.6226 6.8583 -2.7421 0.1875 0 7
12.5601 6.9722 -2.7421 0.1875 0 7
12.4965 7.0856 -2.7421 0.1875 0 7
12.4319 7.1984 -2.7421 0.1875 0 7
12.3663 7.3106 -2.7421 0.1875 0 7
12.2996 7.4222 -2.7421 0.1875 0 7
12.2319 7.5332 -2.7421 0.1875 0 7
12.1632 7.6436 -2.7421 0.1875 0 7
12.0936 7.7534 -2.7421 0.1875 0 7
12.0229 7.8625 -2.7421 0.1875 0 7
11.9513 7.9709 -2.7421 0.1875 0 7
11.8787 8.0788 -2.7421 0.1875 0 7
11.8051 8.1859 -2.7421 0.1875 0 7
11.7305 8.2924 -2.7421 0.1875 0 7
11.6550 8.3982 -2.7421 0.1875 0 7
11.5785 8.5033 -2.7421 0.1875 0 7
11.5011 8.6078 -2.7421 0.1875 0 7
11.4228 8.7115 -2.7421 0.1875 0 7
11.3434 8.8145 -2.7421 0.1875 0 7
11.2632 8.9168 -2.7421 0.1875 0 7
11.1821 9.0183 -2.7421 0.1875 0 7
11.1000 9.1192 -2.7421 0.1875 0 7
11.0170 9.2192 -2.7421 0.1875 0 7
10.9331 9.3185 -2.7421 0.1875 0 7
10.8484 9.4171 -2.7421 0.1875 0 7
10.7627 9.5149 -2.7421 0.1875 0 7
10.6762 9.6119 -2.7421 0.1875 0 7
10.5887 9.7081 -2.7421 0.1875 0 7
10.5005 9.8035 -2.7421 0.1875 0 7
10.4113 9.8982 -2.7421 0.1875 0 7
10.3213 9.9920 -2.7421 0.1875 0 7
10.2305 10.0850 -2.7421 0.1875 0 7
10.1388 10.1771 -2.7421 0.1875 0 7
10.0463 10.2684 -2.7421 0.1875 0 7
9.9530 10.3589 -2.7421 0.1875 0 7
9.8588 10.4486 -2.7421 0.1875 0 7
9.7639 10.5374 -2.7421 0.1875 0 7
9.6681 10.6253 -2.7421 0.1875 0 7
9.5716 10.7123 -2.7421 0.1875 0 7
9.4742 10.7985 -2.7421 0.1875 0 7
9.3761 10.8838 -2.7421 0.1875 0 7
9.2773 10.9682 -2.7421 0.1875 0 7
9.1776 11.0517 -2.7421 0.1875 0 7
9.0772 11.1343 -2.7421 0.1875 0 7
8.9761 11.2160 -2.7421 0.1875 0 7
8.8743 11.2968 -2.7421 0.1875 0 7
8.7717 11.3766 -2.7421 0.1875 0 7
8.6684 11.4555 -2.7421 0.1875 0 7
8.5644 11.5335 -2.7421 0.1875 0 7
8.4596 11.6105 -2.7421 0.1875 0 7
8.3542 11.6866 -2.7421 0.1875 0 7
8.2481 11.7617 -2.7421 0.1875 0 7
8.1414 11.8359 -2.7421 0.1875 0 7
8.0339 11.9090 -2.7421 0.1875 0 7
7.9258 11.9812 -2.7421 0.1875 0 7
7.8171 12.0525 -2.7421 0.1875 0 7
7.7077 12.1227 -2.7421 0.1875 0 6
7.5977 12.1920 -2.7421 0.1875 0 7
7.4871 12.2602 -2.7421 0.1875 0 7
7.3758 12.3275 -2.7421 0.1875 0 7
7.2639 12.3937 -2.7421 0.1875 0 7
7.1515 12.4589 -2.7421 0.1875 0 7
7.0385 12.5231 -2.7421 0.1875 0 7
6.9248 12.5863 -2.7421 0.1875 0 7
6.8107 12.6485 -2.7421 0.1875 0 7
6.6959 12.7096 -2.7421 0.1875 0 7
6.5806 12.7697 -2.7421 0.1875 0 7
6.4648 12.8287 -2.7421 0.1875 0 7
6.3485 12.8867 -2.7421 0.1875 0 7
6.2316 12.9436 -2.7421 0.1875 0 7
6.1142 12.9994 -2.7421 0.1875 0 7
5.9963 13.0542 -2.7421 0.1875 0 7
5.8742 13.0996 -2.7403 0.1857 0 8
5.7508 13.1416 -2.7381 0.1859 0 8
5.6271 13.1825 -2.7359 0.1860 0 8
5.2132 12.5256 -2.5897 0.1875 0 8
5.0996 12.5722 -2.5897 0.1875 0 8
4.9856 12.6179 -2.5897 0.1875 0 8
4.8713 12.6625 -2.5897 0.1875 0 8
4.7565 12.7060 -2.5897 0.1875 0 8
4.6413 12.7485 -2.5897 0.1875 0 8
4.5258 12.7900 -2.5897 0.1875 0 8
4.4098 12.8305 -2.5897 0.1875 0 8
4.2935 12.8698 -2.5897 0.1875 0 8
4.1769 12.9082 -2.5897 0.1875 0 8
4.0599 12.9454 -2.5897 0.1875 0 8
3.9426 12.9816 -2.5897 0.1875 0 8
3.8250 13.0168 -2.5897 0.1875 0 8
3.7070 13.0509 -2.5897 0.1875 0 8
3.5888 13.0839 -2.5897 0.1875 0 8
3.4702 13.1158 -2.5897 0.1875 0 8
3.3514 13.1467 -2.5897 0.1875 0 8
3.2323 13.1765 -2.5897 0.1875 0 8
3.1129 13.2052 -2.5897 0.1875 0 8
2.9933 13.2328 -2.5897 0.1875 0 8
2.8735 13.2594 -2.5897 0.1875 0 8
2.7534 13.2848 -2.5897 0.1875 0 8
2.6330 13.3092 -2.5897 0.1875 0 8
2.5125 13.3325 -2.5897 0.1875 0 8
2.3917 13.3547 -2.5897 0.1875 0 8
2.2708 13.3758 -2.5897 0.1875 0 8
2.1497 13.3958 -2.5897 0.1875 0 8
2.0284 13.4147 -2.5897 0.1875 0 8
1.9069 13.4325 -2.5897 0.1875 0 8
1.7852 13.4492 -2.5897 0.1875 0 8
1.6635 13.4648 -2.5897 0.1875 0 8
1.5416 13.4793 -2.5897 0.1875 0 8
1.4195 13.4927 -2.5897 0.1875 0 8
1.2973 13.5050 -2.5897 0.1875 0 8
1.1751 13.5162 -2.5897 0.1875 0 8
1.0527 13.5262 -2.5897 0.1875 0 8
0.9303 13.5352 -2.5897 0.1875 0 8
0.8078 13.5431 -2.5897 0.1875 0 8
0.6852 13.5498 -2.5897 0.1875 0 8
0.5626 13.5555 -2.5897 0.1875 0 8
0.4399 13.5600 -2.5897 0.1875 0 8
0.3171 13.5634 -2.5897 0.1875 0 8
0.1944 13.5657 -2.5897 0.1875 0 8
0.0716 13.5670 -2.5897 0.1875 0 8
-0.0511 13.5670 -2.5897 0.1875 0 8
-0.1739 13.5660 -2.5897 0.1875 0 8
-0.2967 13.5639 -2.5897 0.1875 0 8
-0.4194 13.5607 -2.5897 0.1875 0 8
-0.5421 13.5563 -2.5897 0.1875 0 8
-0.2158 4.3991 -0.8407 0.9149 0 12
-0.2565 4.4128 -0.8437 0.9116 0 12
-0.2975 4.4266 -0.8468 0.9083 0 12
-0.3389 4.4404 -0.8500 0.9048 0 12
-0.3805 4.4544 -0.8533 0.9013 0 12
-0.4225 4.4684 -0.8567 0.8978 0 12
-0.4648 4.4826 -0.8602 0.8941 0 12
-0.5074 4.4969 -0.8638 0.8904 0 12
-0.5504 4.5114 -0.8675 0.8866 0 12
-0.5938 4.5259 -0.8713 0.8828 0 12
-0.6376 4.5406 -0.8752 0.8788 0 12
-2.0081 13.4177 -2.5897 0.1875 0 8
-2.1294 13.3990 -2.5897 0.1875 0 8
-2.2506 13.3792 -2.5897 0.1875 0 8
-2.3716 13.3583 -2.5897 0.1875 0 8
-2.4923 13.3362 -2.5897 0.1875 0 8
-2.6129 13.3132 -2.5897 0.1875 0 8
-2.7333 13.2890 -2.5897 0.1875 0 8
-2.8534 13.2637 -2.5897 0.1875 0 8
-2.9733 13.2373 -2.5897 0.1875 0 8
-3.0930 13.2099 -2.5897 0.1875 0 8
-3.2124 13.1813 -2.5897 0.1875 0 8
-3.3316 13.1517 -2.5897 0.1875 0 8
-3.4504 13.1210 -2.5897 0.1875 0 8
-3.5690 13.0893 -2.5897 0.1875 0 8
-3.6873 13.0565 -2.5897 0.1875 0 8
-3.8053 13.0226 -2.5897 0.1875 0 8
-3.9230 12.9876 -2.5897 0.1875 0 8
-4.0404 12.9515 -2.5897 0.1875 0 8
-4.1574 12.9145 -2.5897 0.1875 0 8
-4.2741 12.8763 -2.5897 0.1875 0 8
-4.3904 12.8371 -2.5897 0.1875 0 8
-4.4780 12.7162 -2.5733 0.6369 0 9
-4.5448 12.5424 -2.5464 0.6437 0 9
-4.6102 12.3722 -2.5202 0.6504 0 9
-4.6743 12.2054 -2.4947 0.6570 0 9
-4.7371 12.0420 -2.4700 0.6636 0 9
-4.8619 12.0383 -2.4782 0.7182 0 9
-5.0132 12.0964 -2.4994 0.7121 0 9
-5.1671 12.1556 -2.5211 0.7059 0 9
-5.3237 12.2158 -2.5435 0.6997 0 9
-5.4831 12.2770 -2.5665 0.6935 0 9
-5.6444 12.3373 -2.5897 0.1875 0 8
-5.7559 12.2857 -2.5897 0.1875 0 8
-5.8668 12.2331 -2.5897 0.1875 0 8
-5.9772 12.1795 -2.5897 0.1875 0 8
-6.0872 12.1249 -2.5897 0.1875 0 8
-6.1967 12.0693 -2.5897 0.1875 0 8
-6.3056 12.0128 -2.5897 0.1875 0 8
-6.4141 11.9552 -2.5897 0.1875 0 8
-6.5220 11.8967 -2.5897 0.1875 0 8
-6.6294 11.8372 -2.5897 0.1875 0 8
-6.7362 11.7767 -2.5897 0.1875 0 8
-6.8425 11.7152 -2.5897 0.1875 0 8
-6.9483 11.6529 -2.5897 0.1875 0 8
-7.0534 11.5895 -2.5897 0.1875 0 8
-7.1580 11.5252 -2.5897 0.1875 0 8
-7.2620 11.4600 -2.5897 0.1875 0 8
-7.3654 11.3938 -2.5897 0.1875 0 8
-7.4682 11.3266 -2.5897 0.1875 0 8
-7.5704 11.2586 -2.5897 0.1875 0 8
-7.6720 11.1896 -2.5897 0.1875 0 8
-7.7729 11.1198 -2.5897 0.1875 0 8
-7.8732 11.0490 -2.5897 0.1875 0 8
-7.9729 10.9773 -2.5897 0.1875 0 8
-8.0719 10.9047 -2.5897 0.1875 0 8
-8.1702 10.8312 -2.5897 0.1875 0 8
-8.2679 10.7568 -2.5897 0.1875 0 8
-8.3649 10.6815 -2.5897 0.1875 0 8
-8.4612 10.6054 -2.5897 0.1875 0 8
-8.5569 10.5284 -2.5897 0.1875 0 8
-8.6518 10.4506 -2.5897 0.1875 0 8
-8.7460 10.3718 -2.5897 0.1875 0 8
-8.8395 10.2923 -2.5897 0.1875 0 8
-8.9323 10.2118 -2.5897 0.1875 0 8
-9.0243 10.1306 -2.5897 0.1875 0 8
-9.1156 10.0485 -2.5897 0.1875 0 8
-9.2062 9.9656 -2.5897 0.1875 0 8
-9.2960 9.8819 -2.5897 0.1875 0 8
-9.3850 9.7974 -2.5897 0.1875 0 8
-9.4733 9.7121 -2.5897 0.1875 0 8
-9.5608 9.6259 -2.5897 0.1875 0 8
-9.6475 9.5390 -2.5897 0.1875 0 8
-9.7334 9.4513 -2.5897 0.1875 0 8
-9.8186 9.3629 -2.5897 0.1875 0 8
-9.9029 9.2736 -2.5897 0.1875 0 8
-9.9864 9.1836 -2.5897 0.1875 0 8
-10.0691 9.0929 -2.5897 0.1875 0 8
-10.1510 9.0014 -2.5897 0.1875 0 8
-10.2320 8.9092 -2.5897 0.1875 0 8
-10.3122 8.8162 -2.5897 0.1875 0 8
-10.3916 8.7226 -2.5897 0.1875 0 8
-10.4701 8.6282 -2.5897 0.1875 0 8
-10.5477 8.5331 -2.5897 0.1875 0 8
-10.6245 8.4373 -2.5897 0.1875 0 8
-10.7004 8.3408 -2.5897 0.1875 0 8
-10.7754 8.2436 -2.5897 0.1875 0 8
-10.8496 8.1458 -2.5897 0.1875 0 8
-10.9229 8.0473 -2.5897 0.1875 0 8
-10.9952 7.9481 -2.5897 0.1875 0 8
-11.0667 7.8483 -2.5897 0.1875 0 8
-11.1373 7.7478 -2.5897 0.1875 0 8
-7.3925 5.0440 -1.7082 0.7721 0 5
-7.4691 4.9979 -1.7154 0.6022 0 5
-11.3435 7.4426 -2.5897 0.1875 0 8
-11.4104 7.3397 -2.5897 0.1875 0 8
-11.4763 7.2361 -2.5897 0.1875 0 8
-11.5413 7.1320 -2.5897 0.1875 0 8
-11.6054 7.0272 -2.5897 0.1875 0 8
-11.6685 6.9219 -2.5897 0.1875 0 8
-11.7307 6.8161 -2.5897 0.1875 0 8
-11.7919 6.7096 -2.5897 0.1875 0 8
-11.8521 6.6027 -2.5897 0.1875 0 8
-11.9114 6.4951 -2.5897 0.1875 0 8
-11.9697 6.3871 -2.5897 0.1875 0 8
-12.0270 6.2785 -2.5897 0.1875 0 8
-12.0833 6.1694 -2.5897 0.1875 0 8
-12.1386 6.0598 -2.5897 0.1875 0 8
-12.1930 5.9497 -2.5897 0.1875 0 8
-12.7201 6.0650 -2.6898 0.1346 0 8
-12.9939 6.0519 -2.7361 0.1890 0 8
-13.0585 5.9388 -2.7382 0.1889 0 8
-13.1222 5.8250 -2.7404 0.1887 0 8
-13.1822 5.7094 -2.7421 0.1875 0 7
-13.2334 5.5899 -2.7421 0.1875 0 7
-13.2834 5.4700 -2.7421 0.1875 0 7
-13.3324 5.3495 -2.7421 0.1875 0 7
-13.3802 5.2287 -2.7421 0.1875 0 7
-13.4270 5.1074 -2.7421 0.1875 0 7
-13.4727 4.9857 -2.7421 0.1875 0 7
-13.5172 4.8635 -2.7421 0.1875 0 7
-13.5607 4.7410 -2.7421 0.1875 0 7
-13.6030 4.6181 -2.7421 0.1875 0 7
-13.6443 4.4948 -2.7421 0.1875 0 7
-13.6844 4.3712 -2.7421 0.1875 0 7
-13.7234 4.2472 -2.7421 0.1875 0 7
-13.7612 4.1228 -2.7421 0.1875 0 7
-13.7980 3.9981 -2.7421 0.1875 0 7
-13.8336 3.8731 -2.7421 0.1875 0 6
-13.8681 3.7477 -2.7421 0.1875 0 7
-13.9014 3.6221 -2.7421 0.1875 0 7
-13.9336 3.4961 -2.7421 0.1875 0 7
-13.9647 3.3699 -2.7421 0.1875 0 7
-13.9946 3.2434 -2.7421 0.1875 0 7
-14.0234 3.1166 -2.7421 0.1875 0 7
-14.0510 2.9896 -2.7421 0.1875 0 7
-14.0775 2.8623 -2.7421 0.1875 0 7
-14.1028 2.7348 -2.7421 0.1875 0 7
-14.1270 2.6071 -2.7421 0.1875 0 7
-14.1500 2.4792 -2.7421 0.1875 0 7
-14.1719 2.3510 -2.7421 0.1875 0 7
-14.1926 2.2227 -2.7421 0.1875 0 7
-14.2121 2.0942 -2.7421 0.1875 0 7
-14.2305 1.9655 -2.7421 0.1875 0 7
-14.2477 1.8366 -2.7421 0.1875 0 7
-14.2637 1.7076 -2.7421 0.1875 0 7
-14.2786 1.5785 -2.7421 0.1875 0 7
-14.2923 1.4492 -2.7421 0.1875 0 7
-14.3048 1.3198 -2.7421 0.1875 0 7
-14.3162 1.1903 -2.7421 0.1875 0 7
-14.3263 1.0607 -2.7421 0.1875 0 7
-14.3354 0.9310 -2.7421 0.1875 0 7
-14.3432 0.8013 -2.7421 0.1875 0 7
-14.3499 0.6714 -2.7421 0.1875 0 7
-14.3554 0.5416 -2.7421 0.1875 0 7
-14.3597 0.4116 -2.7421 0.1875 0 7
-14.3628 0.2817 -2.7421 0.1875 0 7
-14.3648 0.1517 -2.7421 0.1875 0 7
-14.3655 0.0217 -2.7421 0.1875 0 7
-14.3652 -0.1083 -2.7421 0.1875 0 7
-14.3636 -0.2383 -2.7421 0.1875 0 7
-14.3608 -0.3682 -2.7421 0.1875 0 7
-14.3569 -0.4982 -2.7421 0.1875 0 7
-14.3518 -0.6281 -2.7421 0.1875 0 7
-14.3455 -0.7579 -2.7421 0.1875 0 7
-14.3381 -0.8877 -2.7421 0.1875 0 7
-14.3295 -1.0174 -2.7421 0.1875 0 7
-14.3197 -1.1470 -2.7421 0.1875 0 7
-14.3087 -1.2766 -2.7421 0.1875 0 7
-14.2966 -1.4060 -2.7421 0.1875 0 7
-14.2833 -1.5353 -2.7421 0.1875 0 7
-14.2688 -1.6645 -2.7421 0.1875 0 7
-14.2532 -1.7936 -2.7421 0.1875 0 7
-14.2363 -1.9225 -2.7421 0.1875 0 7
-14.2184 -2.0512 -2.7421 0.1875 0 7
-14.1992 -2.1798 -2.7421 0.1875 0 7
-14.1789 -2.3082 -2.7421 0.1875 0 7
-14.1575 -2.4364 -2.7421 0.1875 0 7
-14.1348 -2.5644 -2.7421 0.1875 0 7
-14.1110 -2.6922 -2.7421 0.1875 0 7
-14.0861 -2.8198 -2.7421 0.1875 0 7
-14.0600 -2.9472 -2.7421 0.1875 0 7
-14.0328 -3.0743 -2.7421 0.1875 0 7
-14.0044 -3.2011 -2.7421 0.1875 0 7
-13.9748 -3.3277 -2.7421 0.1875 0 6
-13.9441 -3.4540 -2.7421 0.1875 0 7
-13.9123 -3.5801 -2.7421 0.1875 0 6
-13.8793 -3.7058 -2.7421 0.1875 0 6
-13.8452 -3.8313 -2.7421 0.1875 0 7
-13.8100 -3.9564 -2.7421 0.1875 0 7
-13.7736 -4.0812 -2.7421 0.1875 0 7
-13.7361 -4.2057 -2.7421 0.1875 0 7
-13.6975 -4.3298 -2.7421 0.1875 0 7
-13.6578 -4.4536 -2.7421 0.1875 0 7
-13.6169 -4.5770 -2.7421 0.1875 0 7
-13.5749 -4.7000 -2.7421 0.1875 0 7
-13.5319 -4.8227 -2.7421 0.1875 0 7
-13.4877 -4.9449 -2.7421 0.1875 0 7
-13.4424 -5.0668 -2.7421 0.1875 0 7
-13.3960 -5.1882 -2.7421 0.1875 0 7
-13.3485 -5.3092 -2.7421 0.1875 0 7
-13.2999 -5.4298 -2.7421 0.1875 0 7
-13.2502 -5.5499 -2.7421 0.1875 0 7
-13.1994 -5.6696 -2.7421 0.1875 0 7
-13.1476 -5.7888 -2.7421 0.1875 0 7
-13.0947 -5.9076 -2.7421 0.1875 0 7
-13.0407 -6.0258 -2.7421 0.1875 0 7
-12.9856 -6.1436 -2.7421 0.1875 0 7
-12.9295 -6.2608 -2.7421 0.1875 0 7
-12.8723 -6.3776 -2.7421 0.1875 0 7
-12.8141 -6.4938 -2.7421 0.1875 0 7
-12.7548 -6.6095 -2.7421 0.1875 0 7
-12.6944 -6.7246 -2.7421 0.1875 0 7
-12.6331 -6.8392 -2.7421 0.1875 0 7
-12.5707 -6.9532 -2.7421 0.1875 0 7
-12.5072 -7.0667 -2.7421 0.1875 0 7
-12.4428 -7.1796 -2.7421 0.1875 0 7
-12.3773 -7.2919 -2.7421 0.1875 0 7
-12.3108 -7.4036 -2.7421 0.1875 0 7
-12.2433 -7.5147 -2.7421 0.1875 0 7
-12.1748 -7.6252 -2.7421 0.1875 0 7
-12.1053 -7.7351 -2.7421 0.1875 0 7
-12.0348 -7.8443 -2.7421 0.1875 0 7
-11.9633 -7.9529 -2.7421 0.1875 0 7
-11.8909 -8.0608 -2.7421 0.1875 0 7
-11.8174 -8.1681 -2.7421 0.1875 0 7
-11.7430 -8.2747 -2.7421 0.1875 0 7
-11.6677 -8.3806 -2.7421 0.1875 0 7
-11.5914 -8.4858 -2.7421 0.1875 0 7
-11.5141 -8.5904 -2.7421 0.1875 0 7
-11.4359 -8.6942 -2.7421 0.1875 0 7
-11.3568 -8.7973 -2.7421 0.1875 0 7
-11.2767 -8.8998 -2.7421 0.1875 0 7
-11.1957 -9.0014 -2.7421 0.1875 0 7
-11.1138 -9.1024 -2.7421 0.1875 0 7
-11.0309 -9.2026 -2.7421 0.1875 0 7
-10.9472 -9.3020 -2.7421 0.1875 0 7
-10.8626 -9.4007 -2.7421 0.1875 0 7
-10.7771 -9.4986 -2.7421 0.1875 0 7
-10.6907 -9.5957 -2.7421 0.1875 0 7
-10.6034 -9.6921 -2.7421 0.1875 0 7
-10.5153 -9.7877 -2.7421 0.1875 0 7
-10.4263 -9.8824 -2.7421 0.1875 0 7
-10.3364 -9.9763 -2.7421 0.1875 0 7
-10.2457 -10.0695 -2.7421 0.1875 0 7
-10.1542 -10.1618 -2.7421 0.1875 0 6
-10.0618 -10.2533 -2.7421 0.1875 0 6
-9.9686 -10.3439 -2.7421 0.1875 0 7
-9.8746 -10.4337 -2.7421 0.1875 0 7
-9.7798 -10.5226 -2.7421 0.1875 0 7
-9.6842 -10.6107 -2.7421 0.1875 0 7
-9.5878 -10.6979 -2.7421 0.1875 0 7
-9.4905 -10.7842 -2.7421 0.1875 0 7
-9.3926 -10.8696 -2.7421 0.1875 0 7
-9.2938 -10.9542 -2.7421 0.1875 0 7
-9.1943 -11.0378 -2.7421 0.1875 0 7
-9.0941 -11.1206 -2.7421 0.1875 0 6
-8.9931 -11.2024 -2.7421 0.1875 0 6
-8.8913 -11.2833 -2.7421 0.1875 0 6
-8.7889 -11.3633 -2.7421 0.1875 0 6
-8.6857 -11.4424 -2.7421 0.1875 0 6
-8.5818 -11.5205 -2.7421 0.1875 0 6
-8.4772 -11.5977 -2.7421 0.1875 0 6
-8.3719 -11.6739 -2.7421 0.1875 0 6
-8.2659 -11.7492 -2.7421 0.1875 0 6
-8.1592 -11.8235 -2.7421 0.1875 0 6
-8.0519 -11.8969 -2.7421 0.1875 0 7
-7.9439 -11.9693 -2.7421 0.1875 0 7
-7.8353 -12.0407 -2.7421 0.1875 0 7
-7.7260 -12.1111 -2.7421 0.1875 0 7
-7.6161 -12.1805 -2.7421 0.1875 0 7
-7.5056 -12.2489 -2.7421 0.1875 0 7
-7.3944 -12.3163 -2.7421 0.1875 0 7
-7.2827 -12.3827 -2.7421 0.1875 0 7
-7.1703 -12.4481 -2.7421 0.1875 0 7
-7.0574 -12.5125 -2.7421 0.1875 0 7
-6.9438 -12.5759 -2.7421 0.1875 0 7
-6.8298 -12.6382 -2.7421 0.1875 0 7
-6.7151 -12.6995 -2.7421 0.1875 0 7
-6.5999 -12.7597 -2.7421 0.1875 0 7
-6.4842 -12.8189 -2.7421 0.1875 0 7
-6.3679 -12.8771 -2.7421 0.1875 0 7
-6.2511 -12.9342 -2.7421 0.1875 0 7
-6.1339 -12.9902 -2.7421 0.1875 0 7
-6.0160 -13.0452 -2.7421 0.1875 0 7
-5.8978 -13.0991 -2.7421 0.1875 0 7
-5.7790 -13.1519 -2.7421 0.1875 0 7
-5.6597 -13.2037 -2.7421 0.1875 0 7
-5.5400 -13.2543 -2.7421 0.1875 0 7
-5.4199 -13.3039 -2.7421 0.1875 0 7
-5.2992 -13.3524 -2.7421 0.1875 0 7
-5.1782 -13.3998 -2.7421 0.1875 0 7
-5.0567 -13.4461 -2.7421 0.1875 0 7
-4.9348 -13.4913 -2.7421 0.1875 0 7
-4.8126 -13.5354 -2.7421 0.1875 0 7
-4.6899 -13.5784 -2.7421 0.1875 0 7
-4.5668 -13.6203 -2.7421 0.1875 0 7
-4.4434 -13.6611 -2.7421 0.1875 0 7
-4.3196 -13.7007 -2.7421 0.1875 0 7
-4.1954 -13.7393 -2.7421 0.1875 0 7
-4.0709 -13.7767 -2.7421 0.1875 0 7
-3.9461 -13.8130 -2.7421 0.1875 0 7
-3.8209 -13.8481 -2.7421 0.1875 0 7
-3.6954 -13.8821 -2.7421 0.1875 0 7
-3.5697 -13.9150 -2.7421 0.1875 0 7
-3.4436 -13.9467 -2.7421 0.1875 0 7
-3.3173 -13.9773 -2.7421 0.1875 0 7
-3.1907 -14.0068 -2.7421 0.1875 0 7
-3.0638 -14.0350 -2.7421 0.1875 0 7
-2.9366 -14.0622 -2.7421 0.1875 0 7
-2.8093 -14.0882 -2.7421 0.1875 0 7
-2.6817 -14.1130 -2.7421 0.1875 0 7
-2.5539 -14.1367 -2.7421 0.1875 0 7
-2.4258 -14.1593 -2.7421 0.1875 0 7
-2.2976 -14.1806 -2.7421 0.1875 0 7
-2.1692 -14.2008 -2.7421 0.1875 0 7
-2.0406 -14.2199 -2.7421 0.1875 0 7
-1.9118 -14.2378 -2.7421 0.1875 0 7
-1.7829 -14.2545 -2.7421 0.1875 0 7
-1.6538 -14.2700 -2.7421 0.1875 0 7
-1.5246 -14.2844 -2.7421 0.1875 0 7
-1.3953 -14.2976 -2.7421 0.1875 0 7
-1.2659 -14.3097 -2.7421 0.1875 0 7
-1.1363 -14.3205 -2.7421 0.1875 0 7
-1.0067 -14.3302 -2.7421 0.1875 0 7
-0.8770 -14.3388 -2.7421 0.1875 0 7
-0.7472 -14.3461 -2.7421 0.1875 0 7
-0.6173 -14.3523 -2.7421 0.1875 0 7
-0.4875 -14.3573 -2.7421 0.1875 0 7
-0.3575 -14.3611 -2.7421 0.1875 0 7
-0.2275 -14.3638 -2.7421 0.1875 0 7
-0.0976 -14.3652 -2.7421 0.1875 0 7
0.0324 -14.3655 -2.7421 0.1875 0 7
0.1624 -14.3646 -2.7421 0.1875 0 7
0.2924 -14.3626 -2.7421 0.1875 0 7
0.4224 -14.3593 -2.7421 0.1875 0 7
0.5523 -14.3549 -2.7421 0.1875 0 7
0.6822 -14.3494 -2.7421 0.1875 0 7
0.8120 -14.3426 -2.7421 0.1875 0 7
0.9417 -14.3347 -2.7421 0.1875 0 7
1.0714 -14.3255 -2.7421 0.1875 0 7
1.2010 -14.3153 -2.7421 0.1875 0 7
1.3305 -14.3038 -2.7421 0.1875 0 7
1.4599 -14.2912 -2.7421 0.1875 0 7
1.5891 -14.2774 -2.7421 0.1875 0 7
1.7183 -14.2624 -2.7421 0.1875 0 7
1.8473 -14.2463 -2.7421 0.1875 0 7
1.9761 -14.2290 -2.7421 0.1875 0 7
2.1048 -14.2105 -2.7421 0.1875 0 7
2.2333 -14.1909 -2.7421 0.1875 0 7
2.3616 -14.1701 -2.7421 0.1875 0 7
2.4898 -14.1481 -2.7421 0.1875 0 7
2.6177 -14.1250 -2.7421 0.1875 0 7
2.7454 -14.1008 -2.7421 0.1875 0 7
2.8729 -14.0754 -2.7421 0.1875 0 7
3.0001 -14.0488 -2.7421 0.1875 0 7
3.1271 -14.0211 -2.7421 0.1875 0 7
3.2539 -13.9922 -2.7421 0.1875 0 7
3.3804 -13.9622 -2.7421 0.1875 0 7
3.5066 -13.9310 -2.7421 0.1875 0 7
3.6325 -13.8987 -2.7421 0.1875 0 7
3.7581 -13.8653 -2.7421 0.1875 0 7
3.8834 -13.8307 -2.7421 0.1875 0 7
4.0084 -13.7950 -2.7421 0.1875 0 7
4.1331 -13.7582 -2.7421 0.1875 0 7
4.2574 -13.7202 -2.7421 0.1875 0 7
4.3814 -13.6811 -2.7421 0.1875 0 7
4.5050 -13.6409 -2.7421 0.1875 0 7
4.6283 -13.5996 -2.7421 0.1875 0 7
4.7512 -13.5571 -2.7421 0.1875 0 7
4.8736 -13.5136 -2.7421 0.1875 0 7
4.9957 -13.4689 -2.7421 0.1875 0 7
5.1174 -13.4232 -2.7421 0.1875 0 7
5.2387 -13.3763 -2.7421 0.1875 0 7
5.3595 -13.3284 -2.7421 0.1875 0 7
5.4799 -13.2793 -2.7421 0.1875 0 7
5.5998 -13.2292 -2.7421 0.1875 0 7
5.7193 -13.1780 -2.7421 0.1875 0 7
5.8383 -13.1257 -2.7421 0.1875 0 7
5.9569 -13.0723 -2.7421 0.1875 0 7
6.0749 -13.0178 -2.7421 0.1875 0 7
6.1925 -12.9623 -2.7421 0.1875 0 7
6.3095 -12.9058 -2.7421 0.1875 0 7
6.4260 -12.8482 -2.7421 0.1875 0 7
6.5420 -12.7895 -2.7421 0.1875 0 7
6.6575 -12.7298 -2.7421 0.1875 0 7
6.7724 -12.6690 -2.7421 0.1875 0 7
6.8868 -12.6072 -2.7421 0.1875 0 7
7.0006 -12.5444 -2.7421 0.1875 0 7
7.1138 -12.4805 -2.7421 0.1875 0 7
7.2265 -12.4156 -2.7421 0.1875 0 7
7.3385 -12.3497 -2.7421 0.1875 0 7
7.4500 -12.2828 -2.7421 0.1875 0 7
7.5608 -12.2149 -2.7421 0.1875 0 7
7.6710 -12.1460 -2.7421 0.1875 0 7
7.7806 -12.0760 -2.7421 0.1875 0 7
7.8896 -12.0051 -2.7421 0.1875 0 7
7.9979 -11.9333 -2.7421 0.1875 0 7
8.1056 -11.8604 -2.7421 0.1875 0 7
8.2126 -11.7866 -2.7421 0.1875 0 7
8.3189 -11.7118 -2.7421 0.1875 0 7
8.4245 -11.6360 -2.7421 0.1875 0 7
8.5295 -11.5593 -2.7421 0.1875 0 7
8.6337 -11.4816 -2.7421 0.1875 0 7
8.7373 -11.4030 -2.7421 0.1875 0 7
8.8401 -11.3235 -2.7421 0.1875 0 7
8.9422 -11.2430 -2.7421 0.1875 0 7
9.0436 -11.1617 -2.7421 0.1875 0 7
9.1442 -11.0794 -2.7421 0.1875 0 7
9.2441 -10.9962 -2.7421 0.1875 0 7
9.3432 -10.9121 -2.7421 0.1875 0 7
9.4416 -10.8271 -2.7421 0.1875 0 7
9.5392 -10.7412 -2.7421 0.1875 0 7
9.6360 -10.6544 -2.7421 0.1875 0 7
9.7320 -10.5668 -2.7421 0.1875 0 7
9.8272 -10.4783 -2.7421 0.1875 0 7
9.9216 -10.3889 -2.7421 0.1875 0 7
10.0152 -10.2987 -2.7421 0.1875 0 7
10.1080 -10.2077 -2.7421 0.1875 0 7
10.2000 -10.1158 -2.7421 0.1875 0 7
10.2911 -10.0231 -2.7421 0.1875 0 7
10.3814 -9.9296 -2.7421 0.1875 0 7
10.4708 -9.8352 -2.7421 0.1875 0 7
10.5594 -9.7401 -2.7421 0.1875 0 7
10.6471 -9.6441 -2.7421 0.1875 0 7
10.7339 -9.5474 -2.7421 0.1875 0 7
10.8199 -9.4498 -2.7421 0.1875 0 7
10.9049 -9.3515 -2.7421 0.1875 0 7
10.9891 -9.2525 -2.7421 0.1875 0 7
11.0724 -9.1527 -2.7421 0.1875 0 7
11.1548 -9.0521 -2.7421 0.1875 0 7
11.2362 -8.9508 -2.7421 0.1875 0 7
11.3168 -8.8487 -2.7421 0.1875 0 7
11.3964 -8.7460 -2.7421 0.1875 0 7
11.4751 -8.6425 -2.7421 0.1875 0 7
11.5528 -8.5383 -2.7421 0.1875 0 7
11.6296 -8.4334 -2.7421 0.1875 0 7
11.7054 -8.3278 -2.7421 0.1875 0 7
11.7803 -8.2215 -2.7421 0.1875 0 7
11.8542 -8.1146 -2.7421 0.1875 0 7
11.9271 -8.0070 -2.7421 0.1875 0 7
11.9991 -7.8987 -2.7421 0.1875 0 7
12.0701 -7.7898 -2.7421 0.1875 0 7
12.1401 -7.6803 -2.7421 0.1875 0 7
12.2091 -7.5701 -2.7421 0.1875 0 7
12.2771 -7.4593 -2.7421 0.1875 0 7
12.3441 -7.3479 -2.7421 0.1875 0 7
12.4101 -7.2359 -2.7421 0.1875 0 7
12.4751 -7.1233 -2.7421 0.1875 0 7
12.5390 -7.0101 -2.7421 0.1875 0 7
12.6019 -6.8964 -2.7421 0.1875 0 7
12.6638 -6.7821 -2.7421 0.1875 0 7
12.7247 -6.6672 -2.7421 0.1875 0 7
12.7845 -6.5518 -2.7421 0.1875 0 7
12.8433 -6.4358 -2.7421 0.1875 0 7
12.9010 -6.3194 -2.7421 0.1875 0 7
12.9576 -6.2023 -2.7421 0.1875 0 7
13.0132 -6.0848 -2.7421 0.1875 0 7
13.0677 -5.9668 -2.7421 0.1875 0 7
13.1212 -5.8483 -2.7421 0.1875 0 7
13.1736 -5.7294 -2.7421 0.1875 0 7
13.2249 -5.6099 -2.7421 0.1875 0 7
13.2751 -5.4900 -2.7421 0.1875 0 7
13.3243 -5.3697 -2.7421 0.1875 0 7
13.3723 -5.2489 -2.7421 0.1875 0 7
13.4193 -5.1276 -2.7421 0.1875 0 7
13.4651 -5.0060 -2.7421 0.1875 0 7
13.5099 -4.8839 -2.7421 0.1875 0 7
13.5535 -4.7615 -2.7421 0.1875 0 7
13.5960 -4.6387 -2.7421 0.1875 0 7
13.6375 -4.5154 -2.7421 0.1875 0 7
13.6777 -4.3918 -2.7421 0.1875 0 7
13.7169 -4.2679 -2.7421 0.1875 0 7
13.7550 -4.1436 -2.7421 0.1875 0 7
13.7919 -4.0190 -2.7421 0.1875 0 7
13.8277 -3.8940 -2.7421 0.1875 0 7
13.8624 -3.7687 -2.7421 0.1875 0 7
13.8959 -3.6431 -2.7421 0.1875 0 7
13.9283 -3.5172 -2.7421 0.1875 0 7
13.9596 -3.3910 -2.7421 0.1875 0 7
13.9897 -3.2646 -2.7421 0.1875 0 7
14.0187 -3.1378 -2.7421 0.1875 0 7
14.0465 -3.0108 -2.7421 0.1875 0 7
14.0732 -2.8836 -2.7421 0.1875 0 7
14.0987 -2.7561 -2.7421 0.1875 0 7
14.1230 -2.6285 -2.7421 0.1875 0 7
14.1463 -2.5005 -2.7421 0.1875 0 7
14.1683 -2.3724 -2.7421 0.1875 0 7
14.1892 -2.2441 -2.7421 0.1875 0 7
14.2089 -2.1156 -2.7421 0.1875 0 7
14.2275 -1.9870 -2.7421 0.1875 0 7
14.2449 -1.8581 -2.7421 0.1875 0 7
14.2611 -1.7292 -2.7421 0.1875 0 7
14.2762 -1.6000 -2.7421 0.1875 0 7
14.2901 -1.4708 -2.7421 0.1875 0 7
14.3028 -1.3414 -2.7421 0.1875 0 7
14.3143 -1.2119 -2.7421 0.1875 0 7
14.3247 -1.0823 -2.7421 0.1875 0 7
14.3339 -0.9527 -2.7421 0.1875 0 7
14.3420 -0.8229 -2.7421 0.1875 0 7
14.3488 -0.6931 -2.7421 0.1875 0 7
14.3545 -0.5632 -2.7421 0.1875 0 7
14.3590 -0.4333 -2.7421 0.1875 0 7
14.3624 -0.3034 -2.7421 0.1875 0 7
14.3645 -0.1734 -2.7421 0.1875 0 7
14.3655 -0.0434 -2.7421 0.1875 0 7
14.3653 0.0866 -2.7421 0.1875 0 7
14.3639 0.2166 -2.7421 0.1875 0 7
14.3614 0.3466 -2.7421 0.1875 0 7
14.3576 0.4765 -2.7421 0.1875 0 7
14.3527 0.6064 -2.7421 0.1875 0 7
14.3467 0.7363 -2.7421 0.1875 0 7
14.3394 0.8661 -2.7421 0.1875 0 7
14.3310 0.9958 -2.7421 0.1875 0 7
14.3214 1.1254 -2.7421 0.1875 0 7
14.3106 1.2550 -2.7421 0.1875 0 7
14.2987 1.3844 -2.7421 0.1875 0 7
14.2856 1.5138 -2.7421 0.1875 0 7
14.2713 1.6430 -2.7421 0.1875 0 7
14.2558 1.7720 -2.7421 0.1875 0 7
14.2392 1.9010 -2.7421 0.1875 0 7
14.2214 2.0297 -2.7421 0.1875 0 7
14.2025 2.1583 -2.7421 0.1875 0 7
14.1824 2.2868 -2.7421 0.1875 0 6
14.1611 2.4150 -2.7421 0.1875 0 6
14.1387 2.5431 -2.7421 0.1875 0 6
14.1151 2.6709 -2.7421 0.1875 0 6
14.0903 2.7985 -2.7421 0.1875 0 6
14.0644 2.9259 -2.7421 0.1875 0 7
14.0374 3.0531 -2.7421 0.1875 0 7
14.0092 3.1800 -2.7421 0.1875 0 7
13.9798 3.3066 -2.7421 0.1875 0 7
13.9493 3.4330 -2.7421 0.1875 0 7
13.9177 3.5591 -2.7421 0.1875 0 7
13.8849 3.6849 -2.7421 0.1875 0 7
13.8510 3.8104 -2.7421 0.1875 0 7
13.8160 3.9356 -2.7421 0.1875 0 6
13.7798 4.0604 -2.7421 0.1875 0 6
13.7425 4.1849 -2.7421 0.1875 0 6
13.7040 4.3091 -2.7421 0.1875 0 6
13.6645 4.4330 -2.7421 0.1875 0 6
13.6238 4.5564 -2.7421 0.1875 0 6
13.5820 4.6795 -2.7421 0.1875 0 7
13.5391 4.8022 -2.7421 0.1875 0 7
13.4951 4.9246 -2.7421 0.1875 0 7
13.4500 5.0465 -2.7421 0.1875 0 7
13.4038 5.1680 -2.7421 0.1875 0 7
13.3565 5.2891 -2.7421 0.1875 0 7
13.3081 5.4097 -2.7421 0.1875 0 7
13.2586 5.5299 -2.7421 0.1875 0 7
13.2080 5.6497 -2.7421 0.1875 0 6
13.1563 5.7690 -2.7421 0.1875 0 6
13.1036 5.8878 -2.7421 0.1875 0 7
13.0497 6.0061 -2.7421 0.1875 0 6
12.9949 6.1239 -2.7421 0.1875 0 6
12.9389 6.2413 -2.7421 0.1875 0 7
12.8819 6.3581 -2.7421 0.1875 0 7
12.8238 6.4744 -2.7421 0.1875 0 7
12.7647 6.5902 -2.7421 0.1875 0 7
12.7046 6.7054 -2.7421 0.1875 0 7
12.6434 6.8201 -2.7421 0.1875 0 7
12.5812 6.9343 -2.7421 0.1875 0 7
12.5179 7.0478 -2.7421 0.1875 0 7
12.4535 7.1608 -2.7421 0.1875 0 7
12.3883 7.2732 -2.7421 0.1875 0 7
12.3220 7.3850 -2.7421 0.1875 0 7
12.2546 7.4962 -2.7421 0.1875 0 7
12.1863 7.6068 -2.7421 0.1875 0 7
12.1170 7.7168 -2.7421 0.1875 0 7
12.0466 7.8261 -2.7421 0.1875 0 7
11.9753 7.9348 -2.7421 0.1875 0 7
11.9030 8.0428 -2.7421 0.1875 0 7
11.8298 8.1502 -2.7421 0.1875 0 7
11.7555 8.2569 -2.7421 0.1875 0 7
11.6803 8.3630 -2.7421 0.1875 0 7
11.6042 8.4683 -2.7421 0.1875 0 7
11.5271 8.5730 -2.7421 0.1875 0 7
11.4490 8.6769 -2.7421 0.1875 0 7
11.3700 8.7802 -2.7421 0.1875 0 7
11.2901 8.8827 -2.7421 0.1875 0 7
11.2093 8.9845 -2.7421 0.1875 0 7
11.1275 9.0856 -2.7421 0.1875 0 7
11.0448 9.1859 -2.7421 0.1875 0 7
10.9612 9.2855 -2.7421 0.1875 0 7
10.8768 9.3843 -2.7421 0.1875 0 7
10.7914 9.4823 -2.7421 0.1875 0 7
10.7052 9.5796 -2.7421 0.1875 0 7
10.6180 9.6761 -2.7421 0.1875 0 7
10.5300 9.7718 -2.7421 0.1875 0 7
10.4412 9.8667 -2.7421 0.1875 0 7
10.3515 9.9607 -2.7421 0.1875 0 7
10.2609 10.0540 -2.7421 0.1875 0 7
10.1695 10.1464 -2.7421 0.1875 0 7
10.0773 10.2381 -2.7421 0.1875 0 7
9.9842 10.3288 -2.7421 0.1875 0 7
9.8904 10.4187 -2.7421 0.1875 0 7
9.7957 10.5078 -2.7421 0.1875 0 7
9.7002 10.5960 -2.7421 0.1875 0 7
9.6039 10.6834 -2.7421 0.1875 0 7
9.5068 10.7698 -2.7421 0.1875 0 7
9.4090 10.8554 -2.7421 0.1875 0 7
9.3104 10.9401 -2.7421 0.1875 0 7
9.2110 11.0239 -2.7421 0.1875 0 7
9.1108 11.1068 -2.7421 0.1875 0 7
9.0100 11.1888 -2.7421 0.1875 0 7
8.9084 11.2699 -2.7421 0.1875 0 7
8.8060 11.3500 -2.7421 0.1875 0 7
8.7029 11.4293 -2.7421 0.1875 0 7
8.5992 11.5075 -2.7421 0.1875 0 7
8.4947 11.5849 -2.7421 0.1875 0 7
8.3895 11.6613 -2.7421 0.1875 0 7
8.2836 11.7367 -2.7421 0.1875 0 7
8.1771 11.8112 -2.7421 0.1875 0 7
8.0699 11.8847 -2.7421 0.1875 0 7
7.9620 11.9572 -2.7421 0.1875 0 7
7.8535 12.0288 -2.7421 0.1875 0 7
7.7443 12.0994 -2.7421 0.1875 0 6
7.6345 12.1690 -2.7421 0.1875 0 7
7.5241 12.2376 -2.7421 0.1875 0 7
7.4130 12.3051 -2.7421 0.1875 0 7
7.3013 12.3717 -2.7421 0.1875 0 7
7.1891 12.4373 -2.7421 0.1875 0 7
7.0763 12.5018 -2.7421 0.1875 0 7
6.9628 12.5653 -2.7421 0.1875 0 7
6.8488 12.6278 -2.7421 0.1875 0 7
6.7343 12.6893 -2.7421 0.1875 0 7
6.6192 12.7497 -2.7421 0.1875 0 7
6.5035 12.8091 -2.7421 0.1875 0 7
6.3874 12.8674 -2.7421 0.1875 0 7
6.2707 12.9247 -2.7421 0.1875 0 7
6.1535 12.9809 -2.7421 0.1875 0 7
6.0357 13.0361 -2.7421 0.1875 0 7
5.9153 13.0853 -2.7410 0.1857 0 8
5.7920 13.1277 -2.7388 0.1858 0 8
5.6684 13.1689 -2.7366 0.1860 0 8
5.2510 12.5098 -2.5897 0.1875 0 8
5.1376 12.5568 -2.5897 0.1875 0 8
5.0237 12.6027 -2.5897 0.1875 0 8
4.9095 12.6477 -2.5897 0.1875 0 8
4.7948 12.6916 -2.5897 0.1875 0 8
4.6798 12.7345 -2.5897 0.1875 0 8
4.5644 12.7763 -2.5897 0.1875 0 8
4.4486 12.8171 -2.5897 0.1875 0 8
4.3324 12.8568 -2.5897 0.1875 0 8
4.2159 12.8955 -2.5897 0.1875 0 8
4.0990 12.9331 -2.5897 0.1875 0 8
3.9818 12.9697 -2.5897 0.1875 0 8
3.8643 13.0052 -2.5897 0.1875 0 8
3.7465 13.0396 -2.5897 0.1875 0 8
3.6283 13.0730 -2.5897 0.1875 0 8
3.5099 13.1053 -2.5897 0.1875 0 8
3.3911 13.1365 -2.5897 0.1875 0 8
3.2721 13.1666 -2.5897 0.1875 0 8
3.1528 13.1957 -2.5897 0.1875 0 8
3.0333 13.2237 -2.5897 0.1875 0 8
2.9135 13.2506 -2.5897 0.1875 0 8
2.7935 13.2764 -2.5897 0.1875 0 8
2.6732 13.3012 -2.5897 0.1875 0 8
2.5528 13.3248 -2.5897 0.1875 0 8
2.4321 13.3474 -2.5897 0.1875 0 8
2.3112 13.3688 -2.5897 0.1875 0 8
2.1901 13.3892 -2.5897 0.1875 0 8
2.0689 13.4085 -2.5897 0.1875 0 8
1.9475 13.4266 -2.5897 0.1875 0 8
1.8259 13.4437 -2.5897 0.1875 0 8
1.7041 13.4597 -2.5897 0.1875 0 8
1.5823 13.4746 -2.5897 0.1875 0 8
1.4603 13.4883 -2.5897 0.1875 0 8
1.3382 13.5010 -2.5897 0.1875 0 8
1.2159 13.5125 -2.5897 0.1875 0 8
1.0936 13.5230 -2.5897 0.1875 0 8
0.9712 13.5323 -2.5897 0.1875 0 8
0.8487 13.5406 -2.5897 0.1875 0 8
0.7261 13.5477 -2.5897 0.1875 0 8
0.6035 13.5537 -2.5897 0.1875 0 8
0.4808 13.5586 -2.5897 0.1875 0 8
0.3581 13.5624 -2.5897 0.1875 0 8
0.2354 13.5651 -2.5897 0.1875 0 8
0.1126 13.5667 -2.5897 0.1875 0 8
-0.0102 13.5671 -2.5897 0.1875 0 8
-0.1329 13.5665 -2.5897 0.1875 0 8
-0.2557 13.5647 -2.5897 0.1875 0 8
-0.3784 13.5619 -2.5897 0.1875 0 8
-0.5011 13.5579 -2.5897 0.1875 0 8
-0.2023 4.3946 -0.8397 0.9160 0 12
-0.2429 4.4082 -0.8427 0.9127 0 12
-0.2838 4.4220 -0.8458 0.9094 0 12
-0.3250 4.4358 -0.8490 0.9060 0 12
-0.3665 4.4497 -0.8522 0.9025 0 12
-0.4084 4.4637 -0.8556 0.8990 0 12
-0.4506 4.4779 -0.8590 0.8954 0 12
-0.4931 4.4921 -0.8626 0.8917 0 12
12.7940 0.0000 -2.7421 0.2096 0 7
12.7935 0.1158 -2.7421 0.2096 0 7
12.7919 0.2315 -2.7421 0.2096 0 7
12.7893 0.3473 -2.7421 0.2096 0 7
12.7857 0.4630 -2.7421 0.2096 0 7
12.7810 0.5787 -2.7421 0.2096 0 7
12.7752 0.6943 -2.7421 0.2096 0 7
12.7684 0.8099 -2.7421 0.2096 0 7
12.7605 0.9254 -2.7421 0.2096 0 7
12.7516 1.0408 -2.7421 0.2096 0 7
12.7417 1.1562 -2.7421 0.2096 0 7
12.7307 1.2714 -2.7421 0.2096 0 7
12.7187 1.3866 -2.7421 0.2096 0 7
12.7056 1.5016 -2.7421 0.2096 0 7
12.6915 1.6165 -2.7421 0.2096 0 7
12.6764 1.7313 -2.7421 0.2096 0 7
12.6602 1.8460 -2.7421 0.2096 0 7
12.6430 1.9604 -2.7421 0.2096 0 7
12.6247 2.0748 -2.7421 0.2096 0 7
12.6054 2.1889 -2.7421 0.2096 0 7
12.5851 2.3029 -2.7421 0.2096 0 7
12.5637 2.4167 -2.7421 0.2096 0 7
12.5413 2.5303 -2.7421 0.2096 0 7
12.5179 2.6437 -2.7421 0.2096 0 7
12.4935 2.7568 -2.7421 0.2096 0 7
12.4680 2.8698 -2.7421 0.2096 0 7
12.4416 2.9825 -2.7421 0.2096 0 6
12.4141 3.0950 -2.7421 0.2096 0 6
12.3855 3.2072 -2.7421 0.2096 0 6
12.3560 3.3191 -2.7421 0.2096 0 6
12.3255 3.4308 -2.7421 0.2096 0 6
12.2939 3.5422 -2.7421 0.2096 0 6
12.2614 3.6533 -2.7421 0.2096 0 6
12.2278 3.7641 -2.7421 0.2096 0 6
12.1932 3.8746 -2.7421 0.2096 0 7
12.1577 3.9848 -2.7421 0.2096 0 7
12.1211 4.0946 -2.7421 0.2096 0 7
12.0836 4.2041 -2.7421 0.2096 0 7
12.0450 4.3133 -2.7421 0.2096 0 7
12.0055 4.4221 -2.7421 0.2096 0 7
11.9650 4.5306 -2.7421 0.2096 0 7
11.9235 4.6387 -2.7421 0.2096 0 6
11.8811 4.7464 -2.7421 0.2096 0 6
11.8376 4.8537 -2.7421 0.2096 0 6
11.7932 4.9606 -2.7421 0.2096 0 6
11.7478 5.0671 -2.7421 0.2096 0 6
11.7015 5.1732 -2.7421 0.2096 0 6
11.6542 5.2789 -2.7421 0.2096 0 6
11.6060 5.3842 -2.7421 0.2096 0 7
11.5568 5.4890 -2.7421 0.2096 0 7
11.5066 5.5933 -2.7421 0.2096 0 7
11.4555 5.6972 -2.7421 0.2096 0 7
11.4035 5.8006 -2.7421 0.2096 0 7
11.3506 5.9036 -2.7421 0.2096 0 7
11.2967 6.0061 -2.7421 0.2096 0 7
11.2419 6.1080 -2.7421 0.2096 0 7
11.1861 6.2095 -2.7421 0.2096 0 7
11.1295 6.3105 -2.7421 0.2096 0 7
11.0719 6.4109 -2.7421 0.2096 0 7
11.0135 6.5109 -2.7421 0.2096 0 7
10.9541 6.6103 -2.7421 0.2096 0 7
10.8938 6.7091 -2.7421 0.2096 0 7
10.8327 6.8074 -2.7421 0.2096 0 7
10.7706 6.9052 -2.7421 0.2096 0 7
10.7077 7.0024 -2.7421 0.2096 0 7
10.6439 7.0990 -2.7421 0.2096 0 7
10.5792 7.1950 -2.7421 0.2096 0 7
10.5137 7.2904 -2.7421 0.2096 0 7
10.4473 7.3853 -2.7421 0.2096 0 7
10.3800 7.4795 -2.7421 0.2096 0 7
10.3119 7.5731 -2.7421 0.2096 0 7
10.2430 7.6661 -2.7421 0.2096 0 7
10.1732 7.7585 -2.7421 0.2096 0 7
10.1025 7.8502 -2.7421 0.2096 0 6
10.0311 7.9413 -2.7421 0.2096 0 6
9.9588 8.0318 -2.7421 0.2096 0 7
9.8857 8.1216 -2.7421 0.2096 0 7
9.8118 8.2107 -2.7421 0.2096 0 7
9.7371 8.2992 -2.7421 0.2096 0 7
9.6616 8.3869 -2.7421 0.2096 0 7
9.5853 8.4740 -2.7421 0.2096 0 7
9.5083 8.5604 -2.7421 0.2096 0 7
9.4304 8.6461 -2.7421 0.2096 0 7
9.3518 8.7311 -2.7421 0.2096 0 7
9.2724 8.8154 -2.7421 0.2096 0 7
9.1922 8.8989 -2.7421 0.2096 0 7
9.1113 8.9817 -2.7421 0.2096 0 7
9.0297 9.0638 -2.7421 0.2096 0 7
8.9473 9.1451 -2.7421 0.2096 0 7
8.8642 9.2257 -2.7421 0.2096 0 7
8.7803 9.3056 -2.7421 0.2096 0 7
8.6958 9.3846 -2.7421 0.2096 0 7
8.6105 9.4629 -2.7421 0.2096 0 7
8.5245 9.5405 -2.7421 0.2096 0 7
8.4378 9.6172 -2.7421 0.2096 0 7
8.3504 9.6932 -2.7421 0.2096 0 7
8.2624 9.7683 -2.7421 0.2096 0 7
8.1737 9.8427 -2.7421 0.2096 0 7
8.0843 9.9163 -2.7421 0.2096 0 7
7.9942 9.9890 -2.7421 0.2096 0 7
7.9035 10.0610 -2.7421 0.2096 0 7
7.8121 10.1321 -2.7421 0.2096 0 7
7.7201 10.2023 -2.7421 0.2096 0 7
7.6275 10.2718 -2.7421 0.2096 0 7
7.5342 10.3404 -2.7421 0.2096 0 7
7.4403 10.4081 -2.7421 0.2096 0 7
7.3458 10.4750 -2.7421 0.2096 0 7
7.2507 10.5411 -2.7421 0.2096 0 6
7.1551 10.6063 -2.7421 0.2096 0 7
7.0588 10.6706 -2.7421 0.2096 0 7
6.9619 10.7340 -2.7421 0.2096 0 7
6.8645 10.7966 -2.7421 0.2096 0 7
6.7665 10.8582 -2.7421 0.2096 0 7
6.6680 10.9190 -2.7421 0.2096 0 7
6.5689 10.9789 -2.7421 0.2096 0 7
6.4693 11.0379 -2.7421 0.2096 0 7
6.3692 11.0960 -2.7421 0.2096 0 7
6.2685 11.1532 -2.7421 0.2096 0 7
6.1673 11.2095 -2.7421 0.2096 0 7
6.0656 11.2648 -2.7421 0.2096 0 7
5.9634 11.3192 -2.7421 0.2096 0 7
5.8608 11.3727 -2.7421 0.2096 0 7
5.7576 11.4253 -2.7421 0.2096 0 7
5.6540 11.4769 -2.7421 0.2096 0 7
5.5499 11.5276 -2.7421 0.2096 0 7
5.4441 11.5746 -2.7414 0.2075 0 8
5.3353 11.6151 -2.7394 0.2076 0 8
5.2262 11.6545 -2.7375 0.2078 0 8
5.1168 11.6929 -2.7355 0.2079 0 8
4.7437 11.1129 -2.5897 0.2096 0 8
4.6429 11.1554 -2.5897 0.2096 0 8
4.5417 11.1969 -2.5897 0.2096 0 8
4.4402 11.2375 -2.5897 0.2096 0 8
4.3384 11.2773 -2.5897 0.2096 0 8
4.2361 11.3161 -2.5897 0.2096 0 8
4.1336 11.3539 -2.5897 0.2096 0 8
4.0306 11.3909 -2.5897 0.2096 0 8
3.9274 11.4269 -2.5897 0.2096 0 8
3.8239 11.4620 -2.5897 0.2096 0 8
3.7200 11.4961 -2.5897 0.2096 0 8
3.6158 11.5293 -2.5897 0.2096 0 8
3.5113 11.5615 -2.5897 0.2096 0 8
3.4066 11.5928 -2.5897 0.2096 0 8
3.3015 11.6232 -2.5897 0.2096 0 8
3.1962 11.6526 -2.5897 0.2096 0 8
3.0906 11.6810 -2.5897 0.2096 0 8
2.9848 11.7085 -2.5897 0.2096 0 8
2.8787 11.7350 -2.5897 0.2096 0 8
2.7724 11.7606 -2.5897 0.2096 0 8
2.6659 11.7852 -2.5897 0.2096 0 8
2.5591 11.8089 -2.5897 0.2096 0 8
2.4521 11.8315 -2.5897 0.2096 0 8
2.3450 11.8532 -2.5897 0.2096 0 8
2.2376 11.8740 -2.5897 0.2096 0 8
2.1301 11.8937 -2.5897 0.2096 0 8
2.0223 11.9125 -2.5897 0.2096 0 8
1.9145 11.9303 -2.5897 0.2096 0 8
1.8064 11.9472 -2.5897 0.2096 0 8
1.6983 11.9630 -2.5897 0.2096 0 8
1.5899 11.9779 -2.5897 0.2096 0 8
1.4815 11.9918 -2.5897 0.2096 0 8
1.3729 12.0047 -2.5897 0.2096 0 8
1.2642 12.0167 -2.5897 0.2096 0 8
1.1554 12.0276 -2.5897 0.2096 0 8
1.0465 12.0376 -2.5897 0.2096 0 8
0.9376 12.0465 -2.5897 0.2096 0 8
0.8285 12.0545 -2.5897 0.2096 0 8
0.7194 12.0615 -2.5897 0.2096 0 8
0.6102 12.0676 -2.5897 0.2096 0 8
0.5010 12.0726 -2.5897 0.2096 0 8
0.3917 12.0766 -2.5897 0.2096 0 8
0.2824 12.0797 -2.5897 0.2096 0 8
0.1731 12.0817 -2.5897 0.2096 0 8
0.0638 12.0828 -2.5897 0.2096 0 8
-0.0456 12.0829 -2.5897 0.2096 0 8
-0.1549 12.0820 -2.5897 0.2096 0 8
-0.2642 12.0801 -2.5897 0.2096 0 8
-0.3735 12.0772 -2.5897 0.2096 0 8
-0.4828 12.0733 -2.5897 0.2096 0 8
-0.2158 4.3991 -0.9440 0.9107 0 12
-0.2565 4.4128 -0.9474 0.9075 0 12
-0.2975 4.4266 -0.9509 0.9041 0 12
-0.3389 4.4404 -0.9544 0.9007 0 12
-0.3805 4.4544 -0.9581 0.8972 0 12
-0.4225 4.4684 -0.9620 0.8937 0 12
-0.4648 4.4826 -0.9659 0.8901 0 12
-0.5074 4.4969 -0.9699 0.8864 0 12
-0.5504 4.5114 -0.9741 0.8826 0 12
-0.5938 4.5259 -0.9783 0.8787 0 12
-0.6376 4.5406 -0.9827 0.8748 0 12
-1.7884 11.9499 -2.5897 0.2096 0 8
-1.8965 11.9332 -2.5897 0.2096 0 8
-2.0044 11.9156 -2.5897 0.2096 0 8
-2.1121 11.8969 -2.5897 0.2096 0 8
-2.2197 11.8773 -2.5897 0.2096 0 8
-2.3271 11.8568 -2.5897 0.2096 0 8
-2.4343 11.8352 -2.5897 0.2096 0 8
-2.5413 11.8127 -2.5897 0.2096 0 8
-2.6481 11.7892 -2.5897 0.2096 0 8
-2.7547 11.7648 -2.5897 0.2096 0 8
-2.8610 11.7394 -2.5897 0.2096 0 8
-2.9671 11.7130 -2.5897 0.2096 0 8
-3.0730 11.6857 -2.5897 0.2096 0 8
-3.1786 11.6574 -2.5897 0.2096 0 8
-3.2840 11.6281 -2.5897 0.2096 0 8
-3.3890 11.5980 -2.5897 0.2096 0 8
-3.4939 11.5668 -2.5897 0.2096 0 8
-3.5984 11.5347 -2.5897 0.2096 0 8
-3.7026 11.5017 -2.5897 0.2096 0 8
-3.8065 11.4677 -2.5897 0.2096 0 8
-3.9102 11.4328 -2.5897 0.2096 0 8
-4.0135 11.3969 -2.5897 0.2096 0 8
-4.1164 11.3602 -2.5897 0.2096 0 8
-4.2191 11.3224 -2.5897 0.2096 0 8
-4.3213 11.2838 -2.5897 0.2096 0 8
-4.4233 11.2442 -2.5897 0.2096 0 8
-4.5248 11.2037 -2.5897 0.2096 0 8
-4.6260 11.1623 -2.5897 0.2096 0 8
-4.7269 11.1200 -2.5897 0.2096 0 8
-4.8273 11.0768 -2.5897 0.2096 0 8
-4.9273 11.0327 -2.5897 0.2096 0 8
-5.0270 10.9876 -2.5897 0.2096 0 8
-5.1262 10.9417 -2.5897 0.2096 0 8
-5.2250 10.8948 -2.5897 0.2096 0 8
-5.3234 10.8471 -2.5897 0.2096 0 8
-5.4213 10.7985 -2.5897 0.2096 0 8
-5.5188 10.7490 -2.5897 0.2096 0 8
-5.6158 10.6986 -2.5897 0.2096 0 8
-5.7124 10.6474 -2.5897 0.2096 0 8
-5.8085 10.5952 -2.5897 0.2096 0 8
-5.9042 10.5422 -2.5897 0.2096 0 8
-5.9993 10.4884 -2.5897 0.2096 0 8
-6.0940 10.4337 -2.5897 0.2096 0 8
-6.1882 10.3781 -2.5897 0.2096 0 8
-6.2818 10.3217 -2.5897 0.2096 0 8
-6.3750 10.2644 -2.5897 0.2096 0 8
-6.4676 10.2063 -2.5897 0.2096 0 8
-6.5597 10.1473 -2.5897 0.2096 0 8
-6.6512 10.0876 -2.5897 0.2096 0 8
-6.7423 10.0270 -2.5897 0.2096 0 8
-6.8327 9.9656 -2.5897 0.2096 0 8
-6.9226 9.9033 -2.5897 0.2096 0 8
-7.0119 9.8403 -2.5897 0.2096 0 8
-7.1007 9.7764 -2.5897 0.2096 0 8
-7.1889 9.7118 -2.5897 0.2096 0 8
-7.2765 9.6463 -2.5897 0.2096 0 8
-7.3635 9.5801 -2.5897 0.2096 0 8
-7.4498 9.5130 -2.5897 0.2096 0 8
-7.5356 9.4452 -2.5897 0.2096 0 8
-7.6208 9.3767 -2.5897 0.2096 0 8
-7.7053 9.3073 -2.5897 0.2096 0 8
