ply
format ascii 1.0
element vertex 1391
property float32 x
property float32 y
property float32 z
property float32 CosAngle
property uint32 ObjIdx
property uint32 ObjTag
end_header
4.3285 -12.0504 -2.7442 0.2096 0 7
4.4373 -12.0107 -2.7442 0.2096 0 7
4.5458 -11.9701 -2.7442 0.2096 0 7
4.6539 -11.9285 -2.7442 0.2096 0 7
4.7617 -11.8858 -2.7442 0.2096 0 7
4.8690 -11.8423 -2.7442 0.2096 0 7
4.9759 -11.7978 -2.7442 0.2096 0 7
5.0824 -11.7523 -2.7442 0.2096 0 7
5.1885 -11.7058 -2.7442 0.2096 0 7
5.2942 -11.6584 -2.7442 0.2096 0 7
5.3995 -11.6100 -2.7442 0.2096 0 7
5.5043 -11.5607 -2.7442 0.2096 0 7
5.6087 -11.5104 -2.7442 0.2096 0 7
5.7126 -11.4592 -2.7442 0.2096 0 7
5.8160 -11.4071 -2.7442 0.2096 0 7
5.9190 -11.3540 -2.7442 0.2096 0 7
6.0214 -11.3000 -2.7442 0.2096 0 7
6.1234 -11.2450 -2.7442 0.2096 0 7
6.2249 -11.1892 -2.7442 0.2096 0 7
6.3259 -11.1324 -2.7442 0.2096 0 7
6.4263 -11.0747 -2.7442 0.2096 0 7
6.5263 -11.0161 -2.7442 0.2096 0 7
6.6257 -10.9566 -2.7442 0.2096 0 7
6.7245 -10.8962 -2.7442 0.2096 0 7
6.8228 -10.8349 -2.7442 0.2096 0 7
6.9205 -10.7728 -2.7442 0.2096 0 7
7.0177 -10.7097 -2.7442 0.2096 0 7
7.1143 -10.6458 -2.7442 0.2096 0 7
7.2103 -10.5810 -2.7442 0.2096 0 7
7.3058 -10.5154 -2.7442 0.2096 0 7
7.4006 -10.4488 -2.7442 0.2096 0 7
7.4948 -10.3814 -2.7442 0.2096 0 7
7.5884 -10.3132 -2.7442 0.2096 0 7
7.6814 -10.2441 -2.7442 0.2096 0 7
7.7738 -10.1742 -2.7442 0.2096 0 7
7.8655 -10.1035 -2.7442 0.2096 0 7
7.9566 -10.0319 -2.7442 0.2096 0 7
8.0470 -9.9595 -2.7442 0.2096 0 7
8.1368 -9.8863 -2.7442 0.2096 0 7
8.2259 -9.8123 -2.7442 0.2096 0 7
8.3144 -9.7375 -2.7442 0.2096 0 7
8.4021 -9.6619 -2.7442 0.2096 0 7
8.4892 -9.5854 -2.7442 0.2096 0 7
8.5755 -9.5083 -2.7442 0.2096 0 7
8.6612 -9.4303 -2.7442 0.2096 0 7
8.7462 -9.3515 -2.7442 0.2096 0 7
8.8304 -9.2720 -2.7442 0.2096 0 7
8.9139 -9.1918 -2.7442 0.2096 0 7
8.9967 -9.1107 -2.7442 0.2096 0 7
9.0788 -9.0290 -2.7442 0.2096 0 7
9.1601 -8.9465 -2.7442 0.2096 0 7
9.2407 -8.8633 -2.7442 0.2096 0 7
9.3205 -8.7793 -2.7442 0.2096 0 7
9.3995 -8.6946 -2.7442 0.2096 0 7
9.4778 -8.6092 -2.7442 0.2096 0 7
9.5553 -8.5231 -2.7442 0.2096 0 7
9.6320 -8.4363 -2.7442 0.2096 0 7
9.7079 -8.3488 -2.7442 0.2096 0 7
9.7830 -8.2607 -2.7442 0.2096 0 7
9.8574 -8.1718 -2.7442 0.2096 0 7
9.9309 -8.0823 -2.7442 0.2096 0 7
10.0036 -7.9921 -2.7442 0.2096 0 7
10.0755 -7.9013 -2.7442 0.2096 0 7
10.1466 -7.8098 -2.7442 0.2096 0 7
10.2168 -7.7178 -2.7442 0.2096 0 7
10.2862 -7.6250 -2.7442 0.2096 0 7
10.3548 -7.5316 -2.7442 0.2096 0 7
10.4225 -7.4376 -2.7442 0.2096 0 7
10.4894 -7.3430 -2.7442 0.2096 0 7
10.5554 -7.2479 -2.7442 0.2096 0 7
10.6205 -7.1521 -2.7442 0.2096 0 7
10.6848 -7.0557 -2.7442 0.2096 0 7
10.7482 -6.9587 -2.7442 0.2096 0 7
10.8107 -6.8612 -2.7442 0.2096 0 7
10.8723 -6.7631 -2.7442 0.2096 0 7
10.9330 -6.6645 -2.7442 0.2096 0 7
10.9929 -6.5653 -2.7442 0.2096 0 7
11.0518 -6.4656 -2.7442 0.2096 0 7
11.1099 -6.3653 -2.7442 0.2096 0 7
11.1670 -6.2646 -2.7442 0.2096 0 7
11.2232 -6.1633 -2.7442 0.2096 0 7
11.2785 -6.0615 -2.7442 0.2096 0 7
11.3329 -5.9592 -2.7442 0.2096 0 7
11.3863 -5.8564 -2.7442 0.2096 0 7
11.4389 -5.7532 -2.7442 0.2096 0 7
11.4904 -5.6495 -2.7442 0.2096 0 7
11.5411 -5.5453 -2.7442 0.2096 0 7
11.5908 -5.4407 -2.7442 0.2096 0 7
11.6395 -5.3356 -2.7442 0.2096 0 7
11.6873 -5.2301 -2.7442 0.2096 0 7
11.7341 -5.1241 -2.7442 0.2096 0 7
11.7800 -5.0177 -2.7442 0.2096 0 7
11.8250 -4.9110 -2.7442 0.2096 0 7
11.8689 -4.8038 -2.7442 0.2096 0 7
11.9119 -4.6962 -2.7442 0.2096 0 7
11.9539 -4.5883 -2.7442 0.2096 0 7
11.9949 -4.4799 -2.7442 0.2096 0 7
12.0349 -4.3712 -2.7442 0.2096 0 7
12.0740 -4.2622 -2.7442 0.2096 0 7
12.1120 -4.1528 -2.7442 0.2096 0 7
12.1491 -4.0430 -2.7442 0.2096 0 7
12.1852 -3.9329 -2.7442 0.2096 0 7
12.2203 -3.8225 -2.7442 0.2096 0 7
12.2543 -3.7118 -2.7442 0.2096 0 7
12.2874 -3.6008 -2.7442 0.2096 0 7
12.3195 -3.4895 -2.7442 0.2096 0 7
12.3506 -3.3779 -2.7442 0.2096 0 7
12.3806 -3.2661 -2.7442 0.2096 0 7
12.4097 -3.1539 -2.7442 0.2096 0 7
12.4377 -3.0415 -2.7442 0.2096 0 7
12.4647 -2.9289 -2.7442 0.2096 0 7
12.4907 -2.8160 -2.7442 0.2096 0 7
12.5156 -2.7029 -2.7442 0.2096 0 7
12.5396 -2.5895 -2.7442 0.2096 0 7
12.5625 -2.4760 -2.7442 0.2096 0 7
12.5844 -2.3622 -2.7442 0.2096 0 7
12.6052 -2.2483 -2.7442 0.2096 0 7
12.6251 -2.1342 -2.7442 0.2096 0 7
12.6439 -2.0198 -2.7442 0.2096 0 7
12.6616 -1.9054 -2.7442 0.2096 0 7
12.6783 -1.7908 -2.7442 0.2096 0 7
12.6940 -1.6760 -2.7442 0.2096 0 7
12.7087 -1.5611 -2.7442 0.2096 0 7
12.7223 -1.4460 -2.7442 0.2096 0 7
12.7348 -1.3309 -2.7442 0.2096 0 7
12.7463 -1.2156 -2.7442 0.2096 0 7
12.7568 -1.1003 -2.7442 0.2096 0 7
12.7662 -0.9848 -2.7442 0.2096 0 7
12.7746 -0.8693 -2.7442 0.2096 0 7
12.7820 -0.7537 -2.7442 0.2096 0 7
12.7883 -0.6380 -2.7442 0.2096 0 7
12.7935 -0.5223 -2.7442 0.2096 0 7
12.7977 -0.4065 -2.7442 0.2096 0 7
12.8009 -0.2907 -2.7442 0.2096 0 7
12.8030 -0.1749 -2.7442 0.2096 0 7
12.8040 -0.0591 -2.7442 0.2096 0 7
12.8040 0.0568 -2.7442 0.2096 0 7
12.8030 0.1726 -2.7442 0.2096 0 7
12.8009 0.2884 -2.7442 0.2096 0 7
12.7978 0.4042 -2.7442 0.2096 0 7
12.7936 0.5200 -2.7442 0.2096 0 7
12.7884 0.6357 -2.7442 0.2096 0 7
12.7821 0.7514 -2.7442 0.2096 0 7
12.7748 0.8670 -2.7442 0.2096 0 7
12.7664 0.9825 -2.7442 0.2096 0 7
12.7570 1.0980 -2.7442 0.2096 0 7
12.7466 1.2133 -2.7442 0.2096 0 7
12.7351 1.3286 -2.7442 0.2096 0 7
12.7225 1.4438 -2.7442 0.2096 0 7
12.7089 1.5588 -2.7442 0.2096 0 7
12.6943 1.6737 -2.7442 0.2096 0 7
12.6786 1.7885 -2.7442 0.2096 0 7
12.6619 1.9031 -2.7442 0.2096 0 7
12.6442 2.0176 -2.7442 0.2096 0 7
12.6254 2.1319 -2.7442 0.2096 0 7
12.6056 2.2460 -2.7442 0.2096 0 7
12.5848 2.3600 -2.7442 0.2096 0 7
12.5629 2.4737 -2.7442 0.2096 0 7
12.5401 2.5873 -2.7442 0.2096 0 7
12.5161 2.7006 -2.7442 0.2096 0 7
12.4912 2.8138 -2.7442 0.2096 0 7
12.4652 2.9266 -2.7442 0.2096 0 7
12.4382 3.0393 -2.7442 0.2096 0 7
12.4102 3.1517 -2.7442 0.2096 0 7
12.3812 3.2638 -2.7442 0.2096 0 7
12.3512 3.3757 -2.7442 0.2096 0 7
12.3201 3.4873 -2.7442 0.2096 0 7
12.2881 3.5986 -2.7442 0.2096 0 7
12.2550 3.7096 -2.7442 0.2096 0 7
12.2209 3.8204 -2.7442 0.2096 0 7
12.1859 3.9308 -2.7442 0.2096 0 7
12.1498 4.0408 -2.7442 0.2096 0 7
12.1128 4.1506 -2.7442 0.2096 0 7
12.0747 4.2600 -2.7442 0.2096 0 7
12.0357 4.3691 -2.7442 0.2096 0 7
11.9957 4.4778 -2.7442 0.2096 0 7
11.9547 4.5861 -2.7442 0.2096 0 7
11.9127 4.6941 -2.7442 0.2096 0 7
11.8697 4.8017 -2.7442 0.2096 0 7
11.8258 4.9089 -2.7442 0.2096 0 7
11.7809 5.0156 -2.7442 0.2096 0 7
11.7351 5.1220 -2.7442 0.2096 0 7
11.6883 5.2280 -2.7442 0.2096 0 7
11.6405 5.3335 -2.7442 0.2096 0 7
11.5917 5.4386 -2.7442 0.2096 0 7
11.5421 5.5432 -2.7442 0.2096 0 7
11.4914 5.6474 -2.7442 0.2096 0 7
11.4399 5.7512 -2.7442 0.2096 0 7
11.3874 5.8544 -2.7442 0.2096 0 7
11.3340 5.9572 -2.7442 0.2096 0 7
11.2796 6.0595 -2.7442 0.2096 0 7
11.2243 6.1613 -2.7442 0.2096 0 7
11.1681 6.2626 -2.7442 0.2096 0 7
11.1110 6.3634 -2.7442 0.2096 0 7
11.0530 6.4636 -2.7442 0.2096 0 7
10.9941 6.5633 -2.7442 0.2096 0 7
10.9342 6.6625 -2.7442 0.2096 0 7
10.8735 6.7612 -2.7442 0.2096 0 7
10.8119 6.8593 -2.7442 0.2096 0 7
10.7494 6.9568 -2.7442 0.2096 0 7
10.6860 7.0538 -2.7442 0.2096 0 7
10.6218 7.1501 -2.7442 0.2096 0 7
10.5567 7.2460 -2.7442 0.2096 0 7
10.4907 7.3412 -2.7442 0.2096 0 7
10.4238 7.4358 -2.7442 0.2096 0 7
10.3561 7.5298 -2.7442 0.2096 0 7
10.2876 7.6232 -2.7442 0.2096 0 7
10.2182 7.7159 -2.7442 0.2096 0 7
10.1480 7.8080 -2.7442 0.2096 0 7
10.0769 7.8995 -2.7442 0.2096 0 7
10.0050 7.9904 -2.7442 0.2096 0 7
9.9323 8.0805 -2.7442 0.2096 0 7
9.8588 8.1701 -2.7442 0.2096 0 7
9.7845 8.2589 -2.7442 0.2096 0 7
9.7094 8.3471 -2.7442 0.2096 0 7
9.6335 8.4346 -2.7442 0.2096 0 7
9.5568 8.5214 -2.7442 0.2096 0 7
11.5306 0.0000 -2.7442 0.2315 0 7
11.5301 0.1043 -2.7442 0.2315 0 7
11.5287 0.2086 -2.7442 0.2315 0 7
11.5263 0.3129 -2.7442 0.2315 0 7
11.5230 0.4172 -2.7442 0.2315 0 7
11.5188 0.5214 -2.7442 0.2315 0 7
11.5136 0.6256 -2.7442 0.2315 0 7
11.5075 0.7297 -2.7442 0.2315 0 7
11.5004 0.8338 -2.7442 0.2315 0 7
11.4924 0.9378 -2.7442 0.2315 0 7
11.4834 1.0417 -2.7442 0.2315 0 7
11.4735 1.1456 -2.7442 0.2315 0 7
11.4627 1.2493 -2.7442 0.2315 0 7
11.4509 1.3530 -2.7442 0.2315 0 7
11.4382 1.4565 -2.7442 0.2315 0 7
11.4246 1.5599 -2.7442 0.2315 0 7
11.4100 1.6632 -2.7442 0.2315 0 7
11.3945 1.7664 -2.7442 0.2315 0 7
11.3780 1.8694 -2.7442 0.2315 0 7
11.3606 1.9722 -2.7442 0.2315 0 7
11.3423 2.0750 -2.7442 0.2315 0 7
11.3231 2.1775 -2.7442 0.2315 0 7
11.3029 2.2798 -2.7442 0.2315 0 7
11.2818 2.3820 -2.7442 0.2315 0 7
11.2598 2.4840 -2.7442 0.2315 0 7
11.2369 2.5857 -2.7442 0.2315 0 7
11.2130 2.6873 -2.7442 0.2315 0 7
11.1883 2.7886 -2.7442 0.2315 0 7
11.1626 2.8897 -2.7442 0.2315 0 7
11.1360 2.9906 -2.7442 0.2315 0 7
11.1085 3.0912 -2.7442 0.2315 0 7
11.0800 3.1916 -2.7442 0.2315 0 7
11.0507 3.2917 -2.7442 0.2315 0 7
11.0205 3.3915 -2.7442 0.2315 0 7
10.9894 3.4911 -2.7442 0.2315 0 7
10.9573 3.5904 -2.7442 0.2315 0 7
10.9244 3.6893 -2.7442 0.2315 0 7
10.8906 3.7880 -2.7442 0.2315 0 7
10.8559 3.8864 -2.7442 0.2315 0 7
10.8203 3.9844 -2.7442 0.2315 0 7
10.7838 4.0822 -2.7442 0.2315 0 7
10.7464 4.1796 -2.7442 0.2315 0 7
10.7082 4.2766 -2.7442 0.2315 0 7
10.6690 4.3733 -2.7442 0.2315 0 7
10.6290 4.4696 -2.7442 0.2315 0 7
10.5881 4.5656 -2.7442 0.2315 0 7
10.5464 4.6612 -2.7442 0.2315 0 7
10.5038 4.7564 -2.7442 0.2315 0 7
10.4603 4.8513 -2.7442 0.2315 0 7
10.4160 4.9457 -2.7442 0.2315 0 7
10.3709 5.0397 -2.7442 0.2315 0 7
10.3248 5.1334 -2.7442 0.2315 0 7
10.2780 5.2266 -2.7442 0.2315 0 7
10.2303 5.3193 -2.7442 0.2315 0 7
10.1817 5.4117 -2.7442 0.2315 0 7
10.1324 5.5035 -2.7442 0.2315 0 7
10.0822 5.5950 -2.7442 0.2315 0 7
10.0311 5.6860 -2.7442 0.2315 0 7
9.9793 5.7765 -2.7442 0.2315 0 7
9.9266 5.8665 -2.7442 0.2315 0 7
9.8731 5.9561 -2.7442 0.2315 0 7
9.8188 6.0452 -2.7442 0.2315 0 7
9.7638 6.1337 -2.7442 0.2315 0 7
9.7079 6.2218 -2.7442 0.2315 0 7
9.6512 6.3094 -2.7442 0.2315 0 7
9.5937 6.3965 -2.7442 0.2315 0 7
9.5354 6.4830 -2.7442 0.2315 0 7
9.4764 6.5690 -2.7442 0.2315 0 7
9.4166 6.6545 -2.7442 0.2315 0 7
9.3560 6.7394 -2.7442 0.2315 0 7
9.2946 6.8237 -2.7442 0.2315 0 7
9.2325 6.9075 -2.7442 0.2315 0 7
9.1697 6.9908 -2.7442 0.2315 0 7
9.1060 7.0735 -2.7442 0.2315 0 7
9.0417 7.1555 -2.7442 0.2315 0 7
8.9766 7.2371 -2.7442 0.2315 0 7
8.9107 7.3180 -2.7442 0.2315 0 7
8.8442 7.3983 -2.7442 0.2315 0 7
8.7769 7.4780 -2.7442 0.2315 0 7
8.7088 7.5571 -2.7442 0.2315 0 7
8.6401 7.6356 -2.7442 0.2315 0 7
8.5707 7.7134 -2.7442 0.2315 0 7
8.5006 7.7906 -2.7442 0.2315 0 7
8.4297 7.8672 -2.7442 0.2315 0 7
8.3582 7.9432 -2.7442 0.2315 0 7
8.2860 8.0184 -2.7442 0.2315 0 7
8.2131 8.0931 -2.7442 0.2315 0 7
8.1396 8.1671 -2.7442 0.2315 0 7
8.0654 8.2404 -2.7442 0.2315 0 7
7.9905 8.3130 -2.7442 0.2315 0 7
7.9149 8.3849 -2.7442 0.2315 0 7
7.8388 8.4562 -2.7442 0.2315 0 7
7.7620 8.5268 -2.7442 0.2315 0 7
7.6845 8.5966 -2.7442 0.2315 0 7
7.6064 8.6658 -2.7442 0.2315 0 7
7.5277 8.7343 -2.7442 0.2315 0 7
7.4484 8.8020 -2.7442 0.2315 0 7
7.3684 8.8690 -2.7442 0.2315 0 7
7.2879 8.9353 -2.7442 0.2315 0 7
7.2068 9.0009 -2.7442 0.2315 0 7
7.1250 9.0657 -2.7442 0.2315 0 7
7.0427 9.1298 -2.7442 0.2315 0 7
6.9599 9.1932 -2.7442 0.2315 0 7
6.8764 9.2557 -2.7442 0.2315 0 7
6.7924 9.3176 -2.7442 0.2315 0 7
6.7078 9.3786 -2.7442 0.2315 0 7
6.6227 9.4390 -2.7442 0.2315 0 7
6.5370 9.4985 -2.7442 0.2315 0 7
6.4508 9.5572 -2.7442 0.2315 0 7
6.3641 9.6152 -2.7442 0.2315 0 7
6.2769 9.6724 -2.7442 0.2315 0 7
6.1891 9.7288 -2.7442 0.2315 0 7
6.1008 9.7844 -2.7442 0.2315 0 7
6.0121 9.8392 -2.7442 0.2315 0 7
5.9228 9.8931 -2.7442 0.2315 0 7
5.8331 9.9463 -2.7442 0.2315 0 7
5.7428 9.9987 -2.7442 0.2315 0 7
5.6521 10.0502 -2.7442 0.2315 0 7
5.5610 10.1009 -2.7442 0.2315 0 7
5.4694 10.1508 -2.7442 0.2315 0 7
5.3773 10.1999 -2.7442 0.2315 0 7
5.2848 10.2481 -2.7442 0.2315 0 7
5.1919 10.2955 -2.7442 0.2315 0 7
5.0985 10.3421 -2.7442 0.2315 0 7
5.0048 10.3878 -2.7442 0.2315 0 7
4.9106 10.4326 -2.7442 0.2315 0 7
4.8160 10.4766 -2.7442 0.2315 0 7
4.7210 10.5198 -2.7442 0.2315 0 7
4.6257 10.5621 -2.7442 0.2315 0 7
4.5299 10.6035 -2.7442 0.2315 0 7
4.4338 10.6440 -2.7442 0.2315 0 7
4.3373 10.6837 -2.7442 0.2315 0 7
4.2405 10.7225 -2.7442 0.2315 0 7
4.1433 10.7604 -2.7442 0.2315 0 7
4.0458 10.7975 -2.7442 0.2315 0 7
3.9480 10.8336 -2.7442 0.2315 0 7
3.8498 10.8689 -2.7442 0.2315 0 7
3.7513 10.9033 -2.7442 0.2315 0 7
3.6525 10.9368 -2.7442 0.2315 0 7
3.5534 10.9694 -2.7442 0.2315 0 7
3.4540 11.0011 -2.7442 0.2315 0 7
3.3544 11.0319 -2.7442 0.2315 0 7
3.2544 11.0618 -2.7442 0.2315 0 7
3.1542 11.0907 -2.7442 0.2315 0 7
3.0538 11.1188 -2.7442 0.2315 0 7
2.9530 11.1460 -2.7442 0.2315 0 7
2.8505 11.1662 -2.7427 0.2359 0 8
2.7477 11.1847 -2.7411 0.2360 0 8
2.6448 11.2023 -2.7394 0.2362 0 8
2.5418 11.2190 -2.7377 0.2363 0 8
2.4203 11.1497 -2.7154 0.3289 0 8
2.2687 10.9271 -2.6561 0.4101 0 8
2.1283 10.7384 -2.6054 0.4181 0 8
2.0205 10.7011 -2.5918 0.2315 0 8
1.9236 10.7189 -2.5918 0.2315 0 8
1.8266 10.7359 -2.5918 0.2315 0 8
1.7294 10.7520 -2.5918 0.2315 0 8
1.6320 10.7672 -2.5918 0.2315 0 8
1.5346 10.7815 -2.5918 0.2315 0 8
1.4370 10.7950 -2.5918 0.2315 0 8
1.3392 10.8075 -2.5918 0.2315 0 8
1.2414 10.8192 -2.5918 0.2315 0 8
1.1435 10.8300 -2.5918 0.2315 0 8
1.0454 10.8399 -2.5918 0.2315 0 8
0.9473 10.8489 -2.5918 0.2315 0 8
0.8492 10.8570 -2.5918 0.2315 0 8
0.7509 10.8643 -2.5918 0.2315 0 8
0.6526 10.8706 -2.5918 0.2315 0 8
0.5542 10.8761 -2.5918 0.2315 0 8
0.4558 10.8807 -2.5918 0.2315 0 8
0.3573 10.8843 -2.5918 0.2315 0 8
0.2588 10.8871 -2.5918 0.2315 0 8
0.1603 10.8890 -2.5918 0.2315 0 8
0.0618 10.8900 -2.5918 0.2315 0 8
-0.0367 10.8901 -2.5918 0.2315 0 8
-0.1352 10.8894 -2.5918 0.2315 0 8
-0.2337 10.8877 -2.5918 0.2315 0 8
-0.3322 10.8851 -2.5918 0.2315 0 8
-0.4307 10.8817 -2.5918 0.2315 0 8
-0.5291 10.8773 -2.5918 0.2315 0 8
-0.6275 10.8721 -2.5918 0.2315 0 8
-0.7258 10.8660 -2.5918 0.2315 0 8
-0.8241 10.8590 -2.5918 0.2315 0 8
-0.9223 10.8511 -2.5918 0.2315 0 8
-1.0205 10.8423 -2.5918 0.2315 0 8
-1.1185 10.8326 -2.5918 0.2315 0 8
-1.2164 10.8221 -2.5918 0.2315 0 8
-1.3143 10.8106 -2.5918 0.2315 0 8
-1.4120 10.7983 -2.5918 0.2315 0 8
-1.5097 10.7851 -2.5918 0.2315 0 8
-1.6072 10.7710 -2.5918 0.2315 0 8
-1.7046 10.7560 -2.5918 0.2315 0 8
-1.8018 10.7401 -2.5918 0.2315 0 8
-1.8989 10.7234 -2.5918 0.2315 0 8
-1.9958 10.7058 -2.5918 0.2315 0 8
-2.0926 10.6873 -2.5918 0.2315 0 8
-2.1892 10.6679 -2.5918 0.2315 0 8
-2.2856 10.6476 -2.5918 0.2315 0 8
-2.3818 10.6265 -2.5918 0.2315 0 8
-2.4779 10.6046 -2.5918 0.2315 0 8
-2.5737 10.5817 -2.5918 0.2315 0 8
-2.6694 10.5580 -2.5918 0.2315 0 8
-2.7647 10.5334 -2.5918 0.2315 0 8
-2.8599 10.5079 -2.5918 0.2315 0 8
-2.9549 10.4817 -2.5918 0.2315 0 8
-3.0496 10.4545 -2.5918 0.2315 0 8
-3.1440 10.4265 -2.5918 0.2315 0 8
-3.2382 10.3976 -2.5918 0.2315 0 8
-3.3322 10.3679 -2.5918 0.2315 0 8
-3.4258 10.3373 -2.5918 0.2315 0 8
-3.5192 10.3059 -2.5918 0.2315 0 8
-3.6123 10.2736 -2.5918 0.2315 0 8
-3.7051 10.2406 -2.5918 0.2315 0 8
-3.7976 10.2066 -2.5918 0.2315 0 8
-3.8898 10.1719 -2.5918 0.2315 0 8
-3.9816 10.1362 -2.5918 0.2315 0 8
-4.0732 10.0998 -2.5918 0.2315 0 8
-4.1644 10.0625 -2.5918 0.2315 0 8
-4.2552 10.0245 -2.5918 0.2315 0 8
-4.3458 9.9855 -2.5918 0.2315 0 8
-4.4359 9.9458 -2.5918 0.2315 0 8
-4.5257 9.9053 -2.5918 0.2315 0 8
-4.6151 9.8639 -2.5918 0.2315 0 8
-4.7042 9.8218 -2.5918 0.2315 0 8
-4.7928 9.7788 -2.5918 0.2315 0 8
-4.8811 9.7350 -2.5918 0.2315 0 8
-4.9690 9.6905 -2.5918 0.2315 0 8
-5.0565 9.6451 -2.5918 0.2315 0 8
-5.1435 9.5990 -2.5918 0.2315 0 8
-5.2301 9.5521 -2.5918 0.2315 0 8
-5.3163 9.5044 -2.5918 0.2315 0 8
-5.4021 9.4559 -2.5918 0.2315 0 8
-5.4874 9.4066 -2.5918 0.2315 0 8
-5.5723 9.3566 -2.5918 0.2315 0 8
-5.6567 9.3058 -2.5918 0.2315 0 8
-5.7407 9.2542 -2.5918 0.2315 0 8
-5.8242 9.2019 -2.5918 0.2315 0 8
-5.9072 9.1489 -2.5918 0.2315 0 8
-5.9897 9.0951 -2.5918 0.2315 0 8
-6.0717 9.0405 -2.5918 0.2315 0 8
-6.1533 8.9852 -2.5918 0.2315 0 8
-6.2343 8.9292 -2.5918 0.2315 0 8
-6.3148 8.8724 -2.5918 0.2315 0 8
-6.3948 8.8149 -2.5918 0.2315 0 8
-6.4743 8.7567 -2.5918 0.2315 0 8
-6.5533 8.6978 -2.5918 0.2315 0 8
-6.6317 8.6381 -2.5918 0.2315 0 8
-6.7096 8.5778 -2.5918 0.2315 0 8
-6.7869 8.5167 -2.5918 0.2315 0 8
-6.8637 8.4550 -2.5918 0.2315 0 8
-6.9399 8.3925 -2.5918 0.2315 0 8
-7.0155 8.3294 -2.5918 0.2315 0 8
-7.0906 8.2656 -2.5918 0.2315 0 8
-7.1651 8.2011 -2.5918 0.2315 0 8
-6.4455 7.2441 -2.3077 0.7079 0 5
-6.4552 7.1242 -2.2880 0.7140 0 5
-6.4662 7.0078 -2.2693 0.6734 0 5
-6.5925 7.0163 -2.2913 0.6669 0 5
-6.7212 7.0249 -2.3139 0.6604 0 5
-7.5995 7.8003 -2.5918 0.2315 0 8
-7.6697 7.7312 -2.5918 0.2315 0 8
-7.7394 7.6615 -2.5918 0.2315 0 8
-7.8084 7.5912 -2.5918 0.2315 0 8
-7.8767 7.5202 -2.5918 0.2315 0 8
-7.9444 7.4487 -2.5918 0.2315 0 8
-8.0115 7.3765 -2.5918 0.2315 0 8
-8.0779 7.3037 -2.5918 0.2315 0 8
-8.1436 7.2303 -2.5918 0.2315 0 8
-8.2087 7.1563 -2.5918 0.2315 0 8
-8.2731 7.0818 -2.5918 0.2315 0 8
-8.3368 7.0067 -2.5918 0.2315 0 8
-8.3999 6.9310 -2.5918 0.2315 0 8
-8.4625 6.8548 -2.5919 0.2695 0 8
-8.6153 6.8505 -2.6196 0.5906 0 8
-8.7830 6.8551 -2.6516 0.5821 0 8
-8.9549 6.8598 -2.6847 0.5749 0 8
-9.1311 6.8646 -2.7188 0.5677 0 8
-9.2555 6.8279 -2.7373 0.2404 0 8
-9.3217 6.7474 -2.7387 0.2403 0 8
-9.3873 6.6663 -2.7402 0.2402 0 8
-9.4523 6.5846 -2.7416 0.2400 0 8
-9.5165 6.5023 -2.7431 0.2399 0 8
-9.5789 6.4186 -2.7442 0.2315 0 7
-9.6366 6.3316 -2.7442 0.2315 0 7
-9.6935 6.2442 -2.7442 0.2315 0 7
-9.7496 6.1562 -2.7442 0.2315 0 7
-9.8049 6.0678 -2.7442 0.2315 0 7
-9.8594 5.9788 -2.7442 0.2315 0 7
-9.9130 5.8894 -2.7442 0.2315 0 7
-9.9659 5.7995 -2.7442 0.2315 0 7
-10.0180 5.7091 -2.7442 0.2315 0 7
-10.0692 5.6182 -2.7442 0.2315 0 7
-10.1196 5.5269 -2.7442 0.2315 0 7
-10.1692 5.4351 -2.7442 0.2315 0 7
-10.2180 5.3429 -2.7442 0.2315 0 7
-10.2659 5.2503 -2.7442 0.2315 0 7
-10.3130 5.1572 -2.7442 0.2315 0 7
-10.3592 5.0637 -2.7442 0.2315 0 7
-10.4046 4.9697 -2.7442 0.2315 0 7
-10.4491 4.8754 -2.7442 0.2315 0 7
-10.4928 4.7807 -2.7442 0.2315 0 7
-10.5356 4.6855 -2.7442 0.2315 0 7
-10.5776 4.5900 -2.7442 0.2315 0 7
-10.6187 4.4942 -2.7442 0.2315 0 6
-10.6589 4.3979 -2.7442 0.2315 0 7
-10.6982 4.3013 -2.7442 0.2315 0 7
-10.7367 4.2043 -2.7442 0.2315 0 7
-10.7743 4.1070 -2.7442 0.2315 0 7
-10.8110 4.0094 -2.7442 0.2315 0 7
-10.8469 3.9114 -2.7442 0.2315 0 7
-10.8818 3.8131 -2.7442 0.2315 0 7
-10.9158 3.7145 -2.7442 0.2315 0 7
-10.9490 3.6156 -2.7442 0.2315 0 7
-10.9813 3.5164 -2.7442 0.2315 0 7
-11.0126 3.4169 -2.7442 0.2315 0 7
-11.0431 3.3172 -2.7442 0.2315 0 7
-11.0727 3.2171 -2.7442 0.2315 0 7
-11.1013 3.1168 -2.7442 0.2315 0 7
-11.1290 3.0162 -2.7442 0.2315 0 7
-11.1559 2.9155 -2.7442 0.2315 0 7
-11.1818 2.8144 -2.7442 0.2315 0 7
-11.2068 2.7131 -2.7442 0.2315 0 7
-11.2309 2.6116 -2.7442 0.2315 0 7
-11.2541 2.5099 -2.7442 0.2315 0 7
-11.2763 2.4080 -2.7442 0.2315 0 7
-11.2976 2.3059 -2.7442 0.2315 0 7
-11.3180 2.2036 -2.7442 0.2315 0 7
-11.3375 2.1011 -2.7442 0.2315 0 7
-11.3560 1.9985 -2.7442 0.2315 0 7
-11.3737 1.8956 -2.7442 0.2315 0 7
-11.3904 1.7927 -2.7442 0.2315 0 7
-11.4061 1.6896 -2.7442 0.2315 0 7
-11.4209 1.5863 -2.7442 0.2315 0 7
-11.4348 1.4829 -2.7442 0.2315 0 7
-11.4478 1.3794 -2.7442 0.2315 0 7
-11.4598 1.2758 -2.7442 0.2315 0 7
-11.4708 1.1720 -2.7442 0.2315 0 7
-11.4810 1.0682 -2.7442 0.2315 0 7
-11.4902 0.9643 -2.7442 0.2315 0 7
-11.4984 0.8603 -2.7442 0.2315 0 7
-11.5057 0.7563 -2.7442 0.2315 0 7
-11.5121 0.6521 -2.7442 0.2315 0 7
-11.5175 0.5480 -2.7442 0.2315 0 7
-11.5220 0.4437 -2.7442 0.2315 0 7
-11.5255 0.3395 -2.7442 0.2315 0 7
-11.5282 0.2352 -2.7442 0.2315 0 7
-11.5298 0.1309 -2.7442 0.2315 0 7
-11.5305 0.0266 -2.7442 0.2315 0 7
-11.5303 -0.0777 -2.7442 0.2315 0 7
-11.5291 -0.1820 -2.7442 0.2315 0 7
-11.5270 -0.2863 -2.7442 0.2315 0 7
-11.5239 -0.3906 -2.7442 0.2315 0 7
-11.5199 -0.4948 -2.7442 0.2315 0 7
-11.5150 -0.5990 -2.7442 0.2315 0 7
-11.5091 -0.7032 -2.7442 0.2315 0 7
-11.5023 -0.8073 -2.7442 0.2315 0 7
-11.4945 -0.9113 -2.7442 0.2315 0 7
-11.4858 -1.0153 -2.7442 0.2315 0 7
-11.4761 -1.1191 -2.7442 0.2315 0 7
-11.4655 -1.2229 -2.7442 0.2315 0 7
-11.4540 -1.3266 -2.7442 0.2315 0 7
-11.4415 -1.4301 -2.7442 0.2315 0 7
-11.4281 -1.5336 -2.7442 0.2315 0 7
-11.4138 -1.6369 -2.7442 0.2315 0 7
-11.3985 -1.7401 -2.7442 0.2315 0 7
-11.3823 -1.8432 -2.7442 0.2315 0 7
-11.3651 -1.9461 -2.7442 0.2315 0 7
-11.3471 -2.0488 -2.7442 0.2315 0 7
-11.3281 -2.1514 -2.7442 0.2315 0 7
-11.3081 -2.2538 -2.7442 0.2315 0 7
-11.2873 -2.3560 -2.7442 0.2315 0 6
-11.2655 -2.4580 -2.7442 0.2315 0 7
-11.2428 -2.5598 -2.7442 0.2315 0 6
-11.2192 -2.6614 -2.7442 0.2315 0 6
-11.1947 -2.7628 -2.7442 0.2315 0 7
-11.1692 -2.8640 -2.7442 0.2315 0 7
-11.1429 -2.9649 -2.7442 0.2315 0 7
-11.1156 -3.0656 -2.7442 0.2315 0 7
-11.0874 -3.1660 -2.7442 0.2315 0 7
-11.0583 -3.2662 -2.7442 0.2315 0 7
-11.0283 -3.3661 -2.7442 0.2315 0 7
-10.9974 -3.4657 -2.7442 0.2315 0 7
-10.9656 -3.5651 -2.7442 0.2315 0 7
-10.9329 -3.6641 -2.7442 0.2315 0 7
-10.8993 -3.7629 -2.7442 0.2315 0 7
-10.8648 -3.8613 -2.7442 0.2315 0 7
-10.8294 -3.9595 -2.7442 0.2315 0 7
-10.7931 -4.0573 -2.7442 0.2315 0 7
-10.7560 -4.1548 -2.7442 0.2315 0 7
-10.7180 -4.2519 -2.7442 0.2315 0 7
-10.6791 -4.3487 -2.7442 0.2315 0 7
-10.6393 -4.4451 -2.7442 0.2315 0 7
-10.5986 -4.5412 -2.7442 0.2315 0 7
-10.5571 -4.6369 -2.7442 0.2315 0 7
-10.5147 -4.7322 -2.7442 0.2315 0 7
-10.4715 -4.8271 -2.7442 0.2315 0 7
-10.4274 -4.9217 -2.7442 0.2315 0 7
-10.3825 -5.0158 -2.7442 0.2315 0 7
-10.3366 -5.1095 -2.7442 0.2315 0 7
-10.2900 -5.2029 -2.7442 0.2315 0 7
-10.2425 -5.2957 -2.7442 0.2315 0 7
-10.1942 -5.3882 -2.7442 0.2315 0 7
-10.1450 -5.4802 -2.7442 0.2315 0 7
-10.0950 -5.5717 -2.7442 0.2315 0 7
-10.0442 -5.6628 -2.7442 0.2315 0 7
-9.9926 -5.7535 -2.7442 0.2315 0 7
-9.9401 -5.8436 -2.7442 0.2315 0 7
-9.8868 -5.9333 -2.7442 0.2315 0 7
-9.8328 -6.0225 -2.7442 0.2315 0 6
-9.7779 -6.1112 -2.7442 0.2315 0 6
-9.7222 -6.1994 -2.7442 0.2315 0 7
-9.6657 -6.2871 -2.7442 0.2315 0 7
-9.6084 -6.3743 -2.7442 0.2315 0 7
-9.5504 -6.4610 -2.7442 0.2315 0 7
-9.4915 -6.5471 -2.7442 0.2315 0 7
-9.4319 -6.6327 -2.7442 0.2315 0 7
-9.3715 -6.7178 -2.7442 0.2315 0 7
-9.3104 -6.8023 -2.7442 0.2315 0 7
-9.2484 -6.8862 -2.7442 0.2315 0 7
-9.1857 -6.9696 -2.7442 0.2315 0 7
-9.1223 -7.0524 -2.7442 0.2315 0 7
-9.0581 -7.1347 -2.7442 0.2315 0 7
-8.9932 -7.2163 -2.7442 0.2315 0 7
-8.9276 -7.2974 -2.7442 0.2315 0 7
-8.8612 -7.3779 -2.7442 0.2315 0 7
-8.7941 -7.4577 -2.7442 0.2315 0 7
-8.7262 -7.5370 -2.7442 0.2315 0 7
-8.6577 -7.6156 -2.7442 0.2315 0 7
-8.5885 -7.6936 -2.7442 0.2315 0 7
-8.5185 -7.7710 -2.7442 0.2315 0 7
-8.4479 -7.8478 -2.7442 0.2315 0 7
-8.3765 -7.9239 -2.7442 0.2315 0 7
-8.3045 -7.9993 -2.7442 0.2315 0 7
-8.2318 -8.0741 -2.7442 0.2315 0 7
-8.1584 -8.1483 -2.7442 0.2315 0 7
-8.0843 -8.2217 -2.7442 0.2315 0 7
-8.0096 -8.2946 -2.7442 0.2315 0 7
-7.9343 -8.3667 -2.7442 0.2315 0 7
-7.8583 -8.4381 -2.7442 0.2315 0 7
-7.7816 -8.5089 -2.7442 0.2315 0 7
-7.7043 -8.5789 -2.7442 0.2315 0 7
-7.6264 -8.6483 -2.7442 0.2315 0 7
-7.5478 -8.7169 -2.7442 0.2315 0 7
-7.4686 -8.7848 -2.7442 0.2315 0 7
-7.3889 -8.8520 -2.7442 0.2315 0 7
-7.3085 -8.9185 -2.7442 0.2315 0 7
-7.2275 -8.9843 -2.7442 0.2315 0 7
-7.1459 -9.0493 -2.7442 0.2315 0 7
-7.0638 -9.1136 -2.7442 0.2315 0 7
-6.9810 -9.1771 -2.7442 0.2315 0 7
-6.8977 -9.2399 -2.7442 0.2315 0 7
-6.8138 -9.3019 -2.7442 0.2315 0 7
-6.7294 -9.3631 -2.7442 0.2315 0 7
-6.6444 -9.4237 -2.7442 0.2315 0 7
-6.5589 -9.4834 -2.7442 0.2315 0 7
-6.4728 -9.5423 -2.7442 0.2315 0 7
-6.3863 -9.6005 -2.7442 0.2315 0 7
-6.2991 -9.6579 -2.7442 0.2315 0 7
-6.2115 -9.7145 -2.7442 0.2315 0 7
-6.1234 -9.7703 -2.7442 0.2315 0 6
-6.0347 -9.8253 -2.7442 0.2315 0 6
-5.9456 -9.8795 -2.7442 0.2315 0 6
-5.8560 -9.9328 -2.7442 0.2315 0 7
-5.7659 -9.9854 -2.7442 0.2315 0 6
-5.6753 -10.0372 -2.7442 0.2315 0 7
-5.5842 -10.0881 -2.7442 0.2315 0 7
-5.4928 -10.1382 -2.7442 0.2315 0 7
-5.4008 -10.1875 -2.7442 0.2315 0 7
-5.3084 -10.2359 -2.7442 0.2315 0 7
-5.2156 -10.2835 -2.7442 0.2315 0 7
-5.1224 -10.3303 -2.7442 0.2315 0 7
-5.0287 -10.3762 -2.7442 0.2315 0 7
-4.9346 -10.4213 -2.7442 0.2315 0 7
-4.8401 -10.4655 -2.7442 0.2315 0 7
-4.7453 -10.5089 -2.7442 0.2315 0 7
-4.6500 -10.5514 -2.7442 0.2315 0 7
-4.5544 -10.5930 -2.7442 0.2315 0 7
-4.4583 -10.6338 -2.7442 0.2315 0 7
-4.3620 -10.6737 -2.7442 0.2315 0 6
-4.2652 -10.7127 -2.7442 0.2315 0 6
-4.1681 -10.7508 -2.7442 0.2315 0 6
-4.0707 -10.7881 -2.7442 0.2315 0 6
-3.9729 -10.8245 -2.7442 0.2315 0 6
-3.8749 -10.8600 -2.7442 0.2315 0 6
-3.7764 -10.8946 -2.7442 0.2315 0 6
-3.6777 -10.9283 -2.7442 0.2315 0 6
-3.5787 -10.9611 -2.7442 0.2315 0 6
-3.4794 -10.9931 -2.7442 0.2315 0 6
-3.3798 -11.0241 -2.7442 0.2315 0 6
-3.2799 -11.0542 -2.7442 0.2315 0 7
-3.1798 -11.0834 -2.7442 0.2315 0 7
-3.0794 -11.1118 -2.7442 0.2315 0 7
-2.9787 -11.1391 -2.7442 0.2315 0 7
-2.8778 -11.1656 -2.7442 0.2315 0 7
-2.7767 -11.1912 -2.7442 0.2315 0 7
-2.6753 -11.2159 -2.7442 0.2315 0 7
-2.5738 -11.2396 -2.7442 0.2315 0 7
-2.4720 -11.2625 -2.7442 0.2315 0 7
-2.3700 -11.2844 -2.7442 0.2315 0 7
-2.2678 -11.3053 -2.7442 0.2315 0 7
-2.1654 -11.3254 -2.7442 0.2315 0 7
-2.0629 -11.3445 -2.7442 0.2315 0 7
-1.9602 -11.3627 -2.7442 0.2315 0 7
-1.8573 -11.3800 -2.7442 0.2315 0 7
-1.7543 -11.3963 -2.7442 0.2315 0 7
-1.6511 -11.4117 -2.7442 0.2315 0 7
-1.5478 -11.4262 -2.7442 0.2315 0 7
-1.4444 -11.4397 -2.7442 0.2315 0 7
-1.3408 -11.4523 -2.7442 0.2315 0 7
-1.2371 -11.4640 -2.7442 0.2315 0 7
-1.1334 -11.4747 -2.7442 0.2315 0 7
-1.0295 -11.4845 -2.7442 0.2315 0 7
-0.9256 -11.4933 -2.7442 0.2315 0 7
-0.8216 -11.5012 -2.7442 0.2315 0 7
-0.7175 -11.5082 -2.7442 0.2315 0 7
-0.6133 -11.5142 -2.7442 0.2315 0 7
-0.5092 -11.5193 -2.7442 0.2315 0 7
-0.4049 -11.5234 -2.7442 0.2315 0 7
-0.3006 -11.5267 -2.7442 0.2315 0 7
-0.1963 -11.5289 -2.7442 0.2315 0 7
-0.0920 -11.5302 -2.7442 0.2315 0 7
0.0123 -11.5305 -2.7442 0.2315 0 7
0.1166 -11.5300 -2.7442 0.2315 0 7
0.2209 -11.5284 -2.7442 0.2315 0 7
0.3252 -11.5260 -2.7442 0.2315 0 7
0.4294 -11.5226 -2.7442 0.2315 0 7
0.5337 -11.5182 -2.7442 0.2315 0 7
0.6379 -11.5129 -2.7442 0.2315 0 7
0.7420 -11.5067 -2.7442 0.2315 0 7
0.8461 -11.4995 -2.7442 0.2315 0 7
0.9500 -11.4914 -2.7442 0.2315 0 7
1.0540 -11.4823 -2.7442 0.2315 0 7
1.1578 -11.4723 -2.7442 0.2315 0 7
1.2615 -11.4613 -2.7442 0.2315 0 7
1.3652 -11.4495 -2.7442 0.2315 0 7
1.4687 -11.4366 -2.7442 0.2315 0 7
1.5721 -11.4229 -2.7442 0.2315 0 7
1.6754 -11.4082 -2.7442 0.2315 0 7
1.7785 -11.3926 -2.7442 0.2315 0 7
1.8815 -11.3760 -2.7442 0.2315 0 7
1.9844 -11.3585 -2.7442 0.2315 0 7
2.0870 -11.3401 -2.7442 0.2315 0 7
2.1895 -11.3208 -2.7442 0.2315 0 7
2.2919 -11.3005 -2.7442 0.2315 0 7
2.3940 -11.2793 -2.7442 0.2315 0 7
2.4959 -11.2572 -2.7442 0.2315 0 7
2.5977 -11.2341 -2.7442 0.2315 0 7
2.6992 -11.2102 -2.7442 0.2315 0 7
2.8005 -11.1853 -2.7442 0.2315 0 7
2.9016 -11.1595 -2.7442 0.2315 0 7
3.0024 -11.1328 -2.7442 0.2315 0 7
3.1030 -11.1052 -2.7442 0.2315 0 7
3.2034 -11.0767 -2.7442 0.2315 0 7
3.3034 -11.0472 -2.7442 0.2315 0 7
3.4032 -11.0169 -2.7442 0.2315 0 7
3.5028 -10.9856 -2.7442 0.2315 0 7
3.6020 -10.9535 -2.7442 0.2315 0 7
3.7010 -10.9205 -2.7442 0.2315 0 7
3.7996 -10.8866 -2.7442 0.2315 0 7
3.8979 -10.8517 -2.7442 0.2315 0 7
3.9960 -10.8160 -2.7442 0.2315 0 7
4.0936 -10.7794 -2.7442 0.2315 0 7
4.1910 -10.7419 -2.7442 0.2315 0 7
4.2880 -10.7036 -2.7442 0.2315 0 7
4.3847 -10.6643 -2.7442 0.2315 0 7
4.4810 -10.6242 -2.7442 0.2315 0 7
4.5769 -10.5833 -2.7442 0.2315 0 7
4.6725 -10.5414 -2.7442 0.2315 0 7
4.7676 -10.4987 -2.7442 0.2315 0 7
4.8624 -10.4552 -2.7442 0.2315 0 7
4.9568 -10.4108 -2.7442 0.2315 0 7
5.0508 -10.3655 -2.7442 0.2315 0 7
5.1443 -10.3194 -2.7442 0.2315 0 7
5.2375 -10.2724 -2.7442 0.2315 0 7
5.3302 -10.2246 -2.7442 0.2315 0 7
5.4225 -10.1760 -2.7442 0.2315 0 7
5.5143 -10.1265 -2.7442 0.2315 0 7
5.6057 -10.0762 -2.7442 0.2315 0 7
5.6967 -10.0251 -2.7442 0.2315 0 7
5.7871 -9.9731 -2.7442 0.2315 0 7
5.8771 -9.9204 -2.7442 0.2315 0 7
5.9666 -9.8668 -2.7442 0.2315 0 7
6.0556 -9.8124 -2.7442 0.2315 0 7
6.1442 -9.7572 -2.7442 0.2315 0 7
6.2322 -9.7012 -2.7442 0.2315 0 7
6.3197 -9.6445 -2.7442 0.2315 0 7
6.4067 -9.5869 -2.7442 0.2315 0 7
6.4931 -9.5285 -2.7442 0.2315 0 7
6.5791 -9.4694 -2.7442 0.2315 0 7
6.6645 -9.4095 -2.7442 0.2315 0 7
6.7493 -9.3488 -2.7442 0.2315 0 7
6.8336 -9.2874 -2.7442 0.2315 0 7
6.9174 -9.2252 -2.7442 0.2315 0 7
7.0005 -9.1622 -2.7442 0.2315 0 7
7.0832 -9.0985 -2.7442 0.2315 0 7
7.1652 -9.0340 -2.7442 0.2315 0 7
7.2466 -8.9689 -2.7442 0.2315 0 7
7.3275 -8.9029 -2.7442 0.2315 0 7
7.4077 -8.8363 -2.7442 0.2315 0 7
7.4873 -8.7689 -2.7442 0.2315 0 7
7.5664 -8.7008 -2.7442 0.2315 0 7
7.6448 -8.6320 -2.7442 0.2315 0 7
7.7225 -8.5625 -2.7442 0.2315 0 7
7.7997 -8.4923 -2.7442 0.2315 0 7
7.8762 -8.4214 -2.7442 0.2315 0 7
7.9521 -8.3498 -2.7442 0.2315 0 7
8.0273 -8.2775 -2.7442 0.2315 0 7
8.1018 -8.2045 -2.7442 0.2315 0 7
8.1757 -8.1309 -2.7442 0.2315 0 7
8.2489 -8.0566 -2.7442 0.2315 0 7
8.3215 -7.9816 -2.7442 0.2315 0 7
8.3934 -7.9060 -2.7442 0.2315 0 7
8.4645 -7.8298 -2.7442 0.2315 0 7
8.5350 -7.7529 -2.7442 0.2315 0 7
8.6048 -7.6753 -2.7442 0.2315 0 7
8.6739 -7.5972 -2.7442 0.2315 0 7
8.7423 -7.5184 -2.7442 0.2315 0 7
8.8099 -7.4390 -2.7442 0.2315 0 7
8.8769 -7.3590 -2.7442 0.2315 0 7
8.9431 -7.2784 -2.7442 0.2315 0 7
9.0086 -7.1972 -2.7442 0.2315 0 7
9.0733 -7.1154 -2.7442 0.2315 0 7
9.1373 -7.0330 -2.7442 0.2315 0 7
9.2006 -6.9501 -2.7442 0.2315 0 7
9.2631 -6.8665 -2.7442 0.2315 0 7
9.3248 -6.7825 -2.7442 0.2315 0 7
9.3858 -6.6978 -2.7442 0.2315 0 7
9.4460 -6.6126 -2.7442 0.2315 0 7
9.5054 -6.5269 -2.7442 0.2315 0 7
9.5641 -6.4406 -2.7442 0.2315 0 7
9.6220 -6.3539 -2.7442 0.2315 0 7
9.6791 -6.2666 -2.7442 0.2315 0 7
9.7354 -6.1787 -2.7442 0.2315 0 7
9.7909 -6.0904 -2.7442 0.2315 0 7
9.8456 -6.0016 -2.7442 0.2315 0 7
9.8995 -5.9123 -2.7442 0.2315 0 7
9.9525 -5.8225 -2.7442 0.2315 0 7
10.0048 -5.7322 -2.7442 0.2315 0 7
10.0562 -5.6414 -2.7442 0.2315 0 7
10.1069 -5.5502 -2.7442 0.2315 0 7
10.1567 -5.4586 -2.7442 0.2315 0 7
10.2056 -5.3665 -2.7442 0.2315 0 7
10.2538 -5.2739 -2.7442 0.2315 0 7
10.3011 -5.1809 -2.7442 0.2315 0 7
10.3475 -5.0875 -2.7442 0.2315 0 7
10.3931 -4.9937 -2.7442 0.2315 0 7
10.4379 -4.8995 -2.7442 0.2315 0 7
10.4818 -4.8049 -2.7442 0.2315 0 7
10.5248 -4.7098 -2.7442 0.2315 0 7
10.5670 -4.6144 -2.7442 0.2315 0 7
10.6083 -4.5186 -2.7442 0.2315 0 7
10.6487 -4.4225 -2.7442 0.2315 0 7
10.6883 -4.3260 -2.7442 0.2315 0 7
10.7270 -4.2291 -2.7442 0.2315 0 7
10.7648 -4.1319 -2.7442 0.2315 0 7
10.8018 -4.0343 -2.7442 0.2315 0 7
10.8378 -3.9364 -2.7442 0.2315 0 7
10.8730 -3.8382 -2.7442 0.2315 0 7
10.9073 -3.7397 -2.7442 0.2315 0 7
10.9407 -3.6409 -2.7442 0.2315 0 7
10.9731 -3.5418 -2.7442 0.2315 0 7
11.0047 -3.4423 -2.7442 0.2315 0 7
11.0354 -3.3426 -2.7442 0.2315 0 7
11.0652 -3.2427 -2.7442 0.2315 0 7
11.0941 -3.1424 -2.7442 0.2315 0 7
11.1221 -3.0419 -2.7442 0.2315 0 7
11.1491 -2.9412 -2.7442 0.2315 0 7
11.1753 -2.8402 -2.7442 0.2315 0 7
11.2005 -2.7390 -2.7442 0.2315 0 7
11.2249 -2.6375 -2.7442 0.2315 0 7
11.2482 -2.5359 -2.7442 0.2315 0 7
11.2707 -2.4340 -2.7442 0.2315 0 7
11.2923 -2.3320 -2.7442 0.2315 0 7
11.3129 -2.2297 -2.7442 0.2315 0 7
11.3326 -2.1273 -2.7442 0.2315 0 7
11.3514 -2.0246 -2.7442 0.2315 0 7
11.3693 -1.9219 -2.7442 0.2315 0 7
11.3862 -1.8189 -2.7442 0.2315 0 7
11.4022 -1.7159 -2.7442 0.2315 0 7
11.4172 -1.6126 -2.7442 0.2315 0 7
11.4313 -1.5093 -2.7442 0.2315 0 7
11.4445 -1.4058 -2.7442 0.2315 0 7
11.4568 -1.3022 -2.7442 0.2315 0 7
11.4681 -1.1985 -2.7442 0.2315 0 7
11.4785 -1.0947 -2.7442 0.2315 0 7
11.4879 -0.9908 -2.7442 0.2315 0 7
11.4964 -0.8868 -2.7442 0.2315 0 7
11.5039 -0.7828 -2.7442 0.2315 0 7
11.5106 -0.6787 -2.7442 0.2315 0 7
11.5162 -0.5745 -2.7442 0.2315 0 7
11.5210 -0.4703 -2.7442 0.2315 0 7
11.5247 -0.3661 -2.7442 0.2315 0 7
11.5276 -0.2618 -2.7442 0.2315 0 7
11.5295 -0.1575 -2.7442 0.2315 0 7
11.5304 -0.0532 -2.7442 0.2315 0 7
11.5304 0.0511 -2.7442 0.2315 0 7
11.5295 0.1554 -2.7442 0.2315 0 7
11.5276 0.2597 -2.7442 0.2315 0 7
11.5248 0.3640 -2.7442 0.2315 0 7
11.5210 0.4683 -2.7442 0.2315 0 7
11.5163 0.5725 -2.7442 0.2315 0 7
11.5107 0.6766 -2.7442 0.2315 0 7
11.5041 0.7807 -2.7442 0.2315 0 7
11.4966 0.8848 -2.7442 0.2315 0 7
11.4881 0.9888 -2.7442 0.2315 0 7
11.4787 1.0927 -2.7442 0.2315 0 7
11.4683 1.1964 -2.7442 0.2315 0 7
11.4570 1.3001 -2.7442 0.2315 0 7
11.4448 1.4037 -2.7442 0.2315 0 7
11.4316 1.5072 -2.7442 0.2315 0 7
11.4175 1.6106 -2.7442 0.2315 0 7
11.4025 1.7138 -2.7442 0.2315 0 7
11.3865 1.8169 -2.7442 0.2315 0 7
11.3696 1.9198 -2.7442 0.2315 0 7
11.3518 2.0226 -2.7442 0.2315 0 7
11.3330 2.1252 -2.7442 0.2315 0 7
11.3133 2.2277 -2.7442 0.2315 0 7
11.2927 2.3299 -2.7442 0.2315 0 7
11.2712 2.4320 -2.7442 0.2315 0 7
11.2487 2.5339 -2.7442 0.2315 0 7
11.2253 2.6355 -2.7442 0.2315 0 7
11.2010 2.7370 -2.7442 0.2315 0 7
11.1758 2.8382 -2.7442 0.2315 0 7
11.1497 2.9392 -2.7442 0.2315 0 7
11.1226 3.0399 -2.7442 0.2315 0 7
11.0947 3.1404 -2.7442 0.2315 0 7
11.0658 3.2407 -2.7442 0.2315 0 7
11.0360 3.3406 -2.7442 0.2315 0 7
11.0054 3.4404 -2.7442 0.2315 0 7
10.9738 3.5398 -2.7442 0.2315 0 7
10.9413 3.6389 -2.7442 0.2315 0 7
10.9079 3.7378 -2.7442 0.2315 0 7
10.8737 3.8363 -2.7442 0.2315 0 7
10.8385 3.9345 -2.7442 0.2315 0 7
10.8025 4.0324 -2.7442 0.2315 0 7
10.7656 4.1299 -2.7442 0.2315 0 7
10.7278 4.2272 -2.7442 0.2315 0 7
10.6891 4.3241 -2.7442 0.2315 0 7
10.6495 4.4206 -2.7442 0.2315 0 7
10.6091 4.5167 -2.7442 0.2315 0 7
10.5678 4.6125 -2.7442 0.2315 0 7
10.5256 4.7079 -2.7442 0.2315 0 7
10.4826 4.8030 -2.7442 0.2315 0 7
10.4387 4.8976 -2.7442 0.2315 0 7
10.3940 4.9919 -2.7442 0.2315 0 7
10.3484 5.0857 -2.7442 0.2315 0 7
10.3020 5.1791 -2.7442 0.2315 0 7
10.2547 5.2721 -2.7442 0.2315 0 7
10.2066 5.3646 -2.7442 0.2315 0 7
10.1576 5.4568 -2.7442 0.2315 0 7
10.1079 5.5484 -2.7442 0.2315 0 7
10.0572 5.6396 -2.7442 0.2315 0 7
10.0058 5.7304 -2.7442 0.2315 0 7
9.9536 5.8207 -2.7442 0.2315 0 7
9.9005 5.9105 -2.7442 0.2315 0 7
9.8466 5.9998 -2.7442 0.2315 0 7
9.7919 6.0887 -2.7442 0.2315 0 7
9.7365 6.1770 -2.7442 0.2315 0 7
9.6802 6.2648 -2.7442 0.2315 0 7
9.6231 6.3521 -2.7442 0.2315 0 7
9.5652 6.4390 -2.7442 0.2315 0 7
9.5066 6.5252 -2.7442 0.2315 0 7
9.4472 6.6109 -2.7442 0.2315 0 7
9.3870 6.6961 -2.7442 0.2315 0 7
9.3260 6.7808 -2.7442 0.2315 0 7
9.2643 6.8649 -2.7442 0.2315 0 7
9.2018 6.9484 -2.7442 0.2315 0 7
9.1386 7.0314 -2.7442 0.2315 0 7
9.0746 7.1138 -2.7442 0.2315 0 7
9.0099 7.1956 -2.7442 0.2315 0 7
8.9444 7.2768 -2.7442 0.2315 0 7
8.8782 7.3574 -2.7442 0.2315 0 7
8.8113 7.4374 -2.7442 0.2315 0 7
8.7436 7.5168 -2.7442 0.2315 0 7
8.6753 7.5956 -2.7442 0.2315 0 7
8.6062 7.6738 -2.7442 0.2315 0 7
10.4772 0.0000 -2.7442 0.2534 0 7
10.4767 0.0948 -2.7442 0.2534 0 7
10.4755 0.1896 -2.7442 0.2534 0 7
10.4733 0.2843 -2.7442 0.2534 0 7
10.4703 0.3791 -2.7442 0.2534 0 7
10.4665 0.4738 -2.7442 0.2534 0 7
10.4617 0.5684 -2.7442 0.2534 0 7
10.4562 0.6631 -2.7442 0.2534 0 7
10.4497 0.7576 -2.7442 0.2534 0 7
10.4425 0.8521 -2.7442 0.2534 0 7
10.4343 0.9466 -2.7442 0.2534 0 7
10.4253 1.0409 -2.7442 0.2534 0 7
10.4155 1.1352 -2.7442 0.2534 0 7
10.4048 1.2294 -2.7442 0.2534 0 7
10.3933 1.3235 -2.7442 0.2534 0 7
10.3808 1.4174 -2.7442 0.2534 0 7
10.3676 1.5113 -2.7442 0.2534 0 7
10.3535 1.6050 -2.7442 0.2534 0 7
10.3386 1.6986 -2.7442 0.2534 0 7
10.3228 1.7921 -2.7442 0.2534 0 7
10.3061 1.8854 -2.7442 0.2534 0 7
10.2887 1.9786 -2.7442 0.2534 0 7
10.2703 2.0716 -2.7442 0.2534 0 7
10.2512 2.1644 -2.7442 0.2534 0 7
10.2312 2.2570 -2.7442 0.2534 0 7
10.2103 2.3495 -2.7442 0.2534 0 7
10.1887 2.4418 -2.7442 0.2534 0 7
10.1662 2.5338 -2.7442 0.2534 0 7
10.1428 2.6257 -2.7442 0.2534 0 7
10.1186 2.7174 -2.7442 0.2534 0 7
10.0937 2.8088 -2.7442 0.2534 0 7
10.0678 2.9000 -2.7442 0.2534 0 7
10.0412 2.9910 -2.7442 0.2534 0 7
10.0137 3.0817 -2.7442 0.2534 0 7
9.9854 3.1721 -2.7442 0.2534 0 7
9.9563 3.2623 -2.7442 0.2534 0 7
9.9264 3.3523 -2.7442 0.2534 0 7
9.8957 3.4420 -2.7442 0.2534 0 7
9.8641 3.5313 -2.7442 0.2534 0 7
9.8318 3.6204 -2.7442 0.2534 0 7
9.7986 3.7092 -2.7442 0.2534 0 7
9.7646 3.7977 -2.7442 0.2534 0 7
9.7299 3.8859 -2.7442 0.2534 0 7
9.6943 3.9738 -2.7442 0.2534 0 7
9.6580 4.0613 -2.7442 0.2534 0 7
9.6209 4.1485 -2.7442 0.2534 0 7
9.5829 4.2354 -2.7442 0.2534 0 7
9.5442 4.3219 -2.7442 0.2534 0 7
9.5047 4.4081 -2.7442 0.2534 0 7
9.4645 4.4939 -2.7442 0.2534 0 7
9.4234 4.5793 -2.7442 0.2534 0 7
9.3816 4.6644 -2.7442 0.2534 0 7
9.3390 4.7491 -2.7442 0.2534 0 7
9.2957 4.8334 -2.7442 0.2534 0 7
9.2516 4.9173 -2.7442 0.2534 0 7
9.2067 5.0008 -2.7442 0.2534 0 7
9.1611 5.0839 -2.7442 0.2534 0 7
9.1147 5.1665 -2.7442 0.2534 0 7
9.0676 5.2488 -2.7442 0.2534 0 7
9.0198 5.3306 -2.7442 0.2534 0 7
8.9712 5.4120 -2.7442 0.2534 0 7
8.9218 5.4929 -2.7442 0.2534 0 7
8.8718 5.5734 -2.7442 0.2534 0 7
8.8210 5.6534 -2.7442 0.2534 0 7
8.7695 5.7330 -2.7442 0.2534 0 7
8.7173 5.8121 -2.7442 0.2534 0 7
8.6643 5.8907 -2.7442 0.2534 0 7
8.6107 5.9689 -2.7442 0.2534 0 7
8.5563 6.0465 -2.7442 0.2534 0 7
8.5013 6.1237 -2.7442 0.2534 0 7
8.4455 6.2004 -2.7442 0.2534 0 7
8.3891 6.2765 -2.7442 0.2534 0 7
8.3320 6.3521 -2.7442 0.2534 0 7
8.2741 6.4273 -2.7442 0.2534 0 7
8.2157 6.5019 -2.7442 0.2534 0 7
8.1565 6.5759 -2.7442 0.2534 0 7
8.0967 6.6494 -2.7442 0.2534 0 7
8.0362 6.7224 -2.7442 0.2534 0 7
7.9751 6.7948 -2.7442 0.2534 0 7
7.9133 6.8667 -2.7442 0.2534 0 7
7.8508 6.9380 -2.7442 0.2534 0 7
7.7877 7.0087 -2.7442 0.2534 0 7
7.7240 7.0789 -2.7442 0.2534 0 7
7.6596 7.1485 -2.7442 0.2534 0 7
7.5946 7.2175 -2.7442 0.2534 0 7
7.5291 7.2859 -2.7442 0.2534 0 7
7.4628 7.3537 -2.7442 0.2534 0 7
7.3960 7.4210 -2.7442 0.2534 0 7
7.3286 7.4876 -2.7442 0.2534 0 7
7.2605 7.5535 -2.7442 0.2534 0 7
7.1919 7.6189 -2.7442 0.2534 0 7
7.1227 7.6837 -2.7442 0.2534 0 7
7.0529 7.7478 -2.7442 0.2534 0 7
6.9825 7.8113 -2.7442 0.2534 0 7
6.9115 7.8741 -2.7442 0.2534 0 7
6.8400 7.9363 -2.7442 0.2534 0 7
6.7679 7.9979 -2.7442 0.2534 0 7
6.6953 8.0588 -2.7442 0.2534 0 7
6.6221 8.1190 -2.7442 0.2534 0 7
6.5484 8.1786 -2.7442 0.2534 0 7
6.4741 8.2375 -2.7442 0.2534 0 7
6.3993 8.2958 -2.7442 0.2534 0 7
6.3240 8.3533 -2.7442 0.2534 0 7
6.2482 8.4102 -2.7442 0.2534 0 7
6.1719 8.4664 -2.7442 0.2534 0 7
6.0950 8.5218 -2.7442 0.2534 0 7
6.0177 8.5766 -2.7442 0.2534 0 7
5.9398 8.6307 -2.7442 0.2534 0 7
5.8615 8.6841 -2.7442 0.2534 0 7
5.7827 8.7368 -2.7442 0.2534 0 7
5.7034 8.7887 -2.7442 0.2534 0 7
5.6237 8.8400 -2.7442 0.2534 0 7
5.5435 8.8905 -2.7442 0.2534 0 7
5.4628 8.9403 -2.7442 0.2534 0 7
5.3817 8.9893 -2.7442 0.2534 0 7
5.3002 9.0377 -2.7442 0.2534 0 7
5.2182 9.0852 -2.7442 0.2534 0 7
5.1358 9.1321 -2.7442 0.2534 0 7
5.0529 9.1782 -2.7442 0.2534 0 7
4.9697 9.2235 -2.7442 0.2534 0 7
4.8861 9.2681 -2.7442 0.2534 0 7
4.8020 9.3119 -2.7442 0.2534 0 7
4.7176 9.3550 -2.7442 0.2534 0 7
4.6328 9.3973 -2.7442 0.2534 0 7
4.5475 9.4388 -2.7442 0.2534 0 7
4.4620 9.4796 -2.7442 0.2534 0 7
4.3760 9.5195 -2.7442 0.2534 0 7
4.2897 9.5587 -2.7442 0.2534 0 7
4.2031 9.5971 -2.7442 0.2534 0 7
4.1161 9.6348 -2.7442 0.2534 0 7
4.0287 9.6716 -2.7442 0.2534 0 7
3.9411 9.7077 -2.7442 0.2534 0 7
3.8531 9.7429 -2.7442 0.2534 0 7
3.7648 9.7774 -2.7442 0.2534 0 7
3.6762 9.8111 -2.7442 0.2534 0 7
3.5873 9.8439 -2.7442 0.2534 0 7
3.4981 9.8760 -2.7442 0.2534 0 7
3.4086 9.9072 -2.7442 0.2534 0 7
3.3188 9.9376 -2.7442 0.2534 0 7
3.2288 9.9672 -2.7442 0.2534 0 7
3.1385 9.9960 -2.7442 0.2534 0 7
3.0479 10.0240 -2.7442 0.2534 0 7
2.9571 10.0512 -2.7442 0.2534 0 7
2.8661 10.0775 -2.7442 0.2534 0 7
2.7748 10.1031 -2.7442 0.2534 0 7
2.6833 10.1278 -2.7442 0.2534 0 7
2.5915 10.1516 -2.7442 0.2534 0 7
2.4996 10.1746 -2.7442 0.2534 0 7
2.4074 10.1968 -2.7442 0.2534 0 7
2.3147 10.2166 -2.7438 0.2606 0 8
2.2211 10.2319 -2.7424 0.2607 0 8
2.1273 10.2464 -2.7410 0.2609 0 8
2.0335 10.2600 -2.7396 0.2610 0 8
1.9396 10.2729 -2.7382 0.2611 0 8
1.8457 10.2848 -2.7369 0.2613 0 8
1.7320 10.1801 -2.7047 0.5123 0 8
1.6162 10.0486 -2.6658 0.5198 0 8
1.5047 9.9270 -2.6298 0.5914 0 8
1.3982 9.8239 -2.5991 0.5764 0 8
1.3057 9.8088 -2.5918 0.2534 0 8
1.2169 9.8202 -2.5918 0.2534 0 8
1.1280 9.8308 -2.5918 0.2534 0 8
1.0390 9.8406 -2.5918 0.2534 0 8
0.9499 9.8496 -2.5918 0.2534 0 8
0.8608 9.8578 -2.5918 0.2534 0 8
0.7716 9.8652 -2.5918 0.2534 0 8
0.6823 9.8718 -2.5918 0.2534 0 8
0.5930 9.8775 -2.5918 0.2534 0 8
0.5036 9.8825 -2.5918 0.2534 0 8
0.4141 9.8867 -2.5918 0.2534 0 8
0.3247 9.8900 -2.5918 0.2534 0 8
0.2352 9.8925 -2.5918 0.2534 0 8
0.1457 9.8942 -2.5918 0.2534 0 8
0.0562 9.8952 -2.5918 0.2534 0 8
-0.0333 9.8953 -2.5918 0.2534 0 8
-0.1229 9.8946 -2.5918 0.2534 0 8
-0.2124 9.8930 -2.5918 0.2534 0 8
-0.3019 9.8907 -2.5918 0.2534 0 8
-0.3913 9.8875 -2.5918 0.2534 0 8
-0.4808 9.8836 -2.5918 0.2534 0 8
-0.5702 9.8789 -2.5918 0.2534 0 8
-0.6595 9.8733 -2.5918 0.2534 0 8
-0.7488 9.8669 -2.5918 0.2534 0 8
-0.8381 9.8598 -2.5918 0.2534 0 8
-0.9272 9.8518 -2.5918 0.2534 0 8
-1.0163 9.8430 -2.5918 0.2534 0 8
-1.1053 9.8334 -2.5918 0.2534 0 8
-1.1942 9.8230 -2.5918 0.2534 0 8
-1.2830 9.8118 -2.5918 0.2534 0 8
-1.3717 9.7998 -2.5918 0.2534 0 8
-1.4603 9.7870 -2.5918 0.2534 0 8
-1.5488 9.7734 -2.5918 0.2534 0 8
-1.6372 9.7589 -2.5918 0.2534 0 8
-1.7254 9.7437 -2.5918 0.2534 0 8
-1.8135 9.7277 -2.5918 0.2534 0 8
-1.9014 9.7109 -2.5918 0.2534 0 8
-1.9892 9.6933 -2.5918 0.2534 0 8
-2.0768 9.6749 -2.5918 0.2534 0 8
-2.1642 9.6557 -2.5918 0.2534 0 8
-2.2515 9.6358 -2.5918 0.2534 0 8
-2.3386 9.6150 -2.5918 0.2534 0 8
-2.4255 9.5935 -2.5918 0.2534 0 8
-2.5122 9.5711 -2.5918 0.2534 0 8
-2.5987 9.5480 -2.5918 0.2534 0 8
-2.6849 9.5241 -2.5918 0.2534 0 8
-2.7710 9.4994 -2.5918 0.2534 0 8
-2.8568 9.4740 -2.5918 0.2534 0 8
-2.9424 9.4477 -2.5918 0.2534 0 8
-3.0277 9.4207 -2.5918 0.2534 0 8
-3.1129 9.3930 -2.5918 0.2534 0 8
-3.1977 9.3644 -2.5918 0.2534 0 8
-3.2823 9.3351 -2.5918 0.2534 0 8
-3.3666 9.3050 -2.5918 0.2534 0 8
-3.4507 9.2742 -2.5918 0.2534 0 8
-3.5344 9.2426 -2.5918 0.2534 0 8
-3.6179 9.2102 -2.5918 0.2534 0 8
-3.7011 9.1771 -2.5918 0.2534 0 8
-3.7839 9.1433 -2.5918 0.2534 0 8
-3.8665 9.1087 -2.5918 0.2534 0 8
-3.9487 9.0733 -2.5918 0.2534 0 8
-4.0307 9.0372 -2.5918 0.2534 0 8
-4.1123 9.0004 -2.5918 0.2534 0 8
-4.1935 8.9628 -2.5918 0.2534 0 8
-4.2744 8.9245 -2.5918 0.2534 0 8
-4.3550 8.8855 -2.5918 0.2534 0 8
-4.4352 8.8457 -2.5918 0.2534 0 8
-4.5150 8.8052 -2.5918 0.2534 0 8
-4.5945 8.7640 -2.5918 0.2534 0 8
-4.6736 8.7221 -2.5918 0.2534 0 8
-4.7523 8.6794 -2.5918 0.2534 0 8
-4.8307 8.6361 -2.5918 0.2534 0 8
-4.9086 8.5921 -2.5918 0.2534 0 8
-4.9861 8.5473 -2.5918 0.2534 0 8
-5.0632 8.5018 -2.5918 0.2534 0 8
-5.1399 8.4557 -2.5918 0.2534 0 8
-5.2162 8.4088 -2.5918 0.2534 0 8
-5.2921 8.3613 -2.5918 0.2534 0 8
-5.3675 8.3131 -2.5918 0.2534 0 8
-5.4425 8.2642 -2.5918 0.2534 0 8
-5.5170 8.2146 -2.5918 0.2534 0 8
-5.5911 8.1643 -2.5918 0.2534 0 8
-5.6648 8.1134 -2.5918 0.2534 0 8
-5.7379 8.0618 -2.5918 0.2534 0 8
-5.8106 8.0096 -2.5918 0.2534 0 8
-5.8829 7.9567 -2.5918 0.2534 0 8
-5.9546 7.9032 -2.5918 0.2534 0 8
-6.0259 7.8490 -2.5918 0.2534 0 8
-6.0966 7.7941 -2.5918 0.2534 0 8
-6.1669 7.7387 -2.5918 0.2534 0 8
-6.2366 7.6825 -2.5918 0.2534 0 8
-6.3059 7.6258 -2.5918 0.2534 0 8
-6.3746 7.5685 -2.5918 0.2534 0 8
-6.4428 7.5105 -2.5918 0.2534 0 8
-6.5105 7.4519 -2.5918 0.2534 0 8
-6.4365 7.2340 -2.5362 0.7049 0 5
-6.4463 7.1144 -2.5146 0.7110 0 5
-6.4567 6.9976 -2.4939 0.6706 0 5
-6.5827 7.0059 -2.5179 0.6641 0 5
-6.7112 7.0144 -2.5427 0.6577 0 5
-6.9052 7.0877 -2.5918 0.2534 0 8
-6.9691 7.0249 -2.5918 0.2534 0 8
-7.0323 6.9616 -2.5918 0.2534 0 8
-7.0950 6.8977 -2.5918 0.2534 0 8
-7.1571 6.8332 -2.5918 0.2534 0 8
-7.2232 6.7724 -2.5935 0.6148 0 8
-7.3541 6.7712 -2.6183 0.6451 0 8
-7.4930 6.7748 -2.6459 0.6384 0 8
-7.6348 6.7785 -2.6742 0.6317 0 8
-7.7796 6.7822 -2.7033 0.6249 0 8
-7.9276 6.7860 -2.7333 0.6180 0 8
-8.0016 6.7249 -2.7377 0.2631 0 8
-8.0658 6.6553 -2.7389 0.2630 0 8
-8.1294 6.5851 -2.7402 0.2628 0 8
-8.1924 6.5143 -2.7415 0.2627 0 8
-8.2549 6.4429 -2.7427 0.2626 0 8
-8.3167 6.3709 -2.7440 0.2625 0 8
-8.3746 6.2958 -2.7442 0.2534 0 7
-8.4312 6.2198 -2.7442 0.2534 0 7
-8.4871 6.1433 -2.7442 0.2534 0 7
-8.5424 6.0662 -2.7442 0.2534 0 7
-8.5969 5.9887 -2.7442 0.2534 0 7
-8.6507 5.9107 -2.7442 0.2534 0 7
-8.7038 5.8322 -2.7442 0.2534 0 7
-8.7562 5.7532 -2.7442 0.2534 0 7
-8.8079 5.6738 -2.7442 0.2534 0 7
-8.8589 5.5938 -2.7442 0.2534 0 7
-8.9091 5.5135 -2.7442 0.2534 0 7
-8.9587 5.4326 -2.7442 0.2534 0 7
-9.0074 5.3514 -2.7442 0.2534 0 7
-9.0555 5.2697 -2.7442 0.2534 0 7
-9.1028 5.1875 -2.7442 0.2534 0 7
-9.1493 5.1050 -2.7442 0.2534 0 7
-9.1951 5.0220 -2.7442 0.2534 0 7
-9.2402 4.9386 -2.7442 0.2534 0 7
-9.2845 4.8548 -2.7442 0.2534 0 7
-9.3280 4.7706 -2.7442 0.2534 0 7
-9.3708 4.6860 -2.7442 0.2534 0 7
-9.4128 4.6011 -2.7442 0.2534 0 7
-9.4541 4.5157 -2.7442 0.2534 0 7
-9.4945 4.4300 -2.7442 0.2534 0 6
-9.5342 4.3439 -2.7442 0.2534 0 7
-9.5731 4.2575 -2.7442 0.2534 0 7
-9.6112 4.1707 -2.7442 0.2534 0 7
-9.6486 4.0836 -2.7442 0.2534 0 7
-9.6851 3.9961 -2.7442 0.2534 0 7
-9.7209 3.9083 -2.7442 0.2534 0 7
-9.7559 3.8203 -2.7442 0.2534 0 7
-9.7900 3.7318 -2.7442 0.2534 0 7
-9.8234 3.6431 -2.7442 0.2534 0 7
-9.8559 3.5541 -2.7442 0.2534 0 7
-9.8877 3.4648 -2.7442 0.2534 0 7
-9.9186 3.3752 -2.7442 0.2534 0 7
-9.9488 3.2853 -2.7442 0.2534 0 7
-9.9781 3.1952 -2.7442 0.2534 0 7
-10.0066 3.1048 -2.7442 0.2534 0 7
-10.0343 3.0141 -2.7442 0.2534 0 7
-10.0611 2.9232 -2.7442 0.2534 0 7
-10.0871 2.8321 -2.7442 0.2534 0 7
-10.1124 2.7407 -2.7442 0.2534 0 7
-10.1367 2.6491 -2.7442 0.2534 0 7
-10.1603 2.5573 -2.7442 0.2534 0 7
-10.1830 2.4653 -2.7442 0.2534 0 7
-10.2049 2.3730 -2.7442 0.2534 0 7
-10.2259 2.2806 -2.7442 0.2534 0 7
-10.2461 2.1880 -2.7442 0.2534 0 7
-10.2655 2.0952 -2.7442 0.2534 0 7
-10.2841 2.0023 -2.7442 0.2534 0 7
-10.3018 1.9092 -2.7442 0.2534 0 7
-10.3186 1.8159 -2.7442 0.2534 0 7
-10.3346 1.7225 -2.7442 0.2534 0 7
-10.3498 1.6289 -2.7442 0.2534 0 7
-10.3641 1.5352 -2.7442 0.2534 0 7
-10.3775 1.4414 -2.7442 0.2534 0 7
-10.3902 1.3474 -2.7442 0.2534 0 7
-10.4019 1.2534 -2.7442 0.2534 0 7
-10.4129 1.1592 -2.7442 0.2534 0 7
-10.4229 1.0650 -2.7442 0.2534 0 7
-10.4321 0.9706 -2.7442 0.2534 0 6
-10.4405 0.8762 -2.7442 0.2534 0 7
-10.4480 0.7817 -2.7442 0.2534 0 7
-10.4546 0.6872 -2.7442 0.2534 0 7
-10.4604 0.5926 -2.7442 0.2534 0 7
-10.4653 0.4979 -2.7442 0.2534 0 7
-10.4694 0.4032 -2.7442 0.2534 0 7
-10.4726 0.3085 -2.7442 0.2534 0 7
-10.4750 0.2137 -2.7442 0.2534 0 7
-10.4765 0.1189 -2.7442 0.2534 0 7
-10.4771 0.0242 -2.7442 0.2534 0 7
-10.4769 -0.0706 -2.7442 0.2534 0 7
-10.4759 -0.1654 -2.7442 0.2534 0 7
-10.4739 -0.2602 -2.7442 0.2534 0 7
-10.4712 -0.3549 -2.7442 0.2534 0 7
-10.4675 -0.4496 -2.7442 0.2534 0 7
-10.4630 -0.5443 -2.7442 0.2534 0 7
-10.4577 -0.6389 -2.7442 0.2534 0 7
-10.4515 -0.7335 -2.7442 0.2534 0 7
-10.4444 -0.8280 -2.7442 0.2534 0 7
-10.4365 -0.9225 -2.7442 0.2534 0 7
-10.4277 -1.0169 -2.7442 0.2534 0 7
-10.4181 -1.1112 -2.7442 0.2534 0 7
-10.4076 -1.2054 -2.7442 0.2534 0 7
-10.3963 -1.2995 -2.7442 0.2534 0 7
-10.3841 -1.3935 -2.7442 0.2534 0 7
-10.3711 -1.4874 -2.7442 0.2534 0 7
-10.3572 -1.5811 -2.7442 0.2534 0 7
-10.3425 -1.6748 -2.7442 0.2534 0 7
-10.3269 -1.7683 -2.7442 0.2534 0 7
-10.3105 -1.8616 -2.7442 0.2534 0 7
-10.2932 -1.9548 -2.7442 0.2534 0 7
-10.2751 -2.0479 -2.7442 0.2534 0 7
-10.2561 -2.1407 -2.7442 0.2534 0 7
-10.2364 -2.2334 -2.7442 0.2534 0 7
-10.2157 -2.3260 -2.7442 0.2534 0 7
-10.1943 -2.4183 -2.7442 0.2534 0 6
-10.1720 -2.5104 -2.7442 0.2534 0 7
-10.1488 -2.6023 -2.7442 0.2534 0 7
-10.1249 -2.6940 -2.7442 0.2534 0 6
-10.1001 -2.7855 -2.7442 0.2534 0 7
-10.0745 -2.8768 -2.7442 0.2534 0 7
-10.0480 -2.9678 -2.7442 0.2534 0 7
-10.0208 -3.0586 -2.7442 0.2534 0 7
-9.9927 -3.1491 -2.7442 0.2534 0 7
-9.9638 -3.2394 -2.7442 0.2534 0 7
-9.9341 -3.3294 -2.7442 0.2534 0 7
-9.9036 -3.4191 -2.7442 0.2534 0 7
-9.8722 -3.5086 -2.7442 0.2534 0 7
-9.8401 -3.5977 -2.7442 0.2534 0 7
-9.8071 -3.6866 -2.7442 0.2534 0 7
-9.7734 -3.7752 -2.7442 0.2534 0 7
-9.7388 -3.8635 -2.7442 0.2534 0 7
-9.7035 -3.9514 -2.7442 0.2534 0 7
-9.6673 -4.0390 -2.7442 0.2534 0 7
-9.6304 -4.1263 -2.7442 0.2534 0 7
-9.5927 -4.2133 -2.7442 0.2534 0 7
-9.5542 -4.2999 -2.7442 0.2534 0 7
-9.5149 -4.3862 -2.7442 0.2534 0 7
-9.4748 -4.4721 -2.7442 0.2534 0 7
-9.4339 -4.5576 -2.7442 0.2534 0 7
