ply
format ascii 1.0
element vertex 1413
property float32 x
property float32 y
property float32 z
property float32 CosAngle
property uint32 ObjIdx
property uint32 ObjTag
end_header
3.9108 -3.6105 -2.0569 0.8565 0 9
3.9625 -3.5924 -2.0669 0.8524 0 9
4.0147 -3.5741 -2.0772 0.8482 0 9
4.0675 -3.5556 -2.0878 0.8439 0 9
4.1745 -3.5831 -2.1260 0.3914 0 9
4.2940 -3.6187 -2.1701 0.1547 0 9
4.8608 -4.0218 -2.4381 0.3605 0 9
4.8970 -3.9776 -2.4381 0.3605 0 9
5.1815 -4.1314 -2.5610 0.3605 0 14
5.2186 -4.0844 -2.5610 0.3605 0 14
3.4209 -2.6278 -1.6670 0.3605 0 19
3.4445 -2.5967 -1.6670 0.3605 0 19
3.4679 -2.5654 -1.6670 0.3605 0 19
3.4909 -2.5340 -1.6670 0.3605 0 19
3.5137 -2.5023 -1.6670 0.3605 0 19
3.5362 -2.4704 -1.6670 0.3605 0 19
4.5946 -3.1482 -2.1524 0.5890 0 9
4.6750 -3.1416 -2.1767 0.5825 0 9
4.7573 -3.1347 -2.2017 0.5759 0 9
5.5664 -3.5961 -2.5610 0.3605 0 14
5.5987 -3.5456 -2.5610 0.3605 0 14
5.6305 -3.4948 -2.5610 0.3605 0 14
5.6619 -3.4437 -2.5610 0.3605 0 14
5.6928 -3.3923 -2.5610 0.3605 0 14
5.7233 -3.3407 -2.5610 0.3605 0 14
5.7533 -3.2887 -2.5610 0.3605 0 14
5.7828 -3.2366 -2.5610 0.3605 0 14
4.5235 -2.4782 -1.9932 0.4971 0 19
4.5668 -2.4485 -2.0025 0.6383 0 19
5.8685 -3.0784 -2.5610 0.3605 0 14
5.8962 -3.0252 -2.5610 0.3605 0 14
4.8245 -2.4204 -2.0859 0.5672 0 19
4.8034 -2.3557 -2.0675 0.9258 0 19
4.8193 -2.3096 -2.0653 0.9267 0 19
4.8510 -2.2711 -2.0700 0.7249 0 19
4.9076 -2.2436 -2.0853 0.7195 0 19
6.0516 -2.7008 -2.5610 0.3605 0 14
6.0758 -2.6459 -2.5610 0.3605 0 14
6.0995 -2.5908 -2.5610 0.3605 0 14
6.1227 -2.5355 -2.5610 0.3605 0 14
6.1454 -2.4800 -2.5610 0.3605 0 14
6.1676 -2.4243 -2.5610 0.3605 0 14
6.1893 -2.3684 -2.5610 0.3605 0 14
6.2104 -2.3123 -2.5610 0.3605 0 14
6.2311 -2.2560 -2.5610 0.3605 0 14
6.2513 -2.1995 -2.5610 0.3605 0 14
6.2709 -2.1429 -2.5610 0.3605 0 14
6.2900 -2.0860 -2.5610 0.3605 0 14
6.3087 -2.0291 -2.5610 0.3605 0 14
6.3268 -1.9719 -2.5610 0.3605 0 14
6.3444 -1.9146 -2.5610 0.3605 0 14
6.3614 -1.8571 -2.5610 0.3605 0 8
6.3779 -1.7994 -2.5610 0.3605 0 8
6.3940 -1.7417 -2.5610 0.3605 0 8
6.5058 -1.7090 -2.5995 0.3534 0 8
6.6700 -1.6878 -2.6589 0.3455 0 8
6.8029 -1.6561 -2.7058 0.3605 0 7
6.8176 -1.5945 -2.7058 0.3605 0 7
6.8318 -1.5327 -2.7058 0.3605 0 7
6.8454 -1.4708 -2.7058 0.3605 0 7
6.8584 -1.4088 -2.7058 0.3605 0 7
6.8708 -1.3467 -2.7058 0.3605 0 7
6.8827 -1.2845 -2.7058 0.3605 0 7
6.8941 -1.2222 -2.7058 0.3605 0 7
6.9049 -1.1597 -2.7058 0.3605 0 6
6.9151 -1.0972 -2.7058 0.3605 0 6
6.9247 -1.0346 -2.7058 0.3605 0 6
6.9338 -0.9719 -2.7058 0.3605 0 6
6.9423 -0.9091 -2.7058 0.3605 0 6
6.9502 -0.8462 -2.7058 0.3605 0 6
6.9576 -0.7833 -2.7058 0.3605 0 6
6.9644 -0.7203 -2.7058 0.3605 0 6
6.9707 -0.6573 -2.7058 0.3605 0 7
6.9763 -0.5942 -2.7058 0.3605 0 7
6.9814 -0.5310 -2.7058 0.3605 0 7
6.9859 -0.4678 -2.7058 0.3605 0 7
6.9899 -0.4046 -2.7058 0.3605 0 7
6.9933 -0.3414 -2.7058 0.3605 0 7
6.9961 -0.2781 -2.7058 0.3605 0 7
6.9983 -0.2148 -2.7058 0.3605 0 7
6.9999 -0.1514 -2.7058 0.3605 0 7
7.0010 -0.0881 -2.7058 0.3605 0 6
7.0015 -0.0247 -2.7058 0.3605 0 6
7.0015 0.0386 -2.7058 0.3605 0 6
7.0008 0.1020 -2.7058 0.3605 0 6
6.9996 0.1653 -2.7058 0.3605 0 6
6.9978 0.2287 -2.7058 0.3605 0 6
6.9955 0.2920 -2.7058 0.3605 0 6
6.9926 0.3552 -2.7058 0.3605 0 6
6.9891 0.4185 -2.7058 0.3605 0 7
6.9850 0.4817 -2.7058 0.3605 0 7
6.9803 0.5449 -2.7058 0.3605 0 7
6.9751 0.6081 -2.7058 0.3605 0 7
6.9693 0.6711 -2.7058 0.3605 0 7
6.9630 0.7342 -2.7058 0.3605 0 7
6.9561 0.7971 -2.7058 0.3605 0 7
6.9486 0.8601 -2.7058 0.3605 0 7
6.9405 0.9229 -2.7058 0.3605 0 6
6.9318 0.9857 -2.7058 0.3605 0 6
6.9226 1.0483 -2.7058 0.3605 0 6
6.9129 1.1109 -2.7058 0.3605 0 6
6.9025 1.1734 -2.7058 0.3605 0 6
6.8917 1.2358 -2.7058 0.3605 0 6
6.8802 1.2982 -2.7058 0.3605 0 6
6.8682 1.3604 -2.7058 0.3605 0 6
6.8556 1.4224 -2.7058 0.3605 0 7
6.8424 1.4844 -2.7058 0.3605 0 7
6.8287 1.5463 -2.7058 0.3605 0 7
6.8144 1.6080 -2.7058 0.3605 0 7
6.7996 1.6696 -2.7058 0.3605 0 7
6.7842 1.7310 -2.7058 0.3605 0 7
6.7683 1.7924 -2.7058 0.3605 0 7
6.7518 1.8535 -2.7058 0.3605 0 7
6.7347 1.9146 -2.7058 0.3605 0 6
6.7171 1.9754 -2.7058 0.3605 0 6
6.6990 2.0361 -2.7058 0.3605 0 6
6.6803 2.0966 -2.7058 0.3605 0 6
6.6610 2.1570 -2.7058 0.3605 0 6
6.6412 2.2172 -2.7058 0.3605 0 6
6.6209 2.2772 -2.7058 0.3605 0 6
6.6000 2.3370 -2.7058 0.3605 0 6
6.5786 2.3966 -2.7058 0.3605 0 6
6.5567 2.4561 -2.7058 0.3605 0 7
6.5342 2.5153 -2.7058 0.3605 0 7
6.5112 2.5743 -2.7058 0.3605 0 7
6.4876 2.6331 -2.7058 0.3605 0 7
6.4635 2.6917 -2.7058 0.3605 0 7
6.4389 2.7501 -2.7058 0.3605 0 7
6.4137 2.8082 -2.7058 0.3605 0 7
6.3881 2.8661 -2.7058 0.3605 0 7
6.3619 2.9238 -2.7058 0.3605 0 6
6.3352 2.9813 -2.7058 0.3605 0 6
6.3079 3.0385 -2.7058 0.3605 0 6
6.2802 3.0954 -2.7058 0.3605 0 6
6.2519 3.1521 -2.7058 0.3605 0 6
6.2231 3.2086 -2.7058 0.3605 0 6
6.1938 3.2647 -2.7058 0.3605 0 6
6.1640 3.3207 -2.7058 0.3605 0 6
6.1337 3.3763 -2.7058 0.3605 0 6
6.1029 3.4317 -2.7058 0.3605 0 7
6.0716 3.4867 -2.7058 0.3605 0 7
6.0399 3.5415 -2.7058 0.3605 0 7
6.0075 3.5960 -2.7058 0.3605 0 7
5.9748 3.6502 -2.7058 0.3605 0 7
5.9415 3.7042 -2.7058 0.3605 0 7
5.9077 3.7578 -2.7058 0.3605 0 7
5.8735 3.8111 -2.7058 0.3605 0 7
5.8388 3.8641 -2.7058 0.3605 0 7
5.8036 3.9167 -2.7058 0.3605 0 6
5.7679 3.9691 -2.7058 0.3605 0 6
5.7317 4.0211 -2.7058 0.3605 0 6
5.6951 4.0728 -2.7058 0.3605 0 6
5.6580 4.1242 -2.7058 0.3605 0 6
5.6205 4.1752 -2.7058 0.3605 0 6
5.5825 4.2259 -2.7058 0.3605 0 6
5.5440 4.2762 -2.7058 0.3605 0 6
5.5051 4.3262 -2.7058 0.3605 0 6
5.4657 4.3759 -2.7058 0.3605 0 6
5.4259 4.4251 -2.7058 0.3605 0 7
5.3856 4.4740 -2.7058 0.3605 0 6
5.3449 4.5226 -2.7058 0.3605 0 6
5.3038 4.5708 -2.7058 0.3605 0 6
5.2622 4.6186 -2.7058 0.3605 0 6
5.2202 4.6660 -2.7058 0.3605 0 6
5.1778 4.7130 -2.7058 0.3605 0 6
5.1349 4.7597 -2.7058 0.3605 0 6
5.0916 4.8060 -2.7058 0.3605 0 6
5.0479 4.8518 -2.7058 0.3605 0 6
5.0038 4.8973 -2.7058 0.3605 0 7
4.9593 4.9424 -2.7058 0.3605 0 7
4.9144 4.9871 -2.7058 0.3605 0 7
4.8691 5.0313 -2.7058 0.3605 0 7
4.8233 5.0752 -2.7058 0.3605 0 7
4.7772 5.1186 -2.7058 0.3605 0 7
4.7307 5.1616 -2.7058 0.3605 0 7
4.6838 5.2042 -2.7058 0.3605 0 7
4.6365 5.2464 -2.7058 0.3605 0 7
4.5889 5.2881 -2.7058 0.3605 0 7
4.5408 5.3294 -2.7058 0.3605 0 7
4.4924 5.3703 -2.7058 0.3605 0 7
4.4437 5.4107 -2.7058 0.3605 0 7
4.3945 5.4507 -2.7058 0.3605 0 7
4.3450 5.4903 -2.7058 0.3605 0 7
4.2952 5.5294 -2.7058 0.3605 0 7
4.2450 5.5680 -2.7058 0.3605 0 7
4.1944 5.6062 -2.7058 0.3605 0 7
4.1435 5.6439 -2.7058 0.3605 0 7
4.0923 5.6812 -2.7058 0.3605 0 7
4.0407 5.7180 -2.7058 0.3605 0 7
3.9888 5.7543 -2.7058 0.3605 0 7
3.9366 5.7901 -2.7058 0.3605 0 7
3.8840 5.8255 -2.7058 0.3605 0 7
3.8311 5.8604 -2.7058 0.3605 0 7
3.7779 5.8949 -2.7058 0.3605 0 7
3.7245 5.9288 -2.7058 0.3605 0 7
3.6707 5.9623 -2.7058 0.3605 0 7
3.6166 5.9952 -2.7058 0.3605 0 7
3.5622 6.0277 -2.7058 0.3605 0 7
3.5075 6.0597 -2.7058 0.3605 0 7
3.4525 6.0912 -2.7058 0.3605 0 7
3.3972 6.1222 -2.7058 0.3605 0 7
3.3417 6.1527 -2.7058 0.3605 0 7
3.2859 6.1826 -2.7058 0.3605 0 7
3.2298 6.2121 -2.7058 0.3605 0 7
3.1735 6.2411 -2.7058 0.3605 0 7
3.1169 6.2696 -2.7058 0.3605 0 7
3.0600 6.2975 -2.7058 0.3605 0 7
3.0029 6.3249 -2.7058 0.3605 0 7
2.9456 6.3518 -2.7058 0.3605 0 7
2.8880 6.3782 -2.7058 0.3605 0 7
2.8301 6.4041 -2.7058 0.3605 0 7
2.7721 6.4294 -2.7058 0.3605 0 7
2.7138 6.4543 -2.7058 0.3605 0 7
2.6553 6.4786 -2.7058 0.3605 0 7
2.5965 6.5023 -2.7058 0.3605 0 7
2.5376 6.5256 -2.7058 0.3605 0 7
2.4785 6.5482 -2.7058 0.3605 0 7
6.5584 0.0000 -2.7058 0.3814 0 6
6.5581 0.0593 -2.7058 0.3814 0 6
6.5573 0.1187 -2.7058 0.3814 0 6
6.5560 0.1780 -2.7058 0.3814 0 6
6.5541 0.2373 -2.7058 0.3814 0 6
6.5517 0.2966 -2.7058 0.3814 0 6
6.5487 0.3559 -2.7058 0.3814 0 7
6.5452 0.4151 -2.7058 0.3814 0 7
6.5412 0.4743 -2.7058 0.3814 0 7
6.5366 0.5335 -2.7058 0.3814 0 7
6.5316 0.5926 -2.7058 0.3814 0 7
6.5259 0.6517 -2.7058 0.3814 0 7
6.5198 0.7107 -2.7058 0.3814 0 7
6.5131 0.7697 -2.7058 0.3814 0 7
6.5058 0.8286 -2.7058 0.3814 0 7
6.4981 0.8874 -2.7058 0.3814 0 6
6.4898 0.9462 -2.7058 0.3814 0 6
6.4809 1.0049 -2.7058 0.3814 0 6
6.4716 1.0635 -2.7058 0.3814 0 6
6.4617 1.1220 -2.7058 0.3814 0 6
6.4513 1.1804 -2.7058 0.3814 0 6
6.4403 1.2387 -2.7058 0.3814 0 6
6.4289 1.2970 -2.7058 0.3814 0 6
6.4169 1.3551 -2.7058 0.3814 0 6
6.4043 1.4131 -2.7058 0.3814 0 7
6.3913 1.4710 -2.7058 0.3814 0 7
6.3777 1.5287 -2.7058 0.3814 0 7
6.3636 1.5864 -2.7058 0.3814 0 7
6.3490 1.6439 -2.7058 0.3814 0 7
6.3339 1.7013 -2.7058 0.3814 0 7
6.3182 1.7585 -2.7058 0.3814 0 7
6.3021 1.8156 -2.7058 0.3814 0 7
6.2854 1.8726 -2.7058 0.3814 0 7
6.2682 1.9294 -2.7058 0.3814 0 6
6.2505 1.9860 -2.7058 0.3814 0 6
6.2322 2.0425 -2.7058 0.3814 0 6
6.2135 2.0988 -2.7058 0.3814 0 6
6.1942 2.1549 -2.7058 0.3814 0 6
6.1745 2.2109 -2.7058 0.3814 0 6
6.1542 2.2667 -2.7058 0.3814 0 6
6.1335 2.3223 -2.7058 0.3814 0 6
6.1122 2.3777 -2.7058 0.3814 0 7
6.0904 2.4329 -2.7058 0.3814 0 7
6.0682 2.4879 -2.7058 0.3814 0 7
6.0454 2.5427 -2.7058 0.3814 0 7
6.0222 2.5973 -2.7058 0.3814 0 7
5.9984 2.6517 -2.7058 0.3814 0 7
5.9742 2.7058 -2.7058 0.3814 0 7
5.9495 2.7598 -2.7058 0.3814 0 7
5.9242 2.8135 -2.7058 0.3814 0 7
5.8985 2.8670 -2.7058 0.3814 0 7
5.8724 2.9202 -2.7058 0.3814 0 6
5.8457 2.9733 -2.7058 0.3814 0 6
5.8186 3.0260 -2.7058 0.3814 0 6
5.7909 3.0785 -2.7058 0.3814 0 6
5.7628 3.1308 -2.7058 0.3814 0 6
5.7343 3.1828 -2.7058 0.3814 0 6
5.7052 3.2346 -2.7058 0.3814 0 6
5.6757 3.2861 -2.7058 0.3814 0 6
5.6458 3.3373 -2.7058 0.3814 0 6
5.6154 3.3883 -2.7058 0.3814 0 7
5.5845 3.4389 -2.7058 0.3814 0 7
5.5531 3.4893 -2.7058 0.3814 0 7
5.5213 3.5394 -2.7058 0.3814 0 7
5.4891 3.5892 -2.7058 0.3814 0 7
5.4564 3.6388 -2.7058 0.3814 0 7
5.4232 3.6880 -2.7058 0.3814 0 6
5.3896 3.7369 -2.7058 0.3814 0 6
5.3556 3.7855 -2.7058 0.3814 0 6
5.3211 3.8338 -2.7058 0.3814 0 6
5.2862 3.8818 -2.7058 0.3814 0 6
5.2509 3.9295 -2.7058 0.3814 0 6
5.2151 3.9768 -2.7058 0.3814 0 6
5.1789 4.0239 -2.7058 0.3814 0 6
5.1423 4.0705 -2.7058 0.3814 0 6
5.1052 4.1169 -2.7058 0.3814 0 6
5.0678 4.1629 -2.7058 0.3814 0 6
5.0299 4.2086 -2.7058 0.3814 0 7
4.9916 4.2540 -2.7058 0.3814 0 7
4.9529 4.2990 -2.7058 0.3814 0 7
4.9138 4.3436 -2.7058 0.3814 0 7
4.8743 4.3879 -2.7058 0.3814 0 7
4.8344 4.4318 -2.7058 0.3814 0 7
4.7941 4.4754 -2.7058 0.3814 0 7
4.7534 4.5186 -2.7058 0.3814 0 7
4.7123 4.5614 -2.7058 0.3814 0 7
4.6709 4.6038 -2.7058 0.3814 0 7
4.6290 4.6459 -2.7058 0.3814 0 7
4.5868 4.6876 -2.7058 0.3814 0 7
4.5442 4.7289 -2.7058 0.3814 0 7
4.5012 4.7698 -2.7058 0.3814 0 7
4.4579 4.8104 -2.7058 0.3814 0 7
4.4142 4.8505 -2.7058 0.3814 0 7
4.3701 4.8903 -2.7058 0.3814 0 7
4.3257 4.9296 -2.7058 0.3814 0 7
4.2809 4.9685 -2.7058 0.3814 0 7
4.2357 5.0071 -2.7058 0.3814 0 7
4.1903 5.0452 -2.7058 0.3814 0 7
4.1445 5.0829 -2.7058 0.3814 0 7
4.0983 5.1202 -2.7058 0.3814 0 7
4.0518 5.1571 -2.7058 0.3814 0 7
4.0050 5.1935 -2.7058 0.3814 0 7
3.9578 5.2295 -2.7058 0.3814 0 7
3.9103 5.2651 -2.7058 0.3814 0 7
3.8625 5.3003 -2.7058 0.3814 0 7
3.8144 5.3350 -2.7058 0.3814 0 7
3.7660 5.3693 -2.7058 0.3814 0 7
3.7172 5.4032 -2.7058 0.3814 0 7
3.6682 5.4366 -2.7058 0.3814 0 6
3.6189 5.4696 -2.7058 0.3814 0 6
3.5692 5.5021 -2.7058 0.3814 0 6
3.5193 5.5342 -2.7058 0.3814 0 6
3.4691 5.5658 -2.7058 0.3814 0 6
3.4186 5.5969 -2.7058 0.3814 0 6
3.3678 5.6277 -2.7058 0.3814 0 6
3.3167 5.6579 -2.7058 0.3814 0 6
3.2654 5.6877 -2.7058 0.3814 0 7
3.2138 5.7170 -2.7058 0.3814 0 7
3.1619 5.7458 -2.7058 0.3814 0 7
3.1098 5.7742 -2.7058 0.3814 0 7
3.0574 5.8021 -2.7058 0.3814 0 7
3.0048 5.8295 -2.7058 0.3814 0 7
2.9519 5.8565 -2.7058 0.3814 0 7
2.8988 5.8830 -2.7058 0.3814 0 7
2.8455 5.9089 -2.7058 0.3814 0 7
2.7919 5.9345 -2.7058 0.3814 0 7
2.7381 5.9595 -2.7058 0.3814 0 7
2.6840 5.9840 -2.7058 0.3814 0 7
2.6298 6.0080 -2.7058 0.3814 0 7
2.5753 6.0316 -2.7058 0.3814 0 7
2.5206 6.0547 -2.7058 0.3814 0 7
2.4658 6.0772 -2.7058 0.3814 0 7
2.4107 6.0993 -2.7058 0.3814 0 7
2.3554 6.1208 -2.7058 0.3814 0 7
2.2999 6.1419 -2.7058 0.3814 0 7
2.2442 6.1625 -2.7058 0.3814 0 7
2.1884 6.1825 -2.7058 0.3814 0 7
2.1323 6.2021 -2.7058 0.3814 0 7
2.0761 6.2211 -2.7058 0.3814 0 7
2.0198 6.2396 -2.7058 0.3814 0 7
1.9632 6.2577 -2.7058 0.3814 0 7
1.9065 6.2752 -2.7058 0.3814 0 7
1.8497 6.2922 -2.7058 0.3814 0 7
1.7927 6.3086 -2.7058 0.3814 0 7
1.7355 6.3246 -2.7058 0.3814 0 7
1.6782 6.3400 -2.7058 0.3814 0 7
1.6208 6.3550 -2.7058 0.3814 0 7
1.5632 6.3694 -2.7058 0.3814 0 7
1.5055 6.3833 -2.7058 0.3814 0 7
1.4477 6.3966 -2.7058 0.3814 0 7
1.3897 6.4095 -2.7058 0.3814 0 7
1.3317 6.4218 -2.7058 0.3814 0 7
1.2735 6.4335 -2.7058 0.3814 0 7
1.2153 6.4448 -2.7058 0.3814 0 7
1.1569 6.4555 -2.7058 0.3814 0 7
1.0984 6.4657 -2.7058 0.3814 0 7
1.0399 6.4754 -2.7058 0.3814 0 7
0.9813 6.4846 -2.7058 0.3814 0 7
0.9225 6.4932 -2.7058 0.3814 0 7
0.8637 6.5013 -2.7058 0.3814 0 7
0.8049 6.5088 -2.7058 0.3814 0 7
0.7460 6.5158 -2.7058 0.3814 0 7
0.6870 6.5223 -2.7058 0.3814 0 7
0.6279 6.5283 -2.7058 0.3814 0 7
0.5688 6.5337 -2.7058 0.3814 0 7
0.5097 6.5386 -2.7058 0.3814 0 7
0.4505 6.5429 -2.7058 0.3814 0 7
0.3913 6.5467 -2.7058 0.3814 0 7
0.3320 6.5500 -2.7058 0.3814 0 7
0.2727 6.5527 -2.7058 0.3814 0 7
0.2135 6.5549 -2.7058 0.3814 0 7
0.1541 6.5566 -2.7058 0.3814 0 7
0.0948 6.5577 -2.7058 0.3814 0 7
0.0355 6.5583 -2.7058 0.3814 0 7
-0.0239 6.5583 -2.7058 0.3814 0 7
-0.0832 6.5579 -2.7058 0.3814 0 7
-0.1426 6.5568 -2.7058 0.3814 0 7
-0.2019 6.5553 -2.7058 0.3814 0 7
-0.2612 6.5532 -2.7058 0.3814 0 7
-0.3205 6.5506 -2.7058 0.3814 0 7
-0.3797 6.5474 -2.7058 0.3814 0 7
-0.4390 6.5437 -2.7058 0.3814 0 7
-0.4981 6.5394 -2.7058 0.3814 0 7
-0.5573 6.5347 -2.7058 0.3814 0 7
-0.6164 6.5294 -2.7058 0.3814 0 7
-0.6755 6.5235 -2.7058 0.3814 0 7
-0.7345 6.5171 -2.7058 0.3814 0 7
-0.7934 6.5102 -2.7058 0.3814 0 7
-0.8523 6.5028 -2.7058 0.3814 0 7
-0.9111 6.4948 -2.7058 0.3814 0 7
-0.9698 6.4863 -2.7058 0.3814 0 7
-1.0285 6.4772 -2.7058 0.3814 0 7
-1.0870 6.4677 -2.7058 0.3814 0 7
-1.1455 6.4576 -2.7058 0.3814 0 7
-1.2039 6.4469 -2.7058 0.3814 0 7
-1.2622 6.4358 -2.7058 0.3814 0 7
-1.3204 6.4241 -2.7058 0.3814 0 7
-1.3784 6.4119 -2.7058 0.3814 0 7
-1.4364 6.3992 -2.7058 0.3814 0 7
-1.4942 6.3859 -2.7058 0.3814 0 7
-1.5520 6.3721 -2.7058 0.3814 0 7
-1.6096 6.3578 -2.7058 0.3814 0 7
-1.6670 6.3430 -2.7058 0.3814 0 7
-1.7244 6.3276 -2.7058 0.3814 0 7
-1.7815 6.3118 -2.7058 0.3814 0 7
-1.8386 6.2954 -2.7058 0.3814 0 7
-1.8954 6.2785 -2.7058 0.3814 0 7
-1.9522 6.2611 -2.7058 0.3814 0 7
-2.0088 6.2432 -2.7058 0.3814 0 7
-2.0652 6.2248 -2.7058 0.3814 0 7
-2.1214 6.2058 -2.7058 0.3814 0 7
-2.1775 6.1864 -2.7058 0.3814 0 7
-2.2334 6.1664 -2.7058 0.3814 0 7
-2.2891 6.1459 -2.7058 0.3814 0 7
-2.3446 6.1250 -2.7058 0.3814 0 7
-2.3999 6.1035 -2.7058 0.3814 0 7
-2.4550 6.0816 -2.7058 0.3814 0 7
-2.5100 6.0591 -2.7058 0.3814 0 7
-2.5647 6.0361 -2.7058 0.3814 0 7
-2.6192 6.0127 -2.7058 0.3814 0 7
-2.6735 5.9887 -2.7058 0.3814 0 7
-2.7276 5.9643 -2.7058 0.3814 0 7
-2.7814 5.9394 -2.7058 0.3814 0 7
-2.8350 5.9140 -2.7058 0.3814 0 7
-2.8884 5.8881 -2.7058 0.3814 0 7
-2.9416 5.8617 -2.7058 0.3814 0 7
-2.9945 5.8348 -2.7058 0.3814 0 7
-3.0472 5.8075 -2.7058 0.3814 0 7
-3.0996 5.7797 -2.7058 0.3814 0 7
-3.1518 5.7514 -2.7058 0.3814 0 7
-3.2037 5.7227 -2.7058 0.3814 0 7
-3.2553 5.6934 -2.7058 0.3814 0 7
-3.3067 5.6637 -2.7058 0.3814 0 7
-3.3578 5.6336 -2.7058 0.3814 0 7
-3.4087 5.6030 -2.7058 0.3814 0 7
-3.4592 5.5719 -2.7058 0.3814 0 7
-3.5095 5.5404 -2.7058 0.3814 0 7
-3.5595 5.5084 -2.7058 0.3814 0 7
-3.6092 5.4760 -2.7058 0.3814 0 7
-3.6586 5.4431 -2.7058 0.3814 0 7
-3.7077 5.4098 -2.7058 0.3814 0 7
-3.7565 5.3760 -2.7058 0.3814 0 7
-3.8050 5.3418 -2.7058 0.3814 0 7
-3.8532 5.3071 -2.7058 0.3814 0 7
-3.9010 5.2720 -2.7058 0.3814 0 7
-3.9486 5.2365 -2.7058 0.3814 0 7
-3.9958 5.2006 -2.7058 0.3814 0 6
-4.0427 5.1642 -2.7058 0.3814 0 6
-4.0893 5.1274 -2.7058 0.3814 0 6
-4.1355 5.0902 -2.7058 0.3814 0 7
-4.1814 5.0526 -2.7058 0.3814 0 7
-4.2269 5.0145 -2.7058 0.3814 0 7
-4.2721 4.9761 -2.7058 0.3814 0 7
-4.3170 4.9372 -2.7058 0.3814 0 7
-4.3615 4.8980 -2.7058 0.3814 0 7
-4.4056 4.8583 -2.7058 0.3814 0 7
-4.4494 4.8182 -2.7058 0.3814 0 7
-4.4928 4.7778 -2.7058 0.3814 0 7
-4.5358 4.7369 -2.7058 0.3814 0 7
-4.5785 4.6957 -2.7058 0.3814 0 7
-4.6208 4.6541 -2.7058 0.3814 0 7
-4.6627 4.6121 -2.7058 0.3814 0 7
-4.7043 4.5697 -2.7058 0.3814 0 7
-4.7454 4.5270 -2.7058 0.3814 0 7
-4.7862 4.4838 -2.7058 0.3814 0 7
-4.8266 4.4403 -2.7058 0.3814 0 7
-4.8666 4.3965 -2.7058 0.3814 0 7
-4.9061 4.3523 -2.7058 0.3814 0 7
-4.9453 4.3077 -2.7058 0.3814 0 7
-4.9841 4.2628 -2.7058 0.3814 0 7
-5.0225 4.2175 -2.7058 0.3814 0 7
-5.0604 4.1719 -2.7058 0.3814 0 7
-5.0980 4.1259 -2.7058 0.3814 0 7
-5.1351 4.0796 -2.7058 0.3814 0 7
-5.1718 4.0330 -2.7058 0.3814 0 7
-5.2081 3.9860 -2.7058 0.3814 0 7
-5.2439 3.9387 -2.7058 0.3814 0 7
-5.2794 3.8911 -2.7058 0.3814 0 7
-5.3143 3.8432 -2.7058 0.3814 0 7
-5.3489 3.7950 -2.7058 0.3814 0 7
-5.3830 3.7464 -2.7058 0.3814 0 7
-5.4167 3.6975 -2.7058 0.3814 0 7
-5.4499 3.6484 -2.7058 0.3814 0 7
-5.4827 3.5989 -2.7058 0.3814 0 7
-5.5151 3.5492 -2.7058 0.3814 0 7
-5.5470 3.4991 -2.7058 0.3814 0 7
-5.5784 3.4488 -2.7058 0.3814 0 7
-5.6094 3.3982 -2.7058 0.3814 0 7
-5.6399 3.3473 -2.7058 0.3814 0 7
-5.6699 3.2961 -2.7058 0.3814 0 7
-5.6995 3.2447 -2.7058 0.3814 0 7
-5.7287 3.1930 -2.7058 0.3814 0 7
-5.7573 3.1410 -2.7058 0.3814 0 7
-5.7855 3.0888 -2.7058 0.3814 0 7
-5.8132 3.0363 -2.7058 0.3814 0 7
-5.8404 2.9836 -2.7058 0.3814 0 7
-5.8672 2.9306 -2.7058 0.3814 0 7
-5.8935 2.8774 -2.7058 0.3814 0 7
-5.9193 2.8239 -2.7058 0.3814 0 7
-5.9446 2.7703 -2.7058 0.3814 0 7
-5.9694 2.7164 -2.7058 0.3814 0 7
-5.9937 2.6622 -2.7058 0.3814 0 7
-6.0176 2.6079 -2.7058 0.3814 0 7
-6.0409 2.5533 -2.7058 0.3814 0 7
-6.0638 2.4986 -2.7058 0.3814 0 7
-6.0862 2.4436 -2.7058 0.3814 0 7
-6.1080 2.3884 -2.7058 0.3814 0 7
-6.1294 2.3331 -2.7058 0.3814 0 7
-6.1502 2.2775 -2.7058 0.3814 0 7
-6.1706 2.2218 -2.7058 0.3814 0 7
-6.1904 2.1659 -2.7058 0.3814 0 7
-6.2098 2.1098 -2.7058 0.3814 0 7
-6.2286 2.0535 -2.7058 0.3814 0 7
-6.2469 1.9970 -2.7058 0.3814 0 7
-6.2648 1.9404 -2.7058 0.3814 0 7
-6.2821 1.8837 -2.7058 0.3814 0 7
-6.2988 1.8267 -2.7058 0.3814 0 7
-6.3151 1.7697 -2.7058 0.3814 0 7
-6.3309 1.7125 -2.7058 0.3814 0 7
-6.3461 1.6551 -2.7058 0.3814 0 7
-6.3608 1.5976 -2.7058 0.3814 0 7
-6.3750 1.5400 -2.7058 0.3814 0 7
-6.3887 1.4823 -2.7058 0.3814 0 7
-6.4018 1.4244 -2.7058 0.3814 0 7
-6.4145 1.3664 -2.7058 0.3814 0 7
-6.4266 1.3083 -2.7058 0.3814 0 7
-6.4381 1.2501 -2.7058 0.3814 0 7
-6.4492 1.1918 -2.7058 0.3814 0 7
-6.4597 1.1334 -2.7058 0.3814 0 7
-6.4697 1.0749 -2.7058 0.3814 0 7
-6.4792 1.0163 -2.7058 0.3814 0 7
-6.4881 0.9576 -2.7058 0.3814 0 7
-6.4965 0.8989 -2.7058 0.3814 0 7
-6.5044 0.8401 -2.7058 0.3814 0 7
-6.5117 0.7812 -2.7058 0.3814 0 7
-6.5185 0.7222 -2.7058 0.3814 0 7
-6.5248 0.6632 -2.7058 0.3814 0 7
-6.5305 0.6042 -2.7058 0.3814 0 7
-6.5357 0.5450 -2.7058 0.3814 0 7
-6.5404 0.4859 -2.7058 0.3814 0 7
-6.5445 0.4267 -2.7058 0.3814 0 7
-6.5481 0.3675 -2.7058 0.3814 0 7
-6.5511 0.3082 -2.7058 0.3814 0 7
-6.5537 0.2489 -2.7058 0.3814 0 7
-6.5556 0.1896 -2.7058 0.3814 0 7
-6.5571 0.1303 -2.7058 0.3814 0 7
-6.5580 0.0709 -2.7058 0.3814 0 7
-6.5584 0.0116 -2.7058 0.3814 0 7
-6.5582 -0.0478 -2.7058 0.3814 0 7
-6.5575 -0.1071 -2.7058 0.3814 0 7
-6.5563 -0.1664 -2.7058 0.3814 0 7
-6.5545 -0.2257 -2.7058 0.3814 0 7
-6.5522 -0.2850 -2.7058 0.3814 0 7
-6.5493 -0.3443 -2.7058 0.3814 0 7
-6.5460 -0.4036 -2.7058 0.3814 0 7
-6.5420 -0.4628 -2.7058 0.3814 0 7
-6.5376 -0.5220 -2.7058 0.3814 0 7
-6.5326 -0.5811 -2.7058 0.3814 0 7
-6.5271 -0.6402 -2.7058 0.3814 0 7
-6.5210 -0.6992 -2.7058 0.3814 0 7
-6.5144 -0.7582 -2.7058 0.3814 0 7
-6.5073 -0.8171 -2.7058 0.3814 0 7
-6.4996 -0.8759 -2.7058 0.3814 0 7
-6.4914 -0.9347 -2.7058 0.3814 0 7
-6.4827 -0.9934 -2.7058 0.3814 0 7
-6.4735 -1.0520 -2.7058 0.3814 0 7
-6.4637 -1.1106 -2.7058 0.3814 0 7
-6.4534 -1.1690 -2.7058 0.3814 0 7
-6.4425 -1.2274 -2.7058 0.3814 0 7
-6.4311 -1.2856 -2.7058 0.3814 0 7
-6.4193 -1.3437 -2.7058 0.3814 0 7
-6.4068 -1.4018 -2.7058 0.3814 0 7
-6.3939 -1.4597 -2.7058 0.3814 0 7
-6.3804 -1.5175 -2.7058 0.3814 0 7
-6.3664 -1.5751 -2.7058 0.3814 0 7
-6.3519 -1.6327 -2.7058 0.3814 0 7
-6.3369 -1.6901 -2.7058 0.3814 0 7
-6.3213 -1.7474 -2.7058 0.3814 0 7
-6.3053 -1.8045 -2.7058 0.3814 0 7
-6.2887 -1.8615 -2.7058 0.3814 0 7
-6.2716 -1.9183 -2.7058 0.3814 0 7
-6.2539 -1.9750 -2.7058 0.3814 0 6
-6.2358 -2.0315 -2.7058 0.3814 0 6
-6.2172 -2.0878 -2.7058 0.3814 0 7
-6.1980 -2.1440 -2.7058 0.3814 0 7
-6.1784 -2.2000 -2.7058 0.3814 0 7
-6.1582 -2.2558 -2.7058 0.3814 0 7
-6.1376 -2.3114 -2.7058 0.3814 0 7
-6.1164 -2.3669 -2.7058 0.3814 0 7
-6.0947 -2.4221 -2.7058 0.3814 0 7
-6.0641 -2.4737 -2.7020 0.3597 0 8
-5.9135 -2.4749 -2.6448 0.3675 0 8
-5.7691 -2.4761 -2.5901 0.3753 0 8
-5.6819 -2.4998 -2.5610 0.3814 0 8
-5.6590 -2.5511 -2.5610 0.3814 0 8
-5.6357 -2.6022 -2.5610 0.3814 0 8
-5.6119 -2.6530 -2.5610 0.3814 0 14
-5.5877 -2.7037 -2.5610 0.3814 0 14
-5.5630 -2.7542 -2.5610 0.3814 0 14
-5.5379 -2.8044 -2.5610 0.3814 0 14
-5.5123 -2.8544 -2.5610 0.3814 0 14
-5.4862 -2.9041 -2.5610 0.3814 0 14
-5.4597 -2.9537 -2.5610 0.3814 0 14
-5.4328 -3.0029 -2.5610 0.3814 0 14
-5.4054 -3.0520 -2.5610 0.3814 0 14
-5.3775 -3.1008 -2.5610 0.3814 0 14
-5.3493 -3.1493 -2.5610 0.3814 0 14
-4.9125 -2.9524 -2.3646 0.7063 0 19
-4.8638 -2.9833 -2.3540 0.9204 0 19
-4.8409 -3.0299 -2.3561 0.9196 0 19
-4.8487 -3.0962 -2.3735 0.5721 0 19
-5.2013 -3.3880 -2.5610 0.3814 0 14
-5.1705 -3.4349 -2.5610 0.3814 0 14
-5.1392 -3.4816 -2.5610 0.3814 0 14
-5.1075 -3.5279 -2.5610 0.3814 0 14
-5.0753 -3.5740 -2.5610 0.3814 0 14
-5.0428 -3.6198 -2.5610 0.3814 0 14
-4.1059 -3.0039 -2.0989 0.4995 0 19
-3.9771 -2.9653 -2.0467 0.3329 0 19
-3.9404 -2.9938 -2.0417 0.5135 0 19
-3.8610 -2.9890 -2.0145 0.5204 0 19
-3.7837 -2.9843 -1.9881 0.5273 0 19
-3.5495 -2.8520 -1.8785 0.7805 0 19
-3.5035 -2.8677 -1.8679 0.7850 0 19
-3.4628 -2.8870 -1.8600 0.8983 0 19
-3.4443 -2.9248 -1.8642 0.8963 0 19
-3.3823 -2.9253 -1.8449 0.7640 0 19
-3.3587 -2.9584 -1.8466 0.5677 0 19
-4.6208 -4.1449 -2.5610 0.3814 0 14
-4.5831 -4.1866 -2.5610 0.3814 0 14
-4.5451 -4.2279 -2.5610 0.3814 0 14
-4.5066 -4.2688 -2.5610 0.3814 0 14
-4.4678 -4.3094 -2.5610 0.3814 0 14
-4.4286 -4.3497 -2.5610 0.3814 0 14
-4.3891 -4.3896 -2.5610 0.3814 0 14
-4.1343 -4.2103 -2.4344 0.3112 0 5
-4.0730 -4.2237 -2.4208 0.8687 0 5
-4.0585 -4.2855 -2.4351 0.3820 0 5
-4.2274 -4.5455 -2.5610 0.3814 0 14
-4.1861 -4.5836 -2.5610 0.3814 0 14
-4.1444 -4.6213 -2.5610 0.3814 0 14
-4.1024 -4.6586 -2.5610 0.3814 0 14
-4.0601 -4.6955 -2.5610 0.3814 0 14
-4.0175 -4.7321 -2.5610 0.3814 0 14
-3.9745 -4.7682 -2.5610 0.3814 0 14
-3.9312 -4.8040 -2.5610 0.3814 0 14
-3.8876 -4.8394 -2.5610 0.3814 0 14
-3.8436 -4.8743 -2.5610 0.3814 0 14
-3.7994 -4.9089 -2.5610 0.3814 0 14
-3.7548 -4.9431 -2.5610 0.3814 0 14
-3.7099 -4.9769 -2.5610 0.3814 0 14
-3.6647 -5.0102 -2.5610 0.3814 0 14
-3.6192 -5.0432 -2.5610 0.3814 0 14
-3.5734 -5.0757 -2.5610 0.3814 0 14
-3.5274 -5.1079 -2.5610 0.3814 0 14
-3.4810 -5.1396 -2.5610 0.3814 0 14
-3.4344 -5.1709 -2.5610 0.3814 0 14
-3.3874 -5.2017 -2.5610 0.3814 0 14
-3.3402 -5.2322 -2.5610 0.3814 0 14
-3.2927 -5.2622 -2.5610 0.3814 0 14
-3.2450 -5.2917 -2.5610 0.3814 0 14
-3.1970 -5.3209 -2.5610 0.3814 0 14
-3.1487 -5.3496 -2.5610 0.3814 0 14
-3.1002 -5.3779 -2.5610 0.3814 0 14
-3.0514 -5.4057 -2.5610 0.3814 0 14
-3.0023 -5.4331 -2.5610 0.3814 0 14
-2.9531 -5.4600 -2.5610 0.3814 0 14
-2.9035 -5.4865 -2.5610 0.3814 0 14
-2.8538 -5.5126 -2.5610 0.3814 0 14
-2.8038 -5.5382 -2.5610 0.3814 0 14
-2.7535 -5.5633 -2.5610 0.3814 0 14
-2.7031 -5.5880 -2.5610 0.3814 0 14
-2.6524 -5.6122 -2.5610 0.3814 0 8
-2.6015 -5.6360 -2.5610 0.3814 0 8
-2.5504 -5.6593 -2.5610 0.3814 0 8
-2.4991 -5.6822 -2.5610 0.3814 0 8
-2.4476 -5.7045 -2.5610 0.3814 0 8
-2.5313 -6.0502 -2.7058 0.3814 0 7
-2.4765 -6.0728 -2.7058 0.3814 0 7
-2.4214 -6.0950 -2.7058 0.3814 0 7
-2.3662 -6.1167 -2.7058 0.3814 0 7
-2.3108 -6.1378 -2.7058 0.3814 0 7
-2.2551 -6.1585 -2.7058 0.3814 0 7
-1.9006 -5.3394 -2.3382 0.6496 0 19
-1.8354 -5.3079 -2.3171 0.6555 0 19
-1.7833 -5.3122 -2.3118 0.9244 0 19
-1.7353 -5.3285 -2.3120 0.9243 0 19
-1.7017 -5.3908 -2.3322 0.6390 0 19
-1.9176 -6.2718 -2.7058 0.3814 0 6
-1.8608 -6.2889 -2.7058 0.3814 0 7
-1.8038 -6.3055 -2.7058 0.3814 0 7
-1.7467 -6.3215 -2.7058 0.3814 0 7
-1.6894 -6.3371 -2.7058 0.3814 0 7
-1.6320 -6.3521 -2.7058 0.3814 0 7
-1.5745 -6.3666 -2.7058 0.3814 0 7
-1.5168 -6.3806 -2.7058 0.3814 0 7
-1.4590 -6.3940 -2.7058 0.3814 0 7
-1.4011 -6.4070 -2.7058 0.3814 0 7
-1.3430 -6.4194 -2.7058 0.3814 0 7
-1.2849 -6.4313 -2.7058 0.3814 0 7
-1.2267 -6.4427 -2.7058 0.3814 0 7
-1.1683 -6.4535 -2.7058 0.3814 0 7
-1.1099 -6.4638 -2.7058 0.3814 0 7
-1.0513 -6.4736 -2.7058 0.3814 0 7
-0.9927 -6.4828 -2.7058 0.3814 0 7
-0.9340 -6.4915 -2.7058 0.3814 0 7
-0.8752 -6.4997 -2.7058 0.3814 0 7
-0.8164 -6.5074 -2.7058 0.3814 0 7
-0.7575 -6.5145 -2.7058 0.3814 0 7
-0.6985 -6.5211 -2.7058 0.3814 0 7
-0.5230 -5.3386 -2.2131 0.2181 0 19
-0.4656 -5.2408 -2.1707 0.7937 0 19
-0.4159 -5.2168 -2.1591 0.7980 0 19
-0.3693 -5.2283 -2.1624 0.8940 0 19
-0.3228 -5.2450 -2.1680 0.4585 0 19
-0.3436 -6.5494 -2.7058 0.3814 0 7
-0.2843 -6.5522 -2.7058 0.3814 0 7
-0.2250 -6.5545 -2.7058 0.3814 0 7
-0.1657 -6.5563 -2.7058 0.3814 0 7
-0.1064 -6.5575 -2.7058 0.3814 0 7
-0.0471 -6.5582 -2.7058 0.3814 0 7
0.0123 -6.5584 -2.7058 0.3814 0 7
0.0716 -6.5580 -2.7058 0.3814 0 7
0.1310 -6.5571 -2.7058 0.3814 0 7
0.1903 -6.5556 -2.7058 0.3814 0 7
0.2496 -6.5536 -2.7058 0.3814 0 7
0.3089 -6.5511 -2.7058 0.3814 0 7
0.3682 -6.5480 -2.7058 0.3814 0 7
0.4274 -6.5444 -2.7058 0.3814 0 7
0.4866 -6.5403 -2.7058 0.3814 0 7
0.5458 -6.5356 -2.7058 0.3814 0 7
0.6049 -6.5304 -2.7058 0.3814 0 7
0.6639 -6.5247 -2.7058 0.3814 0 7
0.7230 -6.5184 -2.7058 0.3814 0 7
0.7819 -6.5116 -2.7058 0.3814 0 7
0.8408 -6.5043 -2.7058 0.3814 0 7
0.8996 -6.4964 -2.7058 0.3814 0 7
0.9583 -6.4880 -2.7058 0.3814 0 7
1.0170 -6.4790 -2.7058 0.3814 0 7
1.0756 -6.4696 -2.7058 0.3814 0 7
0.9099 -5.1827 -2.1709 0.4510 0 19
0.9524 -5.1504 -2.1609 0.8917 0 19
0.9965 -5.1291 -2.1557 0.8939 0 19
1.0481 -5.1455 -2.1665 0.7981 0 19
1.1102 -5.2089 -2.1973 0.2265 0 19
1.4251 -6.4017 -2.7058 0.3814 0 7
1.4829 -6.3885 -2.7058 0.3814 0 7
1.5407 -6.3748 -2.7058 0.3814 0 7
1.5983 -6.3606 -2.7058 0.3814 0 7
1.6558 -6.3459 -2.7058 0.3814 0 7
1.7132 -6.3307 -2.7058 0.3814 0 7
1.7704 -6.3149 -2.7058 0.3814 0 7
1.8274 -6.2986 -2.7058 0.3814 0 7
1.8844 -6.2819 -2.7058 0.3814 0 7
1.9411 -6.2645 -2.7058 0.3814 0 7
1.9977 -6.2467 -2.7058 0.3814 0 7
2.0542 -6.2284 -2.7058 0.3814 0 7
2.1104 -6.2095 -2.7058 0.3814 0 7
2.1665 -6.1902 -2.7058 0.3814 0 7
2.2225 -6.1703 -2.7058 0.3814 0 7
2.2782 -6.1500 -2.7058 0.3814 0 7
2.3338 -6.1291 -2.7058 0.3814 0 7
2.3891 -6.1077 -2.7058 0.3814 0 7
2.4443 -6.0859 -2.7058 0.3814 0 7
2.4993 -6.0635 -2.7058 0.3814 0 7
2.5540 -6.0406 -2.7058 0.3814 0 7
2.6086 -6.0173 -2.7058 0.3814 0 7
2.2947 -5.1648 -2.3317 0.6328 0 19
2.3191 -5.0949 -2.3095 0.6388 0 19
2.3609 -5.0646 -2.3054 0.9243 0 19
2.4064 -5.0426 -2.3052 0.6616 0 19
2.4739 -5.0656 -2.3258 0.6557 0 19
2.9312 -5.8669 -2.7058 0.3814 0 6
2.9842 -5.8401 -2.7058 0.3814 0 7
3.0369 -5.8129 -2.7058 0.3814 0 7
3.0894 -5.7852 -2.7058 0.3814 0 7
3.1416 -5.7570 -2.7058 0.3814 0 7
3.1936 -5.7283 -2.7058 0.3814 0 7
3.2453 -5.6992 -2.7058 0.3814 0 7
3.1203 -5.3662 -2.5610 0.3814 0 8
3.1688 -5.3377 -2.5610 0.3814 0 8
3.2169 -5.3089 -2.5610 0.3814 0 8
3.2648 -5.2795 -2.5610 0.3814 0 8
3.3125 -5.2498 -2.5610 0.3814 0 8
3.3607 -5.2210 -2.5617 0.8403 0 8
3.4069 -5.1890 -2.5610 0.3814 0 14
3.4537 -5.1579 -2.5610 0.3814 0 14
3.5003 -5.1265 -2.5610 0.3814 0 14
3.5465 -5.0946 -2.5610 0.3814 0 14
3.3803 -4.7633 -2.4097 0.4708 0 9
3.3926 -4.6901 -2.3881 0.4780 0 9
3.3843 -4.5906 -2.3530 0.4852 0 9
3.3763 -4.4941 -2.3190 0.4923 0 9
3.3685 -4.4002 -2.2863 0.4993 0 9
3.3610 -4.3090 -2.2546 0.5063 0 9
3.3428 -4.2067 -2.2168 0.3814 0 9
3.3464 -4.1339 -2.1943 0.5203 0 9
3.3395 -4.0498 -2.1656 0.5271 0 9
3.3327 -3.9678 -2.1378 0.5340 0 9
3.3116 -3.8711 -2.1017 0.4764 0 9
3.8525 -4.4218 -2.4196 0.2723 0 9
3.8634 -4.3541 -2.4015 0.2743 0 9
3.8808 -4.2947 -2.3881 0.3349 0 9
3.7478 -4.0729 -2.2835 0.4959 0 9
3.7319 -3.9827 -2.2518 0.5028 0 9
3.7053 -3.8833 -2.2144 0.4257 0 9
3.7007 -3.8088 -2.1910 0.8747 0 9
3.7236 -3.7636 -2.1843 0.8774 0 9
3.7480 -3.7204 -2.1787 0.8988 0 9
3.7723 -3.6774 -2.1735 0.9010 0 9
3.8056 -3.6433 -2.1736 0.8834 0 9
3.8496 -3.6192 -2.1799 0.8808 0 9
3.8938 -3.5949 -2.1864 0.8782 0 9
3.9451 -3.5767 -2.1970 0.8485 0 9
3.9971 -3.5584 -2.2079 0.8443 0 9
4.0495 -3.5399 -2.2190 0.8400 0 9
4.1309 -3.5457 -2.2460 0.3920 0 9
4.2867 -3.6125 -2.3128 0.1536 0 9
4.4931 -3.7175 -2.4059 0.3046 0 9
3.9530 -3.2108 -2.1010 0.2540 0 9
3.9912 -3.1824 -2.1060 0.6341 0 9
4.0774 -3.1911 -2.1361 0.6280 0 9
3.3931 -2.6065 -1.7652 0.4094 0 19
3.3681 -2.5391 -1.7402 0.8801 0 19
3.3813 -2.5014 -1.7352 0.8827 0 19
3.3944 -2.4639 -1.7304 0.8851 0 19
3.4324 -2.4443 -1.7385 0.8105 0 19
3.4717 -2.4253 -1.7472 0.8064 0 19
3.6908 -2.5289 -1.8458 0.5679 0 19
4.6750 -3.1416 -2.3238 0.5773 0 9
4.7573 -3.1347 -2.3505 0.5707 0 9
5.2140 -3.3685 -2.5610 0.3814 0 14
5.2443 -3.3211 -2.5610 0.3814 0 14
5.2741 -3.2736 -2.5610 0.3814 0 14
5.3035 -3.2257 -2.5610 0.3814 0 14
4.1927 -2.4984 -2.0136 0.5206 0 19
4.2720 -2.4935 -2.0407 0.5137 0 19
4.3246 -2.4721 -2.0551 0.4284 0 19
5.4168 -3.0317 -2.5610 0.3814 0 14
5.4440 -2.9825 -2.5610 0.3814 0 14
5.4708 -2.9332 -2.5610 0.3814 0 14
5.4971 -2.8835 -2.5610 0.3814 0 14
5.5229 -2.8337 -2.5610 0.3814 0 14
4.8245 -2.4204 -2.2269 0.5621 0 19
4.8034 -2.3557 -2.2072 0.9175 0 19
4.8193 -2.3096 -2.2048 0.9184 0 19
4.8510 -2.2711 -2.2098 0.7184 0 19
4.9076 -2.2436 -2.2263 0.7131 0 19
5.6686 -2.5298 -2.5610 0.3814 0 14
5.6912 -2.4784 -2.5610 0.3814 0 14
5.7134 -2.4268 -2.5610 0.3814 0 14
5.7351 -2.3750 -2.5610 0.3814 0 14
5.7564 -2.3230 -2.5610 0.3814 0 14
5.7772 -2.2708 -2.5610 0.3814 0 14
5.7975 -2.2185 -2.5610 0.3814 0 14
5.8173 -2.1659 -2.5610 0.3814 0 14
5.8367 -2.1132 -2.5610 0.3814 0 14
5.8556 -2.0603 -2.5610 0.3814 0 14
5.8740 -2.0072 -2.5610 0.3814 0 14
5.8919 -1.9540 -2.5610 0.3814 0 14
5.9236 -1.9052 -2.5672 0.5081 0 8
5.9263 -1.8471 -2.5610 0.3814 0 8
5.9428 -1.7934 -2.5610 0.3814 0 8
5.9836 -1.7468 -2.5717 0.3780 0 8
6.1247 -1.7280 -2.6255 0.3702 0 8
6.2718 -1.7084 -2.6818 0.3624 0 8
6.3432 -1.6663 -2.7058 0.3814 0 7
6.3580 -1.6088 -2.7058 0.3814 0 7
6.3723 -1.5512 -2.7058 0.3814 0 7
6.3860 -1.4935 -2.7058 0.3814 0 7
6.3993 -1.4357 -2.7058 0.3814 0 7
6.4120 -1.3777 -2.7058 0.3814 0 7
6.4242 -1.3196 -2.7058 0.3814 0 7
6.4359 -1.2615 -2.7058 0.3814 0 7
6.4471 -1.2032 -2.7058 0.3814 0 6
6.4577 -1.1448 -2.7058 0.3814 0 6
6.4678 -1.0863 -2.7058 0.3814 0 6
6.4773 -1.0277 -2.7058 0.3814 0 6
6.4864 -0.9691 -2.7058 0.3814 0 6
6.4949 -0.9104 -2.7058 0.3814 0 6
6.5029 -0.8516 -2.7058 0.3814 0 6
6.5103 -0.7927 -2.7058 0.3814 0 6
6.5172 -0.7337 -2.7058 0.3814 0 6
6.5236 -0.6747 -2.7058 0.3814 0 7
6.5294 -0.6157 -2.7058 0.3814 0 7
6.5347 -0.5566 -2.7058 0.3814 0 7
6.5395 -0.4974 -2.7058 0.3814 0 7
6.5437 -0.4382 -2.7058 0.3814 0 7
6.5474 -0.3790 -2.7058 0.3814 0 7
6.5506 -0.3197 -2.7058 0.3814 0 7
6.5532 -0.2605 -2.7058 0.3814 0 7
6.5553 -0.2012 -2.7058 0.3814 0 7
6.5568 -0.1418 -2.7058 0.3814 0 6
6.5579 -0.0825 -2.7058 0.3814 0 6
6.5583 -0.0232 -2.7058 0.3814 0 6
6.5583 0.0362 -2.7058 0.3814 0 6
6.5577 0.0955 -2.7058 0.3814 0 6
6.5566 0.1549 -2.7058 0.3814 0 6
6.5549 0.2142 -2.7058 0.3814 0 6
6.5527 0.2735 -2.7058 0.3814 0 6
6.5499 0.3328 -2.7058 0.3814 0 7
6.5466 0.3920 -2.7058 0.3814 0 7
6.5428 0.4512 -2.7058 0.3814 0 7
6.5385 0.5104 -2.7058 0.3814 0 7
6.5336 0.5696 -2.7058 0.3814 0 7
6.5282 0.6287 -2.7058 0.3814 0 7
6.5222 0.6877 -2.7058 0.3814 0 7
6.5157 0.7467 -2.7058 0.3814 0 7
6.5087 0.8056 -2.7058 0.3814 0 7
6.5012 0.8645 -2.7058 0.3814 0 6
6.4931 0.9233 -2.7058 0.3814 0 6
6.4845 0.9820 -2.7058 0.3814 0 6
6.4753 1.0406 -2.7058 0.3814 0 6
6.4656 1.0992 -2.7058 0.3814 0 6
6.4554 1.1576 -2.7058 0.3814 0 6
6.4447 1.2160 -2.7058 0.3814 0 6
6.4334 1.2742 -2.7058 0.3814 0 6
6.4216 1.3324 -2.7058 0.3814 0 6
6.4093 1.3905 -2.7058 0.3814 0 7
6.3965 1.4484 -2.7058 0.3814 0 7
6.3831 1.5062 -2.7058 0.3814 0 7
6.3692 1.5639 -2.7058 0.3814 0 7
6.3548 1.6215 -2.7058 0.3814 0 7
6.3398 1.6789 -2.7058 0.3814 0 7
6.3244 1.7362 -2.7058 0.3814 0 7
6.3084 1.7934 -2.7058 0.3814 0 7
6.2919 1.8504 -2.7058 0.3814 0 7
6.2749 1.9072 -2.7058 0.3814 0 6
6.2574 1.9639 -2.7058 0.3814 0 6
6.2394 2.0205 -2.7058 0.3814 0 6
6.2209 2.0768 -2.7058 0.3814 0 6
6.2018 2.1330 -2.7058 0.3814 0 6
6.1823 2.1891 -2.7058 0.3814 0 6
6.1622 2.2449 -2.7058 0.3814 0 6
6.1416 2.3006 -2.7058 0.3814 0 6
6.1206 2.3561 -2.7058 0.3814 0 6
6.0990 2.4113 -2.7058 0.3814 0 7
6.0769 2.4664 -2.7058 0.3814 0 7
6.0544 2.5213 -2.7058 0.3814 0 7
6.0313 2.5760 -2.7058 0.3814 0 7
6.0077 2.6305 -2.7058 0.3814 0 7
5.9837 2.6847 -2.7058 0.3814 0 7
5.9592 2.7387 -2.7058 0.3814 0 7
5.9341 2.7926 -2.7058 0.3814 0 7
5.9086 2.8461 -2.7058 0.3814 0 7
5.8826 2.8995 -2.7058 0.3814 0 6
5.8562 2.9526 -2.7058 0.3814 0 6
5.8292 3.0055 -2.7058 0.3814 0 6
5.8018 3.0581 -2.7058 0.3814 0 6
5.7739 3.1105 -2.7058 0.3814 0 6
5.7455 3.1626 -2.7058 0.3814 0 6
5.7166 3.2144 -2.7058 0.3814 0 6
5.6873 3.2660 -2.7058 0.3814 0 6
5.6575 3.3173 -2.7058 0.3814 0 6
5.6273 3.3684 -2.7058 0.3814 0 6
5.5966 3.4192 -2.7058 0.3814 0 7
5.5654 3.4697 -2.7058 0.3814 0 7
5.5338 3.5199 -2.7058 0.3814 0 7
5.5017 3.5698 -2.7058 0.3814 0 7
5.4692 3.6195 -2.7058 0.3814 0 7
5.4362 3.6688 -2.7058 0.3814 0 6
5.4028 3.7178 -2.7058 0.3814 0 6
5.3689 3.7666 -2.7058 0.3814 0 6
5.3346 3.8150 -2.7058 0.3814 0 6
5.2999 3.8631 -2.7058 0.3814 0 6
5.2647 3.9109 -2.7058 0.3814 0 6
5.2291 3.9584 -2.7058 0.3814 0 6
5.1931 4.0055 -2.7058 0.3814 0 6
5.1566 4.0524 -2.7058 0.3814 0 6
5.1197 4.0989 -2.7058 0.3814 0 6
5.0824 4.1450 -2.7058 0.3814 0 6
5.0447 4.1908 -2.7058 0.3814 0 7
5.0066 4.2363 -2.7058 0.3814 0 7
4.9681 4.2814 -2.7058 0.3814 0 7
4.9291 4.3262 -2.7058 0.3814 0 7
4.8898 4.3706 -2.7058 0.3814 0 7
4.8500 4.4147 -2.7058 0.3814 0 7
4.8099 4.4584 -2.7058 0.3814 0 7
4.7693 4.5018 -2.7058 0.3814 0 7
4.7284 4.5447 -2.7058 0.3814 0 7
4.6871 4.5873 -2.7058 0.3814 0 7
4.6454 4.6295 -2.7058 0.3814 0 7
4.6033 4.6714 -2.7058 0.3814 0 7
4.5609 4.7129 -2.7058 0.3814 0 7
4.5180 4.7539 -2.7058 0.3814 0 7
4.4748 4.7946 -2.7058 0.3814 0 7
4.4313 4.8349 -2.7058 0.3814 0 7
4.3873 4.8748 -2.7058 0.3814 0 7
4.3430 4.9143 -2.7058 0.3814 0 7
4.2984 4.9534 -2.7058 0.3814 0 7
4.2534 4.9921 -2.7058 0.3814 0 7
4.2081 5.0304 -2.7058 0.3814 0 7
4.1624 5.0682 -2.7058 0.3814 0 7
4.1164 5.1057 -2.7058 0.3814 0 7
4.0700 5.1427 -2.7058 0.3814 0 7
4.0233 5.1793 -2.7058 0.3814 0 7
3.9762 5.2155 -2.7058 0.3814 0 7
3.9289 5.2513 -2.7058 0.3814 0 7
3.8812 5.2866 -2.7058 0.3814 0 7
3.8332 5.3215 -2.7058 0.3814 0 7
3.7849 5.3560 -2.7058 0.3814 0 7
3.7363 5.3900 -2.7058 0.3814 0 7
3.6874 5.4236 -2.7058 0.3814 0 6
3.6381 5.4568 -2.7058 0.3814 0 6
3.5886 5.4895 -2.7058 0.3814 0 6
3.5388 5.5217 -2.7058 0.3814 0 6
3.4887 5.5535 -2.7058 0.3814 0 6
3.4383 5.5848 -2.7058 0.3814 0 6
3.3876 5.6157 -2.7058 0.3814 0 6
3.3367 5.6461 -2.7058 0.3814 0 6
3.2855 5.6761 -2.7058 0.3814 0 6
3.2340 5.7056 -2.7058 0.3814 0 7
3.1822 5.7346 -2.7058 0.3814 0 7
3.1302 5.7632 -2.7058 0.3814 0 7
3.0779 5.7913 -2.7058 0.3814 0 7
3.0254 5.8189 -2.7058 0.3814 0 7
2.9726 5.8460 -2.7058 0.3814 0 7
2.9196 5.8727 -2.7058 0.3814 0 7
2.8663 5.8989 -2.7058 0.3814 0 7
2.8129 5.9246 -2.7058 0.3814 0 7
2.7591 5.9498 -2.7058 0.3814 0 7
2.7052 5.9745 -2.7058 0.3814 0 7
2.6510 5.9987 -2.7058 0.3814 0 7
2.5966 6.0225 -2.7058 0.3814 0 7
2.5420 6.0457 -2.7058 0.3814 0 7
2.4872 6.0685 -2.7058 0.3814 0 7
2.4322 6.0907 -2.7058 0.3814 0 7
2.3770 6.1125 -2.7058 0.3814 0 7
2.3216 6.1337 -2.7058 0.3814 0 7
6.1611 0.0000 -2.7058 0.4021 0 6
6.1608 0.0557 -2.7058 0.4021 0 6
6.1601 0.1115 -2.7058 0.4021 0 6
6.1588 0.1672 -2.7058 0.4021 0 6
6.1570 0.2229 -2.7058 0.4021 0 6
6.1548 0.2786 -2.7058 0.4021 0 6
6.1520 0.3343 -2.7058 0.4021 0 7
6.1487 0.3900 -2.7058 0.4021 0 7
6.1449 0.4456 -2.7058 0.4021 0 7
6.1407 0.5012 -2.7058 0.4021 0 7
6.1359 0.5567 -2.7058 0.4021 0 7
6.1306 0.6122 -2.7058 0.4021 0 7
6.1248 0.6677 -2.7058 0.4021 0 7
6.1185 0.7231 -2.7058 0.4021 0 7
6.1117 0.7784 -2.7058 0.4021 0 7
6.1044 0.8337 -2.7058 0.4021 0 6
6.0966 0.8889 -2.7058 0.4021 0 6
6.0883 0.9440 -2.7058 0.4021 0 6
6.0795 0.9990 -2.7058 0.4021 0 6
6.0702 1.0540 -2.7058 0.4021 0 6
6.0604 1.1089 -2.7058 0.4021 0 6
6.0502 1.1637 -2.7058 0.4021 0 6
6.0394 1.2184 -2.7058 0.4021 0 6
6.0281 1.2730 -2.7058 0.4021 0 6
6.0164 1.3275 -2.7058 0.4021 0 7
6.0041 1.3819 -2.7058 0.4021 0 7
5.9914 1.4361 -2.7058 0.4021 0 7
5.9781 1.4903 -2.7058 0.4021 0 7
5.9644 1.5443 -2.7058 0.4021 0 7
5.9502 1.5982 -2.7058 0.4021 0 7
5.9355 1.6520 -2.7058 0.4021 0 7
5.9203 1.7056 -2.7058 0.4021 0 7
5.9046 1.7591 -2.7058 0.4021 0 7
5.8884 1.8125 -2.7058 0.4021 0 7
5.8718 1.8657 -2.7058 0.4021 0 6
5.8547 1.9187 -2.7058 0.4021 0 6
5.8371 1.9716 -2.7058 0.4021 0 6
5.8190 2.0244 -2.7058 0.4021 0 6
5.8004 2.0769 -2.7058 0.4021 0 6
5.7814 2.1293 -2.7058 0.4021 0 6
5.7619 2.1816 -2.7058 0.4021 0 6
5.7419 2.2336 -2.7058 0.4021 0 6
5.7215 2.2855 -2.7058 0.4021 0 6
5.7006 2.3372 -2.7058 0.4021 0 6
5.6792 2.3886 -2.7058 0.4021 0 7
5.6574 2.4399 -2.7058 0.4021 0 7
5.6350 2.4910 -2.7058 0.4021 0 7
5.6123 2.5419 -2.7058 0.4021 0 7
5.5890 2.5926 -2.7058 0.4021 0 7
5.5654 2.6431 -2.7058 0.4021 0 7
5.5412 2.6933 -2.7058 0.4021 0 7
5.5166 2.7433 -2.7058 0.4021 0 7
5.4916 2.7931 -2.7058 0.4021 0 6
5.4661 2.8427 -2.7058 0.4021 0 6
5.4401 2.8920 -2.7058 0.4021 0 6
5.4137 2.9412 -2.7058 0.4021 0 6
5.3869 2.9900 -2.7058 0.4021 0 6
5.3596 3.0386 -2.7058 0.4021 0 6
5.3319 3.0870 -2.7058 0.4021 0 6
5.3037 3.1351 -2.7058 0.4021 0 6
5.2752 3.1830 -2.7058 0.4021 0 6
5.2462 3.2306 -2.7058 0.4021 0 6
5.2167 3.2779 -2.7058 0.4021 0 6
5.1868 3.3250 -2.7058 0.4021 0 6
5.1565 3.3718 -2.7058 0.4021 0 6
5.1258 3.4183 -2.7058 0.4021 0 6
5.0947 3.4646 -2.7058 0.4021 0 7
5.0631 3.5105 -2.7058 0.4021 0 7
5.0311 3.5562 -2.7058 0.4021 0 7
4.9987 3.6016 -2.7058 0.4021 0 7
4.9660 3.6466 -2.7058 0.4021 0 7
4.9328 3.6914 -2.7058 0.4021 0 7
4.8992 3.7359 -2.7058 0.4021 0 7
4.8652 3.7801 -2.7058 0.4021 0 7
4.8308 3.8240 -2.7058 0.4021 0 7
4.7960 3.8675 -2.7058 0.4021 0 7
4.7608 3.9107 -2.7058 0.4021 0 7
4.7252 3.9537 -2.7058 0.4021 0 7
4.6892 3.9963 -2.7058 0.4021 0 7
4.6529 4.0385 -2.7058 0.4021 0 7
4.6161 4.0805 -2.7058 0.4021 0 7
4.5790 4.1221 -2.7058 0.4021 0 7
4.5415 4.1633 -2.7058 0.4021 0 7
4.5037 4.2042 -2.7058 0.4021 0 7
4.4654 4.2448 -2.7058 0.4021 0 7
4.4269 4.2851 -2.7058 0.4021 0 7
4.3879 4.3249 -2.7058 0.4021 0 7
4.3486 4.3645 -2.7058 0.4021 0 7
4.3089 4.4036 -2.7058 0.4021 0 7
4.2689 4.4424 -2.7058 0.4021 0 7
4.2285 4.4809 -2.7058 0.4021 0 7
4.1878 4.5190 -2.7058 0.4021 0 7
4.1468 4.5567 -2.7058 0.4021 0 7
4.1054 4.5940 -2.7058 0.4021 0 7
4.0636 4.6310 -2.7058 0.4021 0 7
4.0216 4.6675 -2.7058 0.4021 0 7
3.9792 4.7037 -2.7058 0.4021 0 7
3.9364 4.7396 -2.7058 0.4021 0 7
3.8934 4.7750 -2.7058 0.4021 0 7
3.8500 4.8100 -2.7058 0.4021 0 7
3.8063 4.8446 -2.7058 0.4021 0 7
3.7623 4.8789 -2.7058 0.4021 0 7
3.7180 4.9127 -2.7058 0.4021 0 6
3.6734 4.9462 -2.7058 0.4021 0 6
3.6285 4.9792 -2.7058 0.4021 0 6
3.5833 5.0118 -2.7058 0.4021 0 6
3.5378 5.0441 -2.7058 0.4021 0 6
3.4921 5.0759 -2.7058 0.4021 0 6
3.4460 5.1073 -2.7058 0.4021 0 6
3.3996 5.1382 -2.7058 0.4021 0 6
3.3530 5.1688 -2.7058 0.4021 0 7
3.3061 5.1989 -2.7058 0.4021 0 7
3.2589 5.2286 -2.7058 0.4021 0 7
3.2115 5.2579 -2.7058 0.4021 0 7
3.1638 5.2867 -2.7058 0.4021 0 7
3.1158 5.3151 -2.7058 0.4021 0 7
3.0676 5.3431 -2.7058 0.4021 0 7
3.0191 5.3706 -2.7058 0.4021 0 7
2.9704 5.3977 -2.7058 0.4021 0 7
2.9214 5.4244 -2.7058 0.4021 0 7
2.8722 5.4506 -2.7058 0.4021 0 7
2.8228 5.4764 -2.7058 0.4021 0 7
2.7731 5.5017 -2.7058 0.4021 0 7
2.7232 5.5266 -2.7058 0.4021 0 7
2.6731 5.5510 -2.7058 0.4021 0 6
2.6228 5.5749 -2.7058 0.4021 0 6
2.5722 5.5984 -2.7058 0.4021 0 6
2.5214 5.6215 -2.7058 0.4021 0 6
2.4705 5.6441 -2.7058 0.4021 0 7
2.4193 5.6662 -2.7058 0.4021 0 7
2.3679 5.6879 -2.7058 0.4021 0 7
2.3164 5.7091 -2.7058 0.4021 0 7
2.2646 5.7298 -2.7058 0.4021 0 7
2.2127 5.7500 -2.7058 0.4021 0 7
2.1606 5.7698 -2.7058 0.4021 0 7
2.1083 5.7891 -2.7058 0.4021 0 7
2.0558 5.8080 -2.7058 0.4021 0 7
2.0032 5.8263 -2.7058 0.4021 0 7
1.9504 5.8442 -2.7058 0.4021 0 7
1.8974 5.8616 -2.7058 0.4021 0 7
1.8443 5.8786 -2.7058 0.4021 0 7
1.7910 5.8950 -2.7058 0.4021 0 7
1.7376 5.9110 -2.7058 0.4021 0 7
1.6841 5.9265 -2.7058 0.4021 0 7
1.6304 5.9414 -2.7058 0.4021 0 7
1.5765 5.9560 -2.7058 0.4021 0 7
1.5226 5.9700 -2.7058 0.4021 0 7
1.4685 5.9835 -2.7058 0.4021 0 7
1.4143 5.9966 -2.7058 0.4021 0 7
1.3600 6.0091 -2.7058 0.4021 0 7
1.3055 6.0212 -2.7058 0.4021 0 7
1.2510 6.0327 -2.7058 0.4021 0 7
1.1964 6.0438 -2.7058 0.4021 0 7
1.1416 6.0544 -2.7058 0.4021 0 7
1.0868 6.0645 -2.7058 0.4021 0 7
1.0319 6.0740 -2.7058 0.4021 0 7
0.9769 6.0831 -2.7058 0.4021 0 7
0.9218 6.0917 -2.7058 0.4021 0 7
0.8667 6.0998 -2.7058 0.4021 0 7
0.8114 6.1074 -2.7058 0.4021 0 7
0.7561 6.1145 -2.7058 0.4021 0 7
0.7008 6.1211 -2.7058 0.4021 0 7
0.6454 6.1272 -2.7058 0.4021 0 7
0.5899 6.1328 -2.7058 0.4021 0 7
0.5344 6.1379 -2.7058 0.4021 0 7
0.4788 6.1424 -2.7058 0.4021 0 7
0.4232 6.1465 -2.7058 0.4021 0 7
0.3676 6.1501 -2.7058 0.4021 0 7
0.3119 6.1532 -2.7058 0.4021 0 7
0.2562 6.1557 -2.7058 0.4021 0 7
0.2005 6.1578 -2.7058 0.4021 0 7
0.1448 6.1594 -2.7058 0.4021 0 7
0.0891 6.1604 -2.7058 0.4021 0 7
0.0333 6.1610 -2.7058 0.4021 0 7
-0.0224 6.1610 -2.7058 0.4021 0 7
-0.0782 6.1606 -2.7058 0.4021 0 7
-0.1339 6.1596 -2.7058 0.4021 0 7
-0.1897 6.1582 -2.7058 0.4021 0 7
-0.2454 6.1562 -2.7058 0.4021 0 7
-0.3011 6.1537 -2.7058 0.4021 0 7
-0.3567 6.1507 -2.7058 0.4021 0 7
-0.4124 6.1473 -2.7058 0.4021 0 7
-0.4680 6.1433 -2.7058 0.4021 0 7
-0.5235 6.1388 -2.7058 0.4021 0 7
-0.5791 6.1338 -2.7058 0.4021 0 7
-0.6345 6.1283 -2.7058 0.4021 0 7
-0.6900 6.1223 -2.7058 0.4021 0 7
-0.7453 6.1158 -2.7058 0.4021 0 7
-0.8006 6.1088 -2.7058 0.4021 0 7
-0.8559 6.1013 -2.7058 0.4021 0 7
-0.9111 6.0933 -2.7058 0.4021 0 7
-0.9662 6.0849 -2.7058 0.4021 0 7
-1.0212 6.0759 -2.7058 0.4021 0 7
-1.0761 6.0664 -2.7058 0.4021 0 7
-1.1310 6.0564 -2.7058 0.4021 0 7
-1.1857 6.0459 -2.7058 0.4021 0 7
-1.2404 6.0349 -2.7058 0.4021 0 7
-1.2949 6.0235 -2.7058 0.4021 0 7
-1.3494 6.0115 -2.7058 0.4021 0 7
-1.4037 5.9990 -2.7058 0.4021 0 7
-1.4579 5.9861 -2.7058 0.4021 0 7
-1.5120 5.9727 -2.7058 0.4021 0 7
-1.5660 5.9587 -2.7058 0.4021 0 7
-1.6199 5.9443 -2.7058 0.4021 0 7
-1.6736 5.9294 -2.7058 0.4021 0 7
-1.7272 5.9140 -2.7058 0.4021 0 7
-1.7806 5.8982 -2.7058 0.4021 0 7
-1.8339 5.8818 -2.7058 0.4021 0 7
-1.8871 5.8650 -2.7058 0.4021 0 7
-1.9400 5.8477 -2.7058 0.4021 0 7
-1.9929 5.8299 -2.7058 0.4021 0 7
-2.0456 5.8116 -2.7058 0.4021 0 7
-2.0981 5.7928 -2.7058 0.4021 0 7
-2.1504 5.7736 -2.7058 0.4021 0 7
-2.2025 5.7539 -2.7058 0.4021 0 7
-2.2545 5.7338 -2.7058 0.4021 0 7
-2.3063 5.7131 -2.7058 0.4021 0 7
-2.3579 5.6920 -2.7058 0.4021 0 7
-2.4093 5.6705 -2.7058 0.4021 0 7
-2.4605 5.6484 -2.7058 0.4021 0 7
-2.5115 5.6259 -2.7058 0.4021 0 7
-2.5623 5.6030 -2.7058 0.4021 0 7
-2.6129 5.5796 -2.7058 0.4021 0 7
-2.6633 5.5557 -2.7058 0.4021 0 7
-2.7135 5.5314 -2.7058 0.4021 0 7
-2.7634 5.5066 -2.7058 0.4021 0 7
-2.8131 5.4814 -2.7058 0.4021 0 7
-2.8626 5.4557 -2.7058 0.4021 0 7
-2.9118 5.4296 -2.7058 0.4021 0 7
-2.9608 5.4030 -2.7058 0.4021 0 7
-3.0096 5.3760 -2.7058 0.4021 0 7
-3.0581 5.3485 -2.7058 0.4021 0 7
-3.1064 5.3206 -2.7058 0.4021 0 7
-3.1544 5.2923 -2.7058 0.4021 0 7
-3.2022 5.2635 -2.7058 0.4021 0 6
-3.2497 5.2344 -2.7058 0.4021 0 6
-3.2969 5.2047 -2.7058 0.4021 0 6
-3.3439 5.1747 -2.7058 0.4021 0 6
-3.3906 5.1442 -2.7058 0.4021 0 7
-3.4370 5.1133 -2.7058 0.4021 0 7
-3.4831 5.0820 -2.7058 0.4021 0 7
-3.5289 5.0503 -2.7058 0.4021 0 7
-3.5745 5.0182 -2.7058 0.4021 0 7
-3.6197 4.9856 -2.7058 0.4021 0 7
-3.6647 4.9527 -2.7058 0.4021 0 7
-3.7094 4.9193 -2.7058 0.4021 0 7
-3.7537 4.8855 -2.7058 0.4021 0 7
-3.7978 4.8514 -2.7058 0.4021 0 7
-3.8415 4.8168 -2.7058 0.4021 0 7
-3.8849 4.7819 -2.7058 0.4021 0 7
-3.9281 4.7465 -2.7058 0.4021 0 7
-3.9708 4.7108 -2.7058 0.4021 0 7
-4.0133 4.6746 -2.7058 0.4021 0 7
-4.0554 4.6381 -2.7058 0.4021 0 7
-4.0972 4.6013 -2.7058 0.4021 0 7
-4.1387 4.5640 -2.7058 0.4021 0 7
-4.1798 4.5264 -2.7058 0.4021 0 7
-4.2206 4.4883 -2.7058 0.4021 0 7
-4.2611 4.4500 -2.7058 0.4021 0 7
-4.3012 4.4112 -2.7058 0.4021 0 7
-4.3409 4.3721 -2.7058 0.4021 0 7
-4.3803 4.3327 -2.7058 0.4021 0 7
-4.4193 4.2929 -2.7058 0.4021 0 7
-4.4580 4.2527 -2.7058 0.4021 0 7
-4.4963 4.2122 -2.7058 0.4021 0 7
-4.5342 4.1713 -2.7058 0.4021 0 7
-4.5717 4.1301 -2.7058 0.4021 0 7
-4.6089 4.0886 -2.7058 0.4021 0 7
-4.6457 4.0467 -2.7058 0.4021 0 7
-4.6822 4.0045 -2.7058 0.4021 0 7
-4.7182 3.9620 -2.7058 0.4021 0 7
-4.7539 3.9192 -2.7058 0.4021 0 7
-4.7891 3.8760 -2.7058 0.4021 0 7
-4.8240 3.8325 -2.7058 0.4021 0 7
-4.8585 3.7887 -2.7058 0.4021 0 7
-4.8926 3.7446 -2.7058 0.4021 0 7
-4.9263 3.7001 -2.7058 0.4021 0 7
-4.9595 3.6554 -2.7058 0.4021 0 7
-4.9924 3.6104 -2.7058 0.4021 0 7
-5.0249 3.5651 -2.7058 0.4021 0 7
-5.0569 3.5195 -2.7058 0.4021 0 7
-5.0886 3.4735 -2.7058 0.4021 0 7
-5.1198 3.4274 -2.7058 0.4021 0 7
-5.1506 3.3809 -2.7058 0.4021 0 7
-5.1810 3.3342 -2.7058 0.4021 0 7
-5.2109 3.2871 -2.7058 0.4021 0 7
-5.2404 3.2399 -2.7058 0.4021 0 7
-5.2695 3.1923 -2.7058 0.4021 0 7
-5.2982 3.1445 -2.7058 0.4021 0 7
-5.3264 3.0964 -2.7058 0.4021 0 7
-5.3542 3.0481 -2.7058 0.4021 0 7
-5.3816 2.9995 -2.7058 0.4021 0 7
-5.4085 2.9507 -2.7058 0.4021 0 7
-5.4350 2.9017 -2.7058 0.4021 0 7
-5.4610 2.8524 -2.7058 0.4021 0 7
-5.4866 2.8028 -2.7058 0.4021 0 7
-5.5118 2.7531 -2.7058 0.4021 0 7
-5.5364 2.7031 -2.7058 0.4021 0 7
-5.5607 2.6529 -2.7058 0.4021 0 7
-5.5845 2.6024 -2.7058 0.4021 0 7
-5.6078 2.5518 -2.7058 0.4021 0 7
-5.6306 2.5010 -2.7058 0.4021 0 7
-5.6530 2.4499 -2.7058 0.4021 0 7
-5.6750 2.3987 -2.7058 0.4021 0 7
-5.6964 2.3472 -2.7058 0.4021 0 7
-5.7174 2.2956 -2.7058 0.4021 0 7
-5.7380 2.2438 -2.7058 0.4021 0 7
-5.7581 2.1917 -2.7058 0.4021 0 7
-5.7777 2.1395 -2.7058 0.4021 0 7
-5.7968 2.0872 -2.7058 0.4021 0 7
-5.8154 2.0346 -2.7058 0.4021 0 7
-5.8336 1.9819 -2.7058 0.4021 0 7
-5.8513 1.9291 -2.7058 0.4021 0 7
-5.8685 1.8761 -2.7058 0.4021 0 7
-5.8852 1.8229 -2.7058 0.4021 0 7
-5.9015 1.7696 -2.7058 0.4021 0 7
-5.9173 1.7161 -2.7058 0.4021 0 7
-5.9325 1.6625 -2.7058 0.4021 0 7
-5.9473 1.6087 -2.7058 0.4021 0 7
-5.9617 1.5548 -2.7058 0.4021 0 6
-5.9755 1.5008 -2.7058 0.4021 0 6
-5.9888 1.4467 -2.7058 0.4021 0 7
-6.0017 1.3925 -2.7058 0.4021 0 7
-6.0140 1.3381 -2.7058 0.4021 0 7
-6.0259 1.2836 -2.7058 0.4021 0 7
-6.0372 1.2290 -2.7058 0.4021 0 7
-6.0481 1.1744 -2.7058 0.4021 0 7
-6.0585 1.1196 -2.7058 0.4021 0 7
-6.0684 1.0647 -2.7058 0.4021 0 7
-6.0778 1.0098 -2.7058 0.4021 0 7
-6.0867 0.9547 -2.7058 0.4021 0 7
-6.0951 0.8996 -2.7058 0.4021 0 7
-6.1029 0.8444 -2.7058 0.4021 0 7
-6.1103 0.7892 -2.7058 0.4021 0 7
-6.1172 0.7339 -2.7058 0.4021 0 7
-6.1236 0.6785 -2.7058 0.4021 0 7
-6.1295 0.6230 -2.7058 0.4021 0 7
-6.1349 0.5676 -2.7058 0.4021 0 7
-6.1398 0.5120 -2.7058 0.4021 0 7
-6.1441 0.4565 -2.7058 0.4021 0 7
-6.1480 0.4008 -2.7058 0.4021 0 7
-6.1514 0.3452 -2.7058 0.4021 0 7
-6.1543 0.2895 -2.7058 0.4021 0 7
-6.1566 0.2338 -2.7058 0.4021 0 7
-6.1585 0.1781 -2.7058 0.4021 0 7
-6.1599 0.1224 -2.7058 0.4021 0 7
-6.1607 0.0666 -2.7058 0.4021 0 7
-6.1611 0.0109 -2.7058 0.4021 0 7
-6.1609 -0.0449 -2.7058 0.4021 0 7
-6.1603 -0.1006 -2.7058 0.4021 0 7
-6.1591 -0.1563 -2.7058 0.4021 0 7
-6.1574 -0.2121 -2.7058 0.4021 0 7
-6.1553 -0.2678 -2.7058 0.4021 0 7
-6.1526 -0.3235 -2.7058 0.4021 0 7
-6.1494 -0.3791 -2.7058 0.4021 0 7
-6.1457 -0.4347 -2.7058 0.4021 0 7
-6.1415 -0.4903 -2.7058 0.4021 0 7
-6.1369 -0.5459 -2.7058 0.4021 0 7
-6.1317 -0.6014 -2.7058 0.4021 0 7
-6.1260 -0.6569 -2.7058 0.4021 0 7
-6.1198 -0.7123 -2.7058 0.4021 0 7
-6.1131 -0.7676 -2.7058 0.4021 0 7
-6.1059 -0.8229 -2.7058 0.4021 0 7
-6.0982 -0.8781 -2.7058 0.4021 0 7
-6.0900 -0.9332 -2.7058 0.4021 0 7
-6.0813 -0.9883 -2.7058 0.4021 0 7
-6.0721 -1.0433 -2.7058 0.4021 0 7
