ply
format ascii 1.0
element vertex 1408
property float32 x
property float32 y
property float32 z
property float32 CosAngle
property uint32 ObjIdx
property uint32 ObjTag
end_header
-1.1511 -5.7814 -2.5888 0.4021 0 14
-0.9402 -4.9561 -2.2154 0.6507 0 19
-0.8874 -4.9205 -2.1958 0.6565 0 19
-0.8417 -4.9213 -2.1927 0.9155 0 19
-0.7973 -4.9297 -2.1931 0.9153 0 19
-0.7584 -4.9746 -2.2099 0.6246 0 19
-0.8356 -5.8353 -2.5888 0.4021 0 14
-0.7828 -5.8426 -2.5888 0.4021 0 14
-0.7299 -5.8495 -2.5888 0.4021 0 14
-0.6769 -5.8559 -2.5888 0.4021 0 14
-0.6239 -5.8617 -2.5888 0.4021 0 14
-0.5708 -5.8671 -2.5888 0.4021 0 14
-0.5177 -5.8721 -2.5888 0.4021 0 14
-0.4646 -5.8765 -2.5888 0.4021 0 14
-0.4114 -5.8805 -2.5888 0.4021 0 14
-0.3581 -5.8840 -2.5888 0.4021 0 14
-0.3049 -5.8870 -2.5888 0.4021 0 14
-0.2516 -5.8895 -2.5888 0.4021 0 14
-0.1983 -5.8915 -2.5888 0.4021 0 14
-0.1449 -5.8931 -2.5888 0.4021 0 14
-0.0916 -5.8941 -2.5888 0.4021 0 14
-0.0383 -5.8947 -2.5888 0.4021 0 14
0.0151 -5.8948 -2.5888 0.4021 0 14
0.0684 -5.8945 -2.5888 0.4021 0 14
0.1218 -5.8936 -2.5888 0.4021 0 14
0.1751 -5.8923 -2.5888 0.4021 0 14
0.2284 -5.8904 -2.5888 0.4021 0 14
0.2817 -5.8881 -2.5888 0.4021 0 14
0.3350 -5.8853 -2.5888 0.4021 0 14
0.3882 -5.8821 -2.5888 0.4021 0 14
0.4414 -5.8783 -2.5888 0.4021 0 14
0.4946 -5.8741 -2.5888 0.4021 0 14
0.4362 -4.6737 -2.0615 0.8036 0 19
0.4761 -4.6468 -2.0514 0.8076 0 19
0.5171 -4.6327 -2.0472 0.8755 0 19
0.5606 -4.6409 -2.0530 0.8730 0 19
0.6069 -4.6688 -2.0676 0.4149 0 19
0.8127 -5.8386 -2.5888 0.4021 0 14
0.8655 -5.8310 -2.5888 0.4021 0 14
0.9182 -5.8229 -2.5888 0.4021 0 14
0.9709 -5.8143 -2.5888 0.4021 0 14
1.0235 -5.8053 -2.5888 0.4021 0 14
1.0760 -5.7958 -2.5888 0.4021 0 14
1.1284 -5.7859 -2.5888 0.4021 0 14
1.1807 -5.7754 -2.5888 0.4021 0 14
0.9945 -4.6498 -2.0883 0.9156 0 19
1.0289 -4.6066 -2.0729 0.3654 0 19
1.0726 -4.6059 -2.0769 0.3999 0 19
1.1157 -4.6019 -2.0796 0.3994 0 19
1.1588 -4.5975 -2.0822 0.3989 0 19
1.2019 -4.5927 -2.0849 0.3984 0 19
1.2450 -4.5876 -2.0876 0.3979 0 19
1.2860 -4.5745 -2.0869 0.4053 0 19
1.3257 -4.5569 -2.0842 0.4058 0 19
1.3652 -4.5391 -2.0816 0.4063 0 19
1.4174 -4.5626 -2.0982 0.9112 0 19
1.4600 -4.5538 -2.1002 0.9104 0 19
1.5027 -4.5450 -2.1023 0.9095 0 19
1.9010 -5.5799 -2.5888 0.4021 0 14
1.9514 -5.5625 -2.5888 0.4021 0 14
2.0017 -5.5446 -2.5888 0.4021 0 14
2.0518 -5.5263 -2.5888 0.4021 0 14
2.0490 -5.3694 -2.5240 0.1355 0 9
2.0657 -5.2696 -2.4857 0.4021 0 9
1.7933 -4.4554 -2.1092 0.4981 0 19
1.8135 -4.3906 -2.0863 0.8971 0 19
1.8499 -4.3662 -2.0825 0.8988 0 19
1.8881 -4.3464 -2.0811 0.7579 0 19
1.9393 -4.3561 -2.0941 0.7532 0 19
2.2909 -5.0231 -2.4246 0.8951 0 9
2.3409 -5.0121 -2.4294 0.8933 0 9
2.3912 -5.0011 -2.4345 0.8915 0 9
2.4416 -4.9900 -2.4397 0.8896 0 9
2.4923 -4.9789 -2.4452 0.8876 0 9
2.5431 -4.9677 -2.4509 0.8855 0 9
2.5943 -4.9565 -2.4569 0.8834 0 9
2.6457 -4.9452 -2.4631 0.8811 0 9
2.6973 -4.9339 -2.4695 0.8788 0 9
2.7492 -4.9225 -2.4761 0.8765 0 9
2.8014 -4.9111 -2.4830 0.8741 0 9
2.8488 -4.8908 -2.4857 0.4021 0 9
2.8930 -4.8648 -2.4857 0.4021 0 9
2.9369 -4.8384 -2.4857 0.4021 0 9
2.9834 -4.8162 -2.4881 0.8950 0 9
3.0335 -4.7996 -2.4936 0.8930 0 9
3.0857 -4.7857 -2.5008 0.8580 0 9
3.1396 -4.7739 -2.5093 0.8550 0 9
3.1939 -4.7620 -2.5182 0.8520 0 9
3.2486 -4.7500 -2.5273 0.8490 0 9
3.3036 -4.7379 -2.5366 0.8458 0 9
3.4153 -4.8047 -2.5888 0.4021 0 14
3.4586 -4.7736 -2.5888 0.4021 0 14
3.5017 -4.7421 -2.5888 0.4021 0 14
3.5444 -4.7102 -2.5888 0.4021 0 14
3.1781 -4.1448 -2.2938 0.6859 0 19
3.2028 -4.0996 -2.2847 0.9133 0 19
3.2419 -4.0732 -2.2863 0.9127 0 19
3.2979 -4.0675 -2.2997 0.5924 0 19
3.7539 -4.5451 -2.5888 0.4021 0 14
3.7948 -4.5109 -2.5888 0.4021 0 14
3.8355 -4.4764 -2.5888 0.4021 0 14
3.8759 -4.4415 -2.5888 0.4021 0 14
3.9159 -4.4063 -2.5888 0.4021 0 14
3.9556 -4.3706 -2.5888 0.4021 0 14
3.9950 -4.3347 -2.5888 0.4021 0 14
4.0341 -4.2983 -2.5888 0.4021 0 14
4.0728 -4.2616 -2.5888 0.4021 0 14
4.1112 -4.2246 -2.5888 0.4021 0 14
4.1493 -4.1872 -2.5888 0.4021 0 14
4.1870 -4.1495 -2.5888 0.4021 0 14
4.2244 -4.1115 -2.5888 0.4021 0 14
4.2614 -4.0731 -2.5888 0.4021 0 14
4.2981 -4.0343 -2.5888 0.4021 0 14
4.3344 -3.9953 -2.5888 0.4021 0 14
4.3704 -3.9559 -2.5888 0.4021 0 14
4.4060 -3.9162 -2.5888 0.4021 0 14
4.4413 -3.8761 -2.5888 0.4021 0 14
4.4762 -3.8358 -2.5888 0.4021 0 14
4.5107 -3.7951 -2.5888 0.4021 0 14
4.5449 -3.7541 -2.5888 0.4021 0 14
4.5786 -3.7129 -2.5888 0.4021 0 14
4.6121 -3.6713 -2.5888 0.4021 0 14
4.6451 -3.6294 -2.5888 0.4021 0 14
4.6777 -3.5872 -2.5888 0.4021 0 14
4.7100 -3.5447 -2.5888 0.4021 0 14
4.7419 -3.5019 -2.5888 0.4021 0 14
4.7734 -3.4589 -2.5888 0.4021 0 14
4.8045 -3.4156 -2.5888 0.4021 0 8
4.8352 -3.3719 -2.5888 0.4021 0 8
4.8655 -3.3280 -2.5888 0.4021 0 8
4.8955 -3.2839 -2.5888 0.4021 0 8
4.9514 -3.2568 -2.6027 0.7106 0 8
5.0215 -3.2382 -2.6241 0.7048 0 8
5.0927 -3.2192 -2.6459 0.6990 0 8
5.1651 -3.2000 -2.6684 0.6931 0 8
5.2387 -3.1803 -2.6914 0.6872 0 8
5.3135 -3.1603 -2.7151 0.6812 0 8
5.3784 -3.1333 -2.7336 0.4021 0 7
5.4065 -3.0845 -2.7336 0.4021 0 7
5.4342 -3.0355 -2.7336 0.4021 0 7
5.4615 -2.9862 -2.7336 0.4021 0 7
5.4883 -2.9366 -2.7336 0.4021 0 7
5.5146 -2.8868 -2.7336 0.4021 0 7
5.5405 -2.8368 -2.7336 0.4021 0 7
5.5659 -2.7865 -2.7336 0.4021 0 7
5.5909 -2.7361 -2.7336 0.4021 0 7
5.6155 -2.6854 -2.7336 0.4021 0 7
5.6395 -2.6344 -2.7336 0.4021 0 6
5.6632 -2.5833 -2.7336 0.4021 0 6
5.6863 -2.5319 -2.7336 0.4021 0 6
5.7090 -2.4804 -2.7336 0.4021 0 7
5.7312 -2.4286 -2.7336 0.4021 0 7
5.7529 -2.3766 -2.7336 0.4021 0 7
5.7742 -2.3245 -2.7336 0.4021 0 7
5.7950 -2.2721 -2.7336 0.4021 0 7
5.8153 -2.2196 -2.7336 0.4021 0 7
5.8352 -2.1669 -2.7336 0.4021 0 7
5.8546 -2.1140 -2.7336 0.4021 0 7
5.8734 -2.0609 -2.7336 0.4021 0 7
5.8918 -2.0077 -2.7336 0.4021 0 7
5.9098 -1.9543 -2.7336 0.4021 0 7
5.9272 -1.9007 -2.7336 0.4021 0 7
5.9442 -1.8470 -2.7336 0.4021 0 7
5.9607 -1.7931 -2.7336 0.4021 0 7
5.9766 -1.7391 -2.7336 0.4021 0 7
5.9921 -1.6849 -2.7336 0.4021 0 7
6.0071 -1.6307 -2.7336 0.4021 0 7
6.0216 -1.5762 -2.7336 0.4021 0 7
6.0357 -1.5217 -2.7336 0.4021 0 7
6.0492 -1.4670 -2.7336 0.4021 0 7
6.0622 -1.4122 -2.7336 0.4021 0 7
6.0747 -1.3573 -2.7336 0.4021 0 7
6.0868 -1.3022 -2.7336 0.4021 0 7
6.0983 -1.2471 -2.7336 0.4021 0 7
6.1093 -1.1919 -2.7336 0.4021 0 7
6.1199 -1.1365 -2.7336 0.4021 0 7
6.1299 -1.0811 -2.7336 0.4021 0 7
6.1394 -1.0256 -2.7336 0.4021 0 7
6.1485 -0.9700 -2.7336 0.4021 0 7
6.1570 -0.9143 -2.7336 0.4021 0 7
6.1650 -0.8585 -2.7336 0.4021 0 7
6.1725 -0.8027 -2.7336 0.4021 0 7
6.1796 -0.7468 -2.7336 0.4021 0 7
6.1861 -0.6909 -2.7336 0.4021 0 7
6.1921 -0.6349 -2.7336 0.4021 0 7
6.1975 -0.5788 -2.7336 0.4021 0 7
6.2025 -0.5227 -2.7336 0.4021 0 7
6.2070 -0.4665 -2.7336 0.4021 0 7
6.2110 -0.4103 -2.7336 0.4021 0 7
6.2144 -0.3541 -2.7336 0.4021 0 7
6.2174 -0.2979 -2.7336 0.4021 0 7
6.2198 -0.2416 -2.7336 0.4021 0 7
6.2218 -0.1853 -2.7336 0.4021 0 7
6.2232 -0.1290 -2.7336 0.4021 0 7
6.2241 -0.0726 -2.7336 0.4021 0 7
6.2245 -0.0163 -2.7336 0.4021 0 7
6.2244 0.0400 -2.7336 0.4021 0 7
6.2238 0.0963 -2.7336 0.4021 0 7
6.2226 0.1527 -2.7336 0.4021 0 7
6.2210 0.2090 -2.7336 0.4021 0 7
6.2189 0.2653 -2.7336 0.4021 0 7
6.2162 0.3215 -2.7336 0.4021 0 7
6.2130 0.3778 -2.7336 0.4021 0 7
6.2094 0.4340 -2.7336 0.4021 0 7
6.2052 0.4902 -2.7336 0.4021 0 7
6.2005 0.5463 -2.7336 0.4021 0 7
6.1953 0.6024 -2.7336 0.4021 0 7
6.1896 0.6584 -2.7336 0.4021 0 7
6.1834 0.7144 -2.7336 0.4021 0 7
6.1767 0.7703 -2.7336 0.4021 0 7
6.1694 0.8262 -2.7336 0.4021 0 7
6.1617 0.8820 -2.7336 0.4021 0 7
6.1535 0.9377 -2.7336 0.4021 0 7
6.1447 0.9934 -2.7336 0.4021 0 7
6.1355 1.0489 -2.7336 0.4021 0 7
6.1258 1.1044 -2.7336 0.4021 0 7
6.1155 1.1598 -2.7336 0.4021 0 7
6.1048 1.2151 -2.7336 0.4021 0 7
6.0935 1.2703 -2.7336 0.4021 0 7
6.0818 1.3254 -2.7336 0.4021 0 7
6.0695 1.3804 -2.7336 0.4021 0 7
6.0568 1.4352 -2.7336 0.4021 0 7
6.0435 1.4900 -2.7336 0.4021 0 7
6.0298 1.5446 -2.7336 0.4021 0 7
6.0156 1.5991 -2.7336 0.4021 0 7
6.0009 1.6535 -2.7336 0.4021 0 7
5.9857 1.7078 -2.7336 0.4021 0 7
5.9700 1.7619 -2.7336 0.4021 0 7
5.9538 1.8158 -2.7336 0.4021 0 7
5.9371 1.8696 -2.7336 0.4021 0 7
5.9199 1.9233 -2.7336 0.4021 0 7
5.9023 1.9768 -2.7336 0.4021 0 7
5.8842 2.0301 -2.7336 0.4021 0 7
5.8655 2.0833 -2.7336 0.4021 0 7
5.8465 2.1363 -2.7336 0.4021 0 7
5.8269 2.1891 -2.7336 0.4021 0 7
5.8068 2.2417 -2.7336 0.4021 0 7
5.7863 2.2942 -2.7336 0.4021 0 7
5.7653 2.3464 -2.7336 0.4021 0 7
5.7438 2.3985 -2.7336 0.4021 0 7
5.7219 2.4504 -2.7336 0.4021 0 7
5.6995 2.5021 -2.7336 0.4021 0 7
5.6766 2.5536 -2.7336 0.4021 0 7
5.6533 2.6048 -2.7336 0.4021 0 7
5.6295 2.6559 -2.7336 0.4021 0 7
5.6052 2.7067 -2.7336 0.4021 0 7
5.5805 2.7573 -2.7336 0.4021 0 7
5.5553 2.8077 -2.7336 0.4021 0 7
5.5297 2.8579 -2.7336 0.4021 0 7
5.5036 2.9078 -2.7336 0.4021 0 7
5.4770 2.9575 -2.7336 0.4021 0 7
5.4500 3.0069 -2.7336 0.4021 0 7
5.4226 3.0561 -2.7336 0.4021 0 7
5.3947 3.1051 -2.7336 0.4021 0 7
5.3664 3.1538 -2.7336 0.4021 0 7
5.3376 3.2022 -2.7336 0.4021 0 7
5.3084 3.2504 -2.7336 0.4021 0 7
5.2788 3.2983 -2.7336 0.4021 0 7
5.2488 3.3459 -2.7336 0.4021 0 7
5.2183 3.3933 -2.7336 0.4021 0 7
5.1873 3.4404 -2.7336 0.4021 0 7
5.1560 3.4872 -2.7336 0.4021 0 7
5.1242 3.5337 -2.7336 0.4021 0 7
5.0920 3.5799 -2.7336 0.4021 0 7
5.0594 3.6259 -2.7336 0.4021 0 7
5.0264 3.6715 -2.7336 0.4021 0 7
4.9930 3.7168 -2.7336 0.4021 0 7
4.9591 3.7619 -2.7336 0.4021 0 7
4.9249 3.8066 -2.7336 0.4021 0 7
4.8902 3.8510 -2.7336 0.4021 0 7
4.8552 3.8951 -2.7336 0.4021 0 7
4.8197 3.9389 -2.7336 0.4021 0 7
4.7839 3.9823 -2.7336 0.4021 0 7
4.7477 4.0255 -2.7336 0.4021 0 7
4.7110 4.0683 -2.7336 0.4021 0 7
4.6740 4.1107 -2.7336 0.4021 0 7
4.6366 4.1529 -2.7336 0.4021 0 7
4.5989 4.1946 -2.7336 0.4021 0 7
4.5607 4.2361 -2.7336 0.4021 0 7
4.5222 4.2772 -2.7336 0.4021 0 7
4.4833 4.3179 -2.7336 0.4021 0 7
4.4440 4.3583 -2.7336 0.4021 0 7
4.4044 4.3984 -2.7336 0.4021 0 7
4.3644 4.4381 -2.7336 0.4021 0 7
4.3241 4.4774 -2.7336 0.4021 0 7
4.2834 4.5163 -2.7336 0.4021 0 7
4.2423 4.5549 -2.7336 0.4021 0 7
4.2010 4.5931 -2.7336 0.4021 0 7
4.1592 4.6309 -2.7336 0.4021 0 7
4.1171 4.6684 -2.7336 0.4021 0 7
4.0747 4.7054 -2.7336 0.4021 0 7
4.0320 4.7421 -2.7336 0.4021 0 7
3.9889 4.7784 -2.7336 0.4021 0 7
3.9455 4.8143 -2.7336 0.4021 0 7
3.9018 4.8498 -2.7336 0.4021 0 7
3.8577 4.8849 -2.7336 0.4021 0 7
3.8133 4.9197 -2.7336 0.4021 0 7
3.7687 4.9540 -2.7336 0.4021 0 7
3.7237 4.9879 -2.7336 0.4021 0 7
3.6784 5.0214 -2.7336 0.4021 0 7
3.6328 5.0544 -2.7336 0.4021 0 7
3.5869 5.0871 -2.7336 0.4021 0 6
3.5407 5.1194 -2.7336 0.4021 0 6
3.4943 5.1512 -2.7336 0.4021 0 7
3.4475 5.1826 -2.7336 0.4021 0 7
3.4004 5.2136 -2.7336 0.4021 0 7
3.3531 5.2442 -2.7336 0.4021 0 7
3.3055 5.2743 -2.7336 0.4021 0 7
3.2577 5.3040 -2.7336 0.4021 0 7
3.2095 5.3332 -2.7336 0.4021 0 7
3.1611 5.3621 -2.7336 0.4021 0 7
3.1125 5.3905 -2.7336 0.4021 0 7
3.0636 5.4184 -2.7336 0.4021 0 7
3.0144 5.4459 -2.7336 0.4021 0 7
2.9650 5.4730 -2.7336 0.4021 0 7
2.9153 5.4996 -2.7336 0.4021 0 7
2.8655 5.5257 -2.7336 0.4021 0 7
2.8153 5.5514 -2.7336 0.4021 0 7
2.7650 5.5767 -2.7336 0.4021 0 7
2.7144 5.6015 -2.7336 0.4021 0 7
2.6636 5.6258 -2.7336 0.4021 0 7
2.6126 5.6497 -2.7336 0.4021 0 7
2.5613 5.6731 -2.7336 0.4021 0 7
2.5099 5.6960 -2.7336 0.4021 0 7
2.4583 5.7185 -2.7336 0.4021 0 7
2.4064 5.7405 -2.7336 0.4021 0 7
2.3543 5.7621 -2.7336 0.4021 0 7
2.3021 5.7832 -2.7336 0.4021 0 7
2.2497 5.8038 -2.7336 0.4021 0 7
2.1971 5.8239 -2.7336 0.4021 0 7
2.1443 5.8435 -2.7336 0.4021 0 7
2.0913 5.8627 -2.7336 0.4021 0 7
2.0382 5.8814 -2.7336 0.4021 0 7
1.9849 5.8996 -2.7336 0.4021 0 7
1.9314 5.9173 -2.7336 0.4021 0 7
1.8778 5.9345 -2.7336 0.4021 0 7
1.8240 5.9513 -2.7336 0.4021 0 7
1.7700 5.9675 -2.7336 0.4021 0 7
1.7160 5.9833 -2.7336 0.4021 0 7
1.6617 5.9986 -2.7336 0.4021 0 7
1.6074 6.0134 -2.7336 0.4021 0 7
1.5529 6.0277 -2.7336 0.4021 0 7
1.4983 6.0415 -2.7336 0.4021 0 7
1.4436 6.0548 -2.7336 0.4021 0 7
1.3887 6.0676 -2.7336 0.4021 0 7
1.3337 6.0799 -2.7336 0.4021 0 7
1.2787 6.0918 -2.7336 0.4021 0 7
1.2235 6.1031 -2.7336 0.4021 0 7
1.1682 6.1139 -2.7336 0.4021 0 7
1.1128 6.1242 -2.7336 0.4021 0 7
1.0574 6.1341 -2.7336 0.4021 0 7
1.0018 6.1434 -2.7336 0.4021 0 7
0.9462 6.1522 -2.7336 0.4021 0 7
0.8905 6.1605 -2.7336 0.4021 0 7
0.8347 6.1683 -2.7336 0.4021 0 7
0.7788 6.1756 -2.7336 0.4021 0 7
0.7229 6.1824 -2.7336 0.4021 0 7
0.6669 6.1887 -2.7336 0.4021 0 7
0.6109 6.1945 -2.7336 0.4021 0 7
0.5548 6.1997 -2.7336 0.4021 0 7
0.4987 6.2045 -2.7336 0.4021 0 7
0.4425 6.2088 -2.7336 0.4021 0 7
0.3863 6.2125 -2.7336 0.4021 0 7
0.3301 6.2158 -2.7336 0.4021 0 7
0.2738 6.2185 -2.7336 0.4021 0 7
0.2175 6.2207 -2.7336 0.4021 0 7
0.1612 6.2224 -2.7336 0.4021 0 7
0.1049 6.2236 -2.7336 0.4021 0 7
0.0486 6.2236 -2.7333 0.4161 0 8
-0.0078 6.2229 -2.7329 0.4161 0 8
-0.0641 6.2217 -2.7325 0.4162 0 8
-0.1204 6.2200 -2.7321 0.4162 0 8
-0.1766 6.2178 -2.7318 0.4163 0 8
-0.2329 6.2151 -2.7314 0.4163 0 8
-0.2891 6.2120 -2.7311 0.4168 0 8
-0.3452 6.2085 -2.7308 0.4168 0 8
-0.4014 6.2045 -2.7305 0.4168 0 8
-0.4574 6.2000 -2.7302 0.4169 0 8
-0.5135 6.1950 -2.7300 0.4169 0 8
-0.5695 6.1895 -2.7297 0.4170 0 8
-0.6254 6.1835 -2.7295 0.4170 0 8
-0.6813 6.1770 -2.7292 0.4170 0 8
-0.7371 6.1701 -2.7290 0.4171 0 8
-0.7928 6.1627 -2.7288 0.4171 0 8
-0.8485 6.1548 -2.7286 0.4174 0 8
-0.9041 6.1465 -2.7284 0.4174 0 8
-0.9596 6.1378 -2.7283 0.4174 0 8
-1.0151 6.1285 -2.7281 0.4174 0 8
-1.0705 6.1188 -2.7280 0.4174 0 8
-1.1258 6.1086 -2.7279 0.4175 0 8
-1.1809 6.0979 -2.7278 0.4175 0 8
-1.2360 6.0868 -2.7277 0.4175 0 8
-1.2910 6.0751 -2.7276 0.4175 0 8
-1.3459 6.0630 -2.7275 0.4175 0 8
-1.4007 6.0505 -2.7275 0.4176 0 8
-1.4554 6.0375 -2.7275 0.4176 0 8
-1.5100 6.0241 -2.7275 0.4176 0 8
-1.5644 6.0102 -2.7275 0.4176 0 8
-1.6188 5.9959 -2.7275 0.4176 0 8
-1.6730 5.9810 -2.7275 0.4176 0 8
-1.7271 5.9657 -2.7276 0.4176 0 8
-1.7810 5.9500 -2.7276 0.4175 0 8
-1.8348 5.9337 -2.7277 0.4175 0 8
-1.8885 5.9170 -2.7277 0.4175 0 8
-1.9420 5.8999 -2.7278 0.4175 0 8
-1.9954 5.8823 -2.7279 0.4174 0 8
-2.0486 5.8642 -2.7280 0.4174 0 8
-2.1017 5.8457 -2.7282 0.4174 0 8
-2.1546 5.8267 -2.7283 0.4174 0 8
-2.2074 5.8073 -2.7284 0.4174 0 8
-2.2600 5.7874 -2.7286 0.4173 0 8
-2.3124 5.7670 -2.7287 0.4173 0 8
-2.3646 5.7462 -2.7289 0.4173 0 8
-2.4167 5.7250 -2.7291 0.4173 0 8
-2.4686 5.7032 -2.7293 0.4172 0 8
-2.5203 5.6811 -2.7294 0.4172 0 8
-2.5718 5.6584 -2.7296 0.4172 0 8
-2.6231 5.6354 -2.7298 0.4171 0 8
-2.6742 5.6118 -2.7301 0.4171 0 8
-2.7251 5.5878 -2.7303 0.4171 0 8
-2.7757 5.5634 -2.7305 0.4170 0 8
-2.8262 5.5386 -2.7308 0.4170 0 8
-2.8765 5.5133 -2.7310 0.4170 0 8
-2.9265 5.4875 -2.7313 0.4169 0 8
-2.9764 5.4613 -2.7315 0.4169 0 8
-3.0260 5.4347 -2.7318 0.4169 0 8
-3.0753 5.4077 -2.7321 0.4168 0 8
-3.1245 5.3802 -2.7324 0.4168 0 8
-3.1734 5.3522 -2.7326 0.4167 0 8
-3.2220 5.3239 -2.7330 0.4167 0 8
-3.2705 5.2951 -2.7333 0.4166 0 8
-3.3186 5.2659 -2.7336 0.4166 0 8
-3.3662 5.2358 -2.7336 0.4021 0 7
-3.4135 5.2051 -2.7336 0.4021 0 7
-3.4604 5.1740 -2.7336 0.4021 0 7
-3.5071 5.1425 -2.7336 0.4021 0 7
-3.5535 5.1105 -2.7336 0.4021 0 7
-3.5996 5.0781 -2.7336 0.4021 0 7
-3.6454 5.0454 -2.7336 0.4021 0 7
-3.6909 5.0122 -2.7336 0.4021 0 7
-3.7361 4.9786 -2.7336 0.4021 0 7
-3.7810 4.9445 -2.7336 0.4021 0 7
-3.8256 4.9101 -2.7336 0.4021 0 7
-3.8699 4.8753 -2.7336 0.4021 0 7
-3.9139 4.8401 -2.7336 0.4021 0 7
-3.9575 4.8045 -2.7336 0.4021 0 7
-4.0008 4.7684 -2.7336 0.4021 0 7
-4.0438 4.7320 -2.7336 0.4021 0 7
-4.0865 4.6953 -2.7336 0.4021 0 7
-4.1288 4.6581 -2.7336 0.4021 0 7
-4.1708 4.6205 -2.7336 0.4021 0 7
-4.2124 4.5826 -2.7336 0.4021 0 7
-4.2537 4.5443 -2.7336 0.4021 0 7
-4.2947 4.5056 -2.7336 0.4021 0 7
-4.3353 4.4666 -2.7336 0.4021 0 7
-4.3755 4.4271 -2.7336 0.4021 0 7
-4.4154 4.3874 -2.7336 0.4021 0 7
-4.4549 4.3472 -2.7336 0.4021 0 7
-4.4941 4.3067 -2.7336 0.4021 0 7
-4.5329 4.2659 -2.7336 0.4021 0 7
-4.5713 4.2247 -2.7336 0.4021 0 7
-4.6093 4.1831 -2.7336 0.4021 0 7
-4.6470 4.1413 -2.7336 0.4021 0 7
-4.6843 4.0990 -2.7336 0.4021 0 7
-4.7212 4.0565 -2.7336 0.4021 0 7
-4.7577 4.0136 -2.7336 0.4021 0 7
-4.7938 3.9704 -2.7336 0.4021 0 7
-4.8296 3.9268 -2.7336 0.4021 0 7
-4.8649 3.8830 -2.7336 0.4021 0 7
-4.8998 3.8388 -2.7336 0.4021 0 7
-4.9344 3.7943 -2.7336 0.4021 0 7
-4.9685 3.7495 -2.7336 0.4021 0 7
-5.0022 3.7043 -2.7336 0.4021 0 7
-5.0356 3.6589 -2.7336 0.4021 0 7
-5.0685 3.6132 -2.7336 0.4021 0 7
-5.1010 3.5672 -2.7336 0.4021 0 7
-5.1330 3.5209 -2.7336 0.4021 0 7
-5.1647 3.4743 -2.7336 0.4021 0 7
-5.1959 3.4274 -2.7336 0.4021 0 7
-5.2267 3.3802 -2.7336 0.4021 0 7
-5.2571 3.3328 -2.7336 0.4021 0 7
-5.2870 3.2851 -2.7336 0.4021 0 7
-5.3165 3.2371 -2.7336 0.4021 0 7
-5.3456 3.1889 -2.7336 0.4021 0 7
-5.3743 3.1404 -2.7336 0.4021 0 7
-5.4025 3.0916 -2.7336 0.4021 0 7
-5.4302 3.0426 -2.7336 0.4021 0 7
-5.4575 2.9933 -2.7336 0.4021 0 7
-5.4844 2.9438 -2.7336 0.4021 0 7
-5.5108 2.8940 -2.7336 0.4021 0 7
-5.5368 2.8441 -2.7336 0.4021 0 7
-5.5623 2.7938 -2.7336 0.4021 0 7
-5.5873 2.7434 -2.7336 0.4021 0 7
-5.6120 2.6927 -2.7336 0.4021 0 7
-5.6361 2.6418 -2.7336 0.4021 0 7
-5.6598 2.5907 -2.7336 0.4021 0 7
-5.6830 2.5394 -2.7336 0.4021 0 7
-5.7057 2.4878 -2.7336 0.4021 0 7
-5.7280 2.4361 -2.7336 0.4021 0 7
-5.7498 2.3842 -2.7336 0.4021 0 7
-5.7712 2.3320 -2.7336 0.4021 0 7
-5.7920 2.2797 -2.7336 0.4021 0 7
-5.8124 2.2272 -2.7336 0.4021 0 6
-5.8323 2.1745 -2.7336 0.4021 0 6
-5.8518 2.1216 -2.7336 0.4021 0 6
-5.8707 2.0686 -2.7336 0.4021 0 7
-5.8892 2.0154 -2.7336 0.4021 0 7
-5.9072 1.9620 -2.7336 0.4021 0 7
-5.9247 1.9085 -2.7336 0.4021 0 7
-5.9418 1.8548 -2.7336 0.4021 0 7
-5.9583 1.8009 -2.7336 0.4021 0 7
-5.9744 1.7469 -2.7336 0.4021 0 7
-5.9899 1.6928 -2.7336 0.4021 0 7
-6.0050 1.6385 -2.7336 0.4021 0 7
-6.0196 1.5841 -2.7336 0.4021 0 7
-6.0337 1.5296 -2.7336 0.4021 0 7
-6.0473 1.4749 -2.7336 0.4021 0 7
-6.0604 1.4201 -2.7336 0.4021 0 7
-6.0730 1.3652 -2.7336 0.4021 0 7
-6.0851 1.3102 -2.7336 0.4021 0 7
-6.0967 1.2551 -2.7336 0.4021 0 7
-6.1078 1.1998 -2.7336 0.4021 0 7
-6.1184 1.1445 -2.7336 0.4021 0 7
-6.1285 1.0891 -2.7336 0.4021 0 7
-6.1381 1.0336 -2.7336 0.4021 0 7
-6.1472 0.9780 -2.7336 0.4021 0 7
-6.1558 0.9224 -2.7336 0.4021 0 7
-6.1639 0.8666 -2.7336 0.4021 0 7
-6.1715 0.8108 -2.7336 0.4021 0 7
-6.1786 0.7549 -2.7336 0.4021 0 7
-6.1852 0.6990 -2.7336 0.4021 0 7
-6.1912 0.6430 -2.7336 0.4021 0 7
-6.1968 0.5869 -2.7336 0.4021 0 7
-6.2018 0.5308 -2.7336 0.4021 0 7
-6.2064 0.4747 -2.7336 0.4021 0 7
-6.2104 0.4185 -2.7336 0.4021 0 7
5.8623 -0.0000 -2.7336 0.4226 0 7
5.8620 0.0530 -2.7336 0.4226 0 7
5.8613 0.1061 -2.7336 0.4226 0 7
5.8601 0.1591 -2.7336 0.4226 0 7
5.8584 0.2122 -2.7336 0.4226 0 7
5.8563 0.2652 -2.7336 0.4226 0 7
5.8536 0.3182 -2.7336 0.4226 0 7
5.8505 0.3711 -2.7336 0.4226 0 7
5.8469 0.4240 -2.7336 0.4226 0 7
5.8428 0.4769 -2.7336 0.4226 0 7
5.8383 0.5298 -2.7336 0.4226 0 7
5.8333 0.5826 -2.7336 0.4226 0 7
5.8277 0.6354 -2.7336 0.4226 0 7
5.8218 0.6881 -2.7336 0.4226 0 7
5.8153 0.7407 -2.7336 0.4226 0 7
5.8084 0.7933 -2.7336 0.4226 0 7
5.8009 0.8459 -2.7336 0.4226 0 7
5.7930 0.8983 -2.7336 0.4226 0 7
5.7847 0.9507 -2.7336 0.4226 0 7
5.7758 1.0030 -2.7336 0.4226 0 7
5.7665 1.0553 -2.7336 0.4226 0 7
5.7567 1.1074 -2.7336 0.4226 0 7
5.7465 1.1595 -2.7336 0.4226 0 7
5.7357 1.2114 -2.7336 0.4226 0 7
5.7245 1.2633 -2.7336 0.4226 0 7
5.7129 1.3150 -2.7336 0.4226 0 7
5.7007 1.3667 -2.7336 0.4226 0 7
5.6881 1.4182 -2.7336 0.4226 0 7
5.6751 1.4696 -2.7336 0.4226 0 7
5.6615 1.5209 -2.7336 0.4226 0 7
5.6476 1.5721 -2.7336 0.4226 0 7
5.6331 1.6231 -2.7336 0.4226 0 7
5.6182 1.6740 -2.7336 0.4226 0 7
5.6028 1.7248 -2.7336 0.4226 0 7
5.5870 1.7754 -2.7336 0.4226 0 7
5.5707 1.8259 -2.7336 0.4226 0 7
5.5539 1.8763 -2.7336 0.4226 0 7
5.5367 1.9265 -2.7336 0.4226 0 7
5.5190 1.9765 -2.7336 0.4226 0 7
5.5009 2.0264 -2.7336 0.4226 0 7
5.4824 2.0761 -2.7336 0.4226 0 7
5.4634 2.1256 -2.7336 0.4226 0 7
5.4439 2.1749 -2.7336 0.4226 0 7
5.4240 2.2241 -2.7336 0.4226 0 7
5.4036 2.2731 -2.7336 0.4226 0 7
5.3828 2.3219 -2.7336 0.4226 0 7
5.3616 2.3705 -2.7336 0.4226 0 7
5.3399 2.4190 -2.7336 0.4226 0 7
5.3178 2.4672 -2.7336 0.4226 0 7
5.2953 2.5152 -2.7336 0.4226 0 7
5.2723 2.5630 -2.7336 0.4226 0 7
5.2489 2.6106 -2.7336 0.4226 0 7
5.2251 2.6580 -2.7336 0.4226 0 7
5.2008 2.7052 -2.7336 0.4226 0 7
5.1761 2.7522 -2.7336 0.4226 0 7
5.1510 2.7989 -2.7336 0.4226 0 7
5.1254 2.8454 -2.7336 0.4226 0 7
5.0995 2.8917 -2.7336 0.4226 0 7
5.0731 2.9377 -2.7336 0.4226 0 7
5.0463 2.9835 -2.7336 0.4226 0 7
5.0191 3.0290 -2.7336 0.4226 0 7
4.9915 3.0743 -2.7336 0.4226 0 7
4.9635 3.1194 -2.7336 0.4226 0 7
4.9350 3.1641 -2.7336 0.4226 0 7
4.9062 3.2087 -2.7336 0.4226 0 7
4.8769 3.2529 -2.7336 0.4226 0 7
4.8473 3.2969 -2.7336 0.4226 0 7
4.8173 3.3407 -2.7336 0.4226 0 7
4.7868 3.3841 -2.7336 0.4226 0 7
4.7560 3.4273 -2.7336 0.4226 0 7
4.7248 3.4702 -2.7336 0.4226 0 7
4.6932 3.5128 -2.7336 0.4226 0 7
4.6612 3.5552 -2.7336 0.4226 0 7
4.6289 3.5972 -2.7336 0.4226 0 7
4.5961 3.6389 -2.7336 0.4226 0 7
4.5630 3.6804 -2.7336 0.4226 0 7
4.5295 3.7215 -2.7336 0.4226 0 7
4.4956 3.7624 -2.7336 0.4226 0 7
4.4614 3.8029 -2.7336 0.4226 0 7
4.4268 3.8431 -2.7336 0.4226 0 7
4.3919 3.8830 -2.7336 0.4226 0 7
4.3565 3.9226 -2.7336 0.4226 0 7
4.3209 3.9619 -2.7336 0.4226 0 7
4.2848 4.0008 -2.7336 0.4226 0 7
4.2484 4.0394 -2.7336 0.4226 0 7
4.2117 4.0777 -2.7336 0.4226 0 7
4.1746 4.1157 -2.7336 0.4226 0 7
4.1372 4.1533 -2.7336 0.4226 0 7
4.0995 4.1905 -2.7336 0.4226 0 7
4.0614 4.2275 -2.7336 0.4226 0 7
4.0230 4.2640 -2.7336 0.4226 0 7
3.9842 4.3003 -2.7336 0.4226 0 7
3.9451 4.3362 -2.7336 0.4226 0 7
3.9057 4.3717 -2.7336 0.4226 0 7
3.8660 4.4068 -2.7336 0.4226 0 7
3.8260 4.4417 -2.7336 0.4226 0 7
3.7856 4.4761 -2.7336 0.4226 0 7
3.7450 4.5102 -2.7336 0.4226 0 7
3.7040 4.5439 -2.7336 0.4226 0 7
3.6627 4.5772 -2.7336 0.4226 0 7
3.6211 4.6102 -2.7336 0.4226 0 7
3.5793 4.6428 -2.7336 0.4226 0 7
3.5371 4.6750 -2.7336 0.4226 0 7
3.4947 4.7068 -2.7336 0.4226 0 7
3.4519 4.7382 -2.7336 0.4226 0 7
3.4089 4.7693 -2.7336 0.4226 0 7
3.3656 4.7999 -2.7336 0.4226 0 7
3.3220 4.8302 -2.7336 0.4226 0 7
3.2782 4.8600 -2.7336 0.4226 0 6
3.2341 4.8895 -2.7336 0.4226 0 6
3.1897 4.9186 -2.7336 0.4226 0 7
3.1450 4.9472 -2.7336 0.4226 0 7
3.1001 4.9755 -2.7336 0.4226 0 7
3.0550 5.0033 -2.7336 0.4226 0 7
3.0096 5.0308 -2.7336 0.4226 0 7
2.9639 5.0578 -2.7336 0.4226 0 7
2.9180 5.0844 -2.7336 0.4226 0 7
2.8719 5.1106 -2.7336 0.4226 0 7
2.8255 5.1364 -2.7336 0.4226 0 7
2.7789 5.1618 -2.7336 0.4226 0 7
2.7321 5.1867 -2.7336 0.4226 0 7
2.6851 5.2112 -2.7336 0.4226 0 7
2.6378 5.2353 -2.7336 0.4226 0 7
2.5903 5.2590 -2.7336 0.4226 0 7
2.5426 5.2822 -2.7336 0.4226 0 7
2.4947 5.3050 -2.7336 0.4226 0 7
2.4466 5.3273 -2.7336 0.4226 0 7
2.3983 5.3493 -2.7336 0.4226 0 7
2.3498 5.3707 -2.7336 0.4226 0 7
2.3011 5.3918 -2.7336 0.4226 0 7
2.2522 5.4124 -2.7336 0.4226 0 7
2.2031 5.4326 -2.7336 0.4226 0 7
2.1539 5.4523 -2.7336 0.4226 0 7
2.1044 5.4715 -2.7336 0.4226 0 7
2.0548 5.4904 -2.7336 0.4226 0 7
2.0051 5.5087 -2.7336 0.4226 0 7
1.9551 5.5266 -2.7336 0.4226 0 7
1.9050 5.5441 -2.7336 0.4226 0 7
1.8548 5.5611 -2.7336 0.4226 0 7
1.8044 5.5777 -2.7336 0.4226 0 7
1.7538 5.5938 -2.7336 0.4226 0 7
1.7031 5.6094 -2.7336 0.4226 0 7
1.6523 5.6246 -2.7336 0.4226 0 7
1.6013 5.6393 -2.7336 0.4226 0 7
1.5502 5.6536 -2.7336 0.4226 0 7
1.4990 5.6674 -2.7336 0.4226 0 7
1.4477 5.6807 -2.7336 0.4226 0 7
1.3962 5.6936 -2.7336 0.4226 0 7
1.3446 5.7060 -2.7336 0.4226 0 7
1.2929 5.7179 -2.7336 0.4226 0 7
1.2411 5.7294 -2.7336 0.4226 0 7
1.1892 5.7404 -2.7336 0.4226 0 7
1.1372 5.7509 -2.7336 0.4226 0 7
1.0851 5.7610 -2.7336 0.4226 0 7
1.0329 5.7706 -2.7336 0.4226 0 7
0.9807 5.7797 -2.7336 0.4226 0 7
0.9283 5.7883 -2.7336 0.4226 0 7
0.8759 5.7965 -2.7336 0.4226 0 7
0.8234 5.8042 -2.7336 0.4226 0 7
0.7709 5.8114 -2.7336 0.4226 0 7
0.7182 5.8181 -2.7336 0.4226 0 7
0.6656 5.8244 -2.7336 0.4226 0 7
0.6128 5.8302 -2.7336 0.4226 0 7
0.5600 5.8355 -2.7336 0.4226 0 7
0.5072 5.8403 -2.7336 0.4226 0 7
0.4543 5.8446 -2.7336 0.4226 0 7
0.4014 5.8485 -2.7336 0.4226 0 7
0.3485 5.8519 -2.7336 0.4226 0 7
0.2955 5.8548 -2.7336 0.4226 0 7
0.2425 5.8573 -2.7336 0.4226 0 7
0.1895 5.8592 -2.7336 0.4226 0 7
0.1365 5.8607 -2.7336 0.4226 0 7
0.0834 5.8617 -2.7336 0.4226 0 7
0.0304 5.8622 -2.7336 0.4226 0 7
-0.0227 5.8622 -2.7336 0.4226 0 7
-0.0757 5.8618 -2.7336 0.4226 0 7
-0.1288 5.8609 -2.7336 0.4226 0 7
-0.1818 5.8595 -2.7336 0.4226 0 7
-0.2348 5.8576 -2.7336 0.4226 0 7
-0.2878 5.8552 -2.7336 0.4226 0 7
-0.3408 5.8524 -2.7336 0.4226 0 7
-0.3938 5.8490 -2.7336 0.4226 0 7
-0.4467 5.8452 -2.7336 0.4226 0 7
-0.4995 5.8410 -2.7336 0.4226 0 7
-0.5524 5.8362 -2.7336 0.4226 0 7
-0.6052 5.8310 -2.7336 0.4226 0 7
-0.6579 5.8252 -2.7336 0.4226 0 7
-0.7106 5.8190 -2.7336 0.4226 0 7
-0.7632 5.8124 -2.7336 0.4226 0 7
-0.8158 5.8052 -2.7336 0.4226 0 7
-0.8683 5.7976 -2.7336 0.4226 0 7
-0.9207 5.7895 -2.7336 0.4226 0 7
-0.9731 5.7809 -2.7336 0.4226 0 7
-1.0254 5.7719 -2.7336 0.4226 0 7
-1.0776 5.7624 -2.7336 0.4226 0 7
-1.1297 5.7524 -2.7336 0.4226 0 7
-1.1817 5.7418 -2.7335 0.4378 0 8
-1.2335 5.7307 -2.7335 0.4379 0 8
-1.2853 5.7191 -2.7334 0.4379 0 8
-1.3370 5.7072 -2.7334 0.4379 0 8
-1.3886 5.6949 -2.7334 0.4379 0 8
-1.4401 5.6821 -2.7334 0.4379 0 8
-1.4914 5.6689 -2.7334 0.4379 0 8
-1.5427 5.6552 -2.7334 0.4379 0 8
-1.5938 5.6410 -2.7334 0.4379 0 8
-1.6448 5.6265 -2.7335 0.4379 0 8
-1.6957 5.6114 -2.7335 0.4379 0 8
-1.7465 5.5960 -2.7336 0.4379 0 8
-1.7971 5.5800 -2.7336 0.4226 0 7
-1.8475 5.5635 -2.7336 0.4226 0 7
-1.8978 5.5466 -2.7336 0.4226 0 7
-1.9479 5.5292 -2.7336 0.4226 0 7
-1.9978 5.5114 -2.7336 0.4226 0 7
-2.0476 5.4930 -2.7336 0.4226 0 7
-2.0973 5.4743 -2.7336 0.4226 0 7
-2.1467 5.4551 -2.7336 0.4226 0 7
-2.1960 5.4354 -2.7336 0.4226 0 7
-2.2451 5.4153 -2.7336 0.4226 0 7
-2.2940 5.3948 -2.7336 0.4226 0 7
-2.3427 5.3738 -2.7336 0.4226 0 7
-2.3913 5.3524 -2.7336 0.4226 0 7
-2.4396 5.3305 -2.7336 0.4226 0 7
-2.4877 5.3082 -2.7336 0.4226 0 7
-2.5357 5.2855 -2.7336 0.4226 0 7
-2.5834 5.2624 -2.7336 0.4226 0 7
-2.6309 5.2388 -2.7336 0.4226 0 7
-2.6782 5.2147 -2.7336 0.4226 0 7
-2.7253 5.1903 -2.7336 0.4226 0 7
-2.7722 5.1654 -2.7336 0.4226 0 7
-2.8188 5.1401 -2.7336 0.4226 0 7
-2.8652 5.1144 -2.7336 0.4226 0 7
-2.9114 5.0882 -2.7336 0.4226 0 7
-2.9573 5.0617 -2.7336 0.4226 0 7
-3.0030 5.0347 -2.7336 0.4226 0 7
-3.0484 5.0073 -2.7336 0.4226 0 7
-3.0936 4.9795 -2.7336 0.4226 0 7
-3.1385 4.9514 -2.7336 0.4226 0 7
-3.1832 4.9227 -2.7336 0.4226 0 7
-3.2276 4.8937 -2.7336 0.4226 0 7
-3.2718 4.8643 -2.7336 0.4226 0 7
-3.3157 4.8345 -2.7336 0.4226 0 7
-3.3593 4.8043 -2.7336 0.4226 0 7
-3.4026 4.7737 -2.7336 0.4226 0 7
-3.4457 4.7427 -2.7336 0.4226 0 7
-3.4885 4.7114 -2.7336 0.4226 0 7
-3.5310 4.6796 -2.7336 0.4226 0 7
-3.5732 4.6474 -2.7336 0.4226 0 7
-3.6151 4.6149 -2.7336 0.4226 0 7
-3.6567 4.5820 -2.7336 0.4226 0 7
-3.6980 4.5487 -2.7336 0.4226 0 7
-3.7390 4.5151 -2.7336 0.4226 0 7
-3.7797 4.4811 -2.7336 0.4226 0 7
-3.8201 4.4467 -2.7336 0.4226 0 7
-3.8602 4.4119 -2.7336 0.4226 0 7
-3.9000 4.3768 -2.7336 0.4226 0 7
-3.9394 4.3413 -2.7336 0.4226 0 7
-3.9786 4.3055 -2.7336 0.4226 0 7
-4.0174 4.2693 -2.7336 0.4226 0 7
-4.0558 4.2328 -2.7336 0.4226 0 7
-4.0940 4.1959 -2.7336 0.4226 0 7
-4.1318 4.1587 -2.7336 0.4226 0 7
-4.1692 4.1211 -2.7336 0.4226 0 7
-4.2064 4.0832 -2.7336 0.4226 0 7
-4.2432 4.0450 -2.7336 0.4226 0 7
-4.2796 4.0064 -2.7336 0.4226 0 7
-4.3157 3.9675 -2.7336 0.4226 0 7
-4.3514 3.9283 -2.7336 0.4226 0 7
-4.3868 3.8888 -2.7336 0.4226 0 7
-4.4218 3.8489 -2.7336 0.4226 0 7
-4.4564 3.8087 -2.7336 0.4226 0 7
-4.4907 3.7683 -2.7336 0.4226 0 7
-4.5246 3.7275 -2.7336 0.4226 0 7
-4.5582 3.6864 -2.7336 0.4226 0 7
-4.5914 3.6450 -2.7336 0.4226 0 7
-4.6242 3.6033 -2.7336 0.4226 0 7
-4.6566 3.5613 -2.7336 0.4226 0 7
-4.6886 3.5190 -2.7336 0.4226 0 7
-4.7203 3.4764 -2.7336 0.4226 0 7
-4.7515 3.4335 -2.7336 0.4226 0 7
-4.7824 3.3904 -2.7336 0.4226 0 7
-4.8129 3.3470 -2.7336 0.4226 0 7
-4.8430 3.3033 -2.7336 0.4226 0 7
-4.8727 3.2593 -2.7336 0.4226 0 7
-4.9020 3.2151 -2.7336 0.4226 0 7
-4.9309 3.1706 -2.7336 0.4226 0 7
-4.9594 3.1259 -2.7336 0.4226 0 7
-4.9874 3.0809 -2.7336 0.4226 0 7
-5.0151 3.0356 -2.7336 0.4226 0 7
-5.0424 2.9901 -2.7336 0.4226 0 7
-5.0692 2.9443 -2.7336 0.4226 0 7
-5.0957 2.8983 -2.7336 0.4226 0 7
-5.1217 2.8521 -2.7336 0.4226 0 7
-5.1473 2.8056 -2.7336 0.4226 0 7
-5.1725 2.7589 -2.7336 0.4226 0 7
-5.1972 2.7120 -2.7336 0.4226 0 7
-5.2216 2.6649 -2.7336 0.4226 0 7
-5.2455 2.6175 -2.7336 0.4226 0 7
-5.2689 2.5699 -2.7336 0.4226 0 7
-5.2920 2.5221 -2.7336 0.4226 0 7
-5.3146 2.4741 -2.7336 0.4226 0 7
-5.3368 2.4260 -2.7336 0.4226 0 7
-5.3585 2.3776 -2.7336 0.4226 0 7
-5.3798 2.3290 -2.7336 0.4226 0 6
-5.4006 2.2802 -2.7336 0.4226 0 6
-5.4211 2.2312 -2.7336 0.4226 0 6
-5.4410 2.1821 -2.7336 0.4226 0 7
-5.4606 2.1327 -2.7336 0.4226 0 7
-5.4796 2.0832 -2.7336 0.4226 0 7
-5.4983 2.0336 -2.7336 0.4226 0 7
-5.5164 1.9837 -2.7336 0.4226 0 7
-5.5342 1.9337 -2.7336 0.4226 0 7
-5.5514 1.8836 -2.7336 0.4226 0 7
-5.5683 1.8332 -2.7336 0.4226 0 7
-5.5846 1.7828 -2.7336 0.4226 0 7
-5.6005 1.7322 -2.7336 0.4226 0 7
-5.6160 1.6814 -2.7336 0.4226 0 7
-5.6310 1.6305 -2.7336 0.4226 0 7
-5.6455 1.5795 -2.7336 0.4226 0 7
-5.6596 1.5283 -2.7336 0.4226 0 7
-5.6732 1.4771 -2.7336 0.4226 0 7
-5.6863 1.4257 -2.7336 0.4226 0 7
-5.6990 1.3741 -2.7336 0.4226 0 7
-5.7112 1.3225 -2.7336 0.4226 0 7
-5.7229 1.2708 -2.7336 0.4226 0 7
-5.7342 1.2189 -2.7336 0.4226 0 7
-5.7450 1.1670 -2.7336 0.4226 0 7
-5.7553 1.1149 -2.7336 0.4226 0 7
-5.7651 1.0628 -2.7336 0.4226 0 7
-5.7745 1.0106 -2.7336 0.4226 0 7
-5.7834 0.9583 -2.7336 0.4226 0 7
-5.7919 0.9059 -2.7336 0.4226 0 7
-5.7998 0.8535 -2.7336 0.4226 0 7
-5.8073 0.8010 -2.7336 0.4226 0 7
-5.8143 0.7484 -2.7336 0.4226 0 7
-5.8208 0.6957 -2.7336 0.4226 0 7
-5.8269 0.6430 -2.7336 0.4226 0 7
-5.8325 0.5903 -2.7336 0.4226 0 7
-5.8376 0.5375 -2.7336 0.4226 0 7
-5.8422 0.4846 -2.7336 0.4226 0 7
-5.8464 0.4317 -2.7336 0.4226 0 7
-5.8500 0.3788 -2.7336 0.4226 0 7
-5.8532 0.3258 -2.7336 0.4226 0 7
-5.8559 0.2728 -2.7336 0.4226 0 7
-5.8582 0.2198 -2.7336 0.4226 0 7
-5.8599 0.1668 -2.7336 0.4226 0 7
-5.8612 0.1138 -2.7336 0.4226 0 7
-5.8620 0.0607 -2.7336 0.4226 0 7
-5.8623 0.0077 -2.7336 0.4226 0 7
-5.8621 -0.0454 -2.7336 0.4226 0 7
-5.8615 -0.0984 -2.7336 0.4226 0 7
-5.8603 -0.1515 -2.7336 0.4226 0 7
-5.8587 -0.2045 -2.7336 0.4226 0 7
-5.8566 -0.2575 -2.7336 0.4226 0 7
-5.8541 -0.3105 -2.7336 0.4226 0 7
-5.8510 -0.3634 -2.7336 0.4226 0 7
-5.8475 -0.4164 -2.7336 0.4226 0 7
-5.8435 -0.4693 -2.7336 0.4226 0 7
-5.8390 -0.5222 -2.7336 0.4226 0 7
-5.8340 -0.5750 -2.7336 0.4226 0 7
-5.8286 -0.6277 -2.7336 0.4226 0 7
-5.8227 -0.6805 -2.7336 0.4226 0 7
-5.8163 -0.7331 -2.7336 0.4226 0 7
-5.8094 -0.7857 -2.7336 0.4226 0 7
-5.8020 -0.8383 -2.7336 0.4226 0 7
-5.7942 -0.8907 -2.7336 0.4226 0 7
-5.7859 -0.9431 -2.7336 0.4226 0 7
-5.7771 -0.9955 -2.7336 0.4226 0 7
-5.7679 -1.0477 -2.7336 0.4226 0 7
-5.7582 -1.0999 -2.7336 0.4226 0 7
-5.7480 -1.1519 -2.7336 0.4226 0 7
-5.7373 -1.2039 -2.7336 0.4226 0 7
-5.7262 -1.2558 -2.7336 0.4226 0 7
-5.7146 -1.3075 -2.7336 0.4226 0 7
-5.7025 -1.3592 -2.7336 0.4226 0 7
-5.6900 -1.4108 -2.7336 0.4226 0 7
-5.6770 -1.4622 -2.7336 0.4226 0 7
-5.6635 -1.5135 -2.7336 0.4226 0 7
-5.6496 -1.5647 -2.7336 0.4226 0 7
-5.6352 -1.6158 -2.7336 0.4226 0 7
-5.6204 -1.6667 -2.7336 0.4226 0 7
-5.6051 -1.7175 -2.7336 0.4226 0 7
-5.5893 -1.7681 -2.7336 0.4226 0 7
-5.5730 -1.8186 -2.7336 0.4226 0 7
-5.5564 -1.8690 -2.7336 0.4226 0 7
-5.5392 -1.9192 -2.7336 0.4226 0 7
-5.5216 -1.9693 -2.7336 0.4226 0 7
-5.5036 -2.0192 -2.7336 0.4226 0 7
-5.4851 -2.0689 -2.7336 0.4226 0 7
-5.4661 -2.1184 -2.7336 0.4226 0 7
-5.4467 -2.1678 -2.7336 0.4226 0 7
-5.4269 -2.2170 -2.7336 0.4226 0 7
-5.4066 -2.2660 -2.7336 0.4226 0 7
-5.3859 -2.3149 -2.7336 0.4226 0 7
-5.3647 -2.3635 -2.7336 0.4226 0 7
-5.3431 -2.4120 -2.7336 0.4226 0 7
-5.3211 -2.4602 -2.7336 0.4226 0 7
-5.2986 -2.5083 -2.7336 0.4226 0 7
-5.2757 -2.5561 -2.7336 0.4226 0 7
-5.2523 -2.6038 -2.7336 0.4226 0 7
-5.2285 -2.6512 -2.7336 0.4226 0 7
-5.2043 -2.6984 -2.7336 0.4226 0 7
-5.1797 -2.7454 -2.7336 0.4226 0 7
-5.1546 -2.7921 -2.7336 0.4226 0 7
-5.1292 -2.8387 -2.7336 0.4226 0 7
-5.1033 -2.8850 -2.7336 0.4226 0 7
-5.0769 -2.9310 -2.7336 0.4226 0 7
-5.0502 -2.9769 -2.7336 0.4226 0 7
-5.0231 -3.0224 -2.7336 0.4226 0 7
-4.9955 -3.0678 -2.7336 0.4226 0 7
-4.9675 -3.1129 -2.7336 0.4226 0 7
-4.9392 -3.1577 -2.7336 0.4226 0 7
-4.9104 -3.2023 -2.7336 0.4226 0 7
-4.8812 -3.2466 -2.7336 0.4226 0 7
-4.8516 -3.2906 -2.7336 0.4226 0 7
-4.8217 -3.3344 -2.7336 0.4226 0 7
-4.7913 -3.3779 -2.7336 0.4226 0 7
-4.7605 -3.4211 -2.7336 0.4226 0 7
-4.7294 -3.4640 -2.7336 0.4226 0 7
-4.6978 -3.5067 -2.7336 0.4226 0 7
-4.6659 -3.5491 -2.7336 0.4226 0 7
-4.6336 -3.5911 -2.7336 0.4226 0 7
-4.6009 -3.6329 -2.7336 0.4226 0 7
-4.5678 -3.6744 -2.7336 0.4226 0 7
-4.5344 -3.7156 -2.7336 0.4226 0 7
-4.5006 -3.7565 -2.7336 0.4226 0 7
-4.4664 -3.7971 -2.7336 0.4226 0 7
-4.4319 -3.8373 -2.7336 0.4226 0 7
-4.3969 -3.8773 -2.7336 0.4226 0 7
-4.3617 -3.9169 -2.7336 0.4226 0 7
-4.3261 -3.9562 -2.7336 0.4226 0 7
-4.2901 -3.9952 -2.7336 0.4226 0 7
-4.2537 -4.0339 -2.7336 0.4226 0 7
-4.2171 -4.0722 -2.7336 0.4226 0 7
-4.1800 -4.1102 -2.7336 0.4226 0 7
-4.1427 -4.1478 -2.7336 0.4226 0 7
-4.1050 -4.1852 -2.7336 0.4226 0 7
-4.0669 -4.2221 -2.7336 0.4226 0 7
-4.0285 -4.2588 -2.7336 0.4226 0 7
-3.9898 -4.2951 -2.7336 0.4226 0 7
-3.9508 -4.3310 -2.7336 0.4226 0 7
-3.9115 -4.3666 -2.7336 0.4226 0 7
-3.8718 -4.4018 -2.7336 0.4226 0 7
-3.8318 -4.4366 -2.7336 0.4226 0 7
-3.7915 -4.4711 -2.7336 0.4226 0 7
-3.7509 -4.5053 -2.7336 0.4226 0 6
-3.7099 -4.5390 -2.7336 0.4226 0 6
-3.6687 -4.5724 -2.7336 0.4226 0 6
-3.6272 -4.6054 -2.7336 0.4226 0 7
-3.5853 -4.6381 -2.7336 0.4226 0 7
-3.5432 -4.6703 -2.7336 0.4226 0 7
-3.5008 -4.7022 -2.7336 0.4226 0 7
-3.4581 -4.7337 -2.7336 0.4226 0 7
-3.4151 -4.7648 -2.7336 0.4226 0 7
-3.3719 -4.7955 -2.7336 0.4226 0 7
-3.3283 -4.8258 -2.7336 0.4226 0 7
-3.2845 -4.8557 -2.7336 0.4226 0 7
-3.2405 -4.8853 -2.7336 0.4226 0 7
-3.1961 -4.9144 -2.7336 0.4226 0 7
-3.1335 -4.9149 -2.7180 0.7152 0 8
-3.0649 -4.9046 -2.6969 0.7208 0 8
-2.9973 -4.8944 -2.6763 0.7264 0 8
-2.9307 -4.8844 -2.6562 0.7319 0 8
-2.8651 -4.8745 -2.6366 0.7373 0 8
-2.8004 -4.8647 -2.6174 0.7427 0 8
-2.7366 -4.8549 -2.5988 0.7480 0 8
-2.6823 -4.8609 -2.5888 0.4226 0 8
-2.6382 -4.8849 -2.5888 0.4226 0 8
-2.5938 -4.9086 -2.5888 0.4226 0 8
-2.5493 -4.9319 -2.5888 0.4226 0 8
-2.5046 -4.9548 -2.5888 0.4226 0 8
-2.4596 -4.9772 -2.5888 0.4226 0 14
-2.4145 -4.9993 -2.5888 0.4226 0 14
-2.3692 -5.0209 -2.5888 0.4226 0 14
-2.3236 -5.0422 -2.5888 0.4226 0 14
-2.2779 -5.0630 -2.5888 0.4226 0 14
-2.2320 -5.0834 -2.5888 0.4226 0 14
-2.1859 -5.1034 -2.5888 0.4226 0 14
-2.1396 -5.1229 -2.5888 0.4226 0 14
-2.0932 -5.1421 -2.5888 0.4226 0 14
-2.0466 -5.1608 -2.5888 0.4226 0 14
-1.9998 -5.1791 -2.5888 0.4226 0 14
-1.9528 -5.1970 -2.5888 0.4226 0 14
-1.9057 -5.2145 -2.5888 0.4226 0 14
-1.8584 -5.2315 -2.5888 0.4226 0 14
-1.8110 -5.2481 -2.5888 0.4226 0 14
-1.7634 -5.2643 -2.5888 0.4226 0 14
-1.7157 -5.2800 -2.5888 0.4226 0 14
-1.6679 -5.2953 -2.5888 0.4226 0 14
-1.6199 -5.3102 -2.5888 0.4226 0 14
-1.5718 -5.3247 -2.5888 0.4226 0 14
-1.5235 -5.3387 -2.5888 0.4226 0 14
-1.4751 -5.3522 -2.5888 0.4226 0 14
-1.4266 -5.3654 -2.5888 0.4226 0 14
-1.3780 -5.3781 -2.5888 0.4226 0 14
-1.3293 -5.3903 -2.5888 0.4226 0 14
-1.2805 -5.4021 -2.5888 0.4226 0 14
-1.2315 -5.4135 -2.5888 0.4226 0 14
-1.1825 -5.4244 -2.5888 0.4226 0 14
-1.1333 -5.4349 -2.5888 0.4226 0 14
-1.0841 -5.4449 -2.5888 0.4226 0 14
-0.9402 -4.9561 -2.3523 0.6441 0 19
-0.8874 -4.9205 -2.3315 0.6499 0 19
-0.8417 -4.9213 -2.3282 0.9062 0 19
-0.7973 -4.9297 -2.3286 0.9060 0 19
-0.7584 -4.9746 -2.3465 0.6183 0 19
-0.7870 -5.4957 -2.5888 0.4226 0 14
-0.7372 -5.5026 -2.5888 0.4226 0 14
-0.6874 -5.5091 -2.5888 0.4226 0 14
-0.6375 -5.5151 -2.5888 0.4226 0 14
-0.5876 -5.5206 -2.5888 0.4226 0 14
-0.5376 -5.5257 -2.5888 0.4226 0 14
-0.4876 -5.5303 -2.5888 0.4226 0 14
-0.4375 -5.5345 -2.5888 0.4226 0 14
-0.3874 -5.5383 -2.5888 0.4226 0 14
-0.3373 -5.5415 -2.5888 0.4226 0 14
-0.2871 -5.5444 -2.5888 0.4226 0 14
-0.2369 -5.5467 -2.5888 0.4226 0 14
-0.1867 -5.5487 -2.5888 0.4226 0 14
-0.1365 -5.5501 -2.5888 0.4226 0 14
-0.0863 -5.5511 -2.5888 0.4226 0 14
-0.0360 -5.5517 -2.5888 0.4226 0 14
0.0142 -5.5518 -2.5888 0.4226 0 14
0.0644 -5.5514 -2.5888 0.4226 0 14
0.1147 -5.5506 -2.5888 0.4226 0 14
0.1649 -5.5494 -2.5888 0.4226 0 14
0.2151 -5.5476 -2.5888 0.4226 0 14
0.2653 -5.5455 -2.5888 0.4226 0 14
0.3155 -5.5428 -2.5888 0.4226 0 14
0.3656 -5.5397 -2.5888 0.4226 0 14
0.4158 -5.5362 -2.5888 0.4226 0 14
0.4658 -5.5322 -2.5888 0.4226 0 14
0.4362 -4.6737 -2.1888 0.7955 0 19
0.4761 -4.6468 -2.1782 0.7994 0 19
0.5171 -4.6327 -2.1737 0.8666 0 19
0.5606 -4.6409 -2.1798 0.8642 0 19
0.6069 -4.6688 -2.1954 0.4107 0 19
0.7654 -5.4988 -2.5888 0.4226 0 14
0.8151 -5.4916 -2.5888 0.4226 0 14
0.8648 -5.4840 -2.5888 0.4226 0 14
0.9144 -5.4760 -2.5888 0.4226 0 14
0.9639 -5.4675 -2.5888 0.4226 0 14
1.0133 -5.4585 -2.5888 0.4226 0 14
1.0627 -5.4491 -2.5888 0.4226 0 14
1.1120 -5.4393 -2.5888 0.4226 0 14
1.1612 -5.4290 -2.5888 0.4226 0 14
1.2102 -5.4183 -2.5888 0.4226 0 14
1.2592 -5.4071 -2.5888 0.4226 0 14
1.3081 -5.3955 -2.5888 0.4226 0 14
1.3569 -5.3834 -2.5888 0.4226 0 14
1.4055 -5.3709 -2.5888 0.4226 0 14
1.4541 -5.3580 -2.5888 0.4226 0 14
1.5025 -5.3446 -2.5888 0.4226 0 14
1.5508 -5.3308 -2.5888 0.4226 0 14
1.5990 -5.3165 -2.5888 0.4226 0 14
1.6470 -5.3019 -2.5888 0.4226 0 14
1.6950 -5.2867 -2.5888 0.4226 0 14
1.7427 -5.2712 -2.5888 0.4226 0 14
1.7904 -5.2552 -2.5888 0.4226 0 14
1.8378 -5.2388 -2.5888 0.4226 0 14
1.8852 -5.2219 -2.5888 0.4226 0 14
1.9324 -5.2047 -2.5888 0.4226 0 14
1.9794 -5.1870 -2.5888 0.4226 0 14
1.9780 -5.0457 -2.5272 0.1422 0 9
1.7933 -4.4554 -2.2396 0.4931 0 19
1.8135 -4.3906 -2.2152 0.8880 0 19
1.8499 -4.3662 -2.2112 0.8896 0 19
1.8881 -4.3464 -2.2097 0.7502 0 19
1.9393 -4.3561 -2.2235 0.7456 0 19
2.2648 -4.9659 -2.5451 0.8860 0 9
2.3143 -4.9550 -2.5502 0.8843 0 9
2.3639 -4.9441 -2.5555 0.8824 0 9
2.4138 -4.9332 -2.5610 0.8805 0 9
2.4639 -4.9222 -2.5667 0.8786 0 9
2.5142 -4.9111 -2.5727 0.8765 0 9
2.5647 -4.9001 -2.5790 0.8744 0 9
2.6155 -4.8889 -2.5855 0.8722 0 9
2.6631 -4.8714 -2.5888 0.4226 0 14
2.7071 -4.8471 -2.5888 0.4226 0 14
2.7509 -4.8224 -2.5888 0.4226 0 14
2.7944 -4.7973 -2.5888 0.4226 0 14
2.8377 -4.7718 -2.5888 0.4226 0 14
2.8808 -4.7459 -2.5888 0.4226 0 14
2.9236 -4.7197 -2.5888 0.4226 0 14
2.9662 -4.6930 -2.5888 0.4226 0 14
3.0085 -4.6660 -2.5888 0.4226 0 14
3.0506 -4.6385 -2.5888 0.4226 0 14
3.0925 -4.6108 -2.5888 0.4226 0 14
3.1341 -4.5826 -2.5888 0.4226 0 14
3.1754 -4.5540 -2.5888 0.4226 0 14
3.2165 -4.5251 -2.5888 0.4226 0 14
3.2573 -4.4958 -2.5888 0.4226 0 14
3.2979 -4.4661 -2.5888 0.4226 0 14
3.3382 -4.4361 -2.5888 0.4226 0 14
3.1781 -4.1448 -2.4355 0.6790 0 19
3.2028 -4.0996 -2.4259 0.9041 0 19
3.2419 -4.0732 -2.4276 0.9034 0 19
3.2979 -4.0675 -2.4418 0.5863 0 19
3.5354 -4.2806 -2.5888 0.4226 0 14
3.5740 -4.2484 -2.5888 0.4226 0 14
3.6123 -4.2159 -2.5888 0.4226 0 14
3.6503 -4.1830 -2.5888 0.4226 0 14
3.6880 -4.1498 -2.5888 0.4226 0 14
3.7254 -4.1163 -2.5888 0.4226 0 14
3.7625 -4.0824 -2.5888 0.4226 0 14
3.7993 -4.0482 -2.5888 0.4226 0 14
3.8358 -4.0136 -2.5888 0.4226 0 14
3.8719 -3.9788 -2.5888 0.4226 0 14
3.9078 -3.9436 -2.5888 0.4226 0 14
3.9433 -3.9080 -2.5888 0.4226 0 14
3.9785 -3.8722 -2.5888 0.4226 0 14
4.0134 -3.8360 -2.5888 0.4226 0 14
4.0480 -3.7995 -2.5888 0.4226 0 14
4.0822 -3.7628 -2.5888 0.4226 0 14
4.1161 -3.7257 -2.5888 0.4226 0 14
4.1496 -3.6883 -2.5888 0.4226 0 14
4.1828 -3.6506 -2.5888 0.4226 0 14
4.2157 -3.6126 -2.5888 0.4226 0 14
4.2482 -3.5743 -2.5888 0.4226 0 14
4.2804 -3.5357 -2.5888 0.4226 0 8
4.3122 -3.4968 -2.5888 0.4226 0 8
4.3437 -3.4576 -2.5888 0.4226 0 8
4.3748 -3.4182 -2.5888 0.4226 0 8
4.4060 -3.3788 -2.5891 0.7841 0 8
4.4621 -3.3582 -2.6042 0.7465 0 8
4.5248 -3.3416 -2.6230 0.7411 0 8
4.5883 -3.3248 -2.6422 0.7357 0 8
4.6527 -3.3076 -2.6620 0.7303 0 8
4.7181 -3.2902 -2.6822 0.7247 0 8
4.7844 -3.2725 -2.7030 0.7192 0 8
4.8517 -3.2545 -2.7242 0.7136 0 8
4.8978 -3.2215 -2.7336 0.4226 0 7
4.9267 -3.1771 -2.7336 0.4226 0 7
4.9553 -3.1324 -2.7336 0.4226 0 7
4.9834 -3.0874 -2.7336 0.4226 0 7
5.0111 -3.0422 -2.7336 0.4226 0 7
5.0385 -2.9967 -2.7336 0.4226 0 7
5.0654 -2.9510 -2.7336 0.4226 0 7
5.0919 -2.9050 -2.7336 0.4226 0 7
5.1180 -2.8588 -2.7336 0.4226 0 7
5.1436 -2.8124 -2.7336 0.4226 0 7
5.1689 -2.7657 -2.7336 0.4226 0 7
5.1937 -2.7188 -2.7336 0.4226 0 6
5.2181 -2.6717 -2.7336 0.4226 0 6
5.2420 -2.6244 -2.7336 0.4226 0 6
5.2656 -2.5768 -2.7336 0.4226 0 7
5.2887 -2.5291 -2.7336 0.4226 0 7
5.3113 -2.4811 -2.7336 0.4226 0 7
5.3336 -2.4330 -2.7336 0.4226 0 7
5.3554 -2.3846 -2.7336 0.4226 0 7
5.3767 -2.3360 -2.7336 0.4226 0 7
5.3977 -2.2873 -2.7336 0.4226 0 7
5.4181 -2.2383 -2.7336 0.4226 0 7
5.4382 -2.1892 -2.7336 0.4226 0 7
5.4578 -2.1399 -2.7336 0.4226 0 7
5.4769 -2.0904 -2.7336 0.4226 0 7
5.4956 -2.0408 -2.7336 0.4226 0 7
5.5138 -1.9910 -2.7336 0.4226 0 7
5.5316 -1.9410 -2.7336 0.4226 0 7
5.5490 -1.8908 -2.7336 0.4226 0 7
5.5659 -1.8405 -2.7336 0.4226 0 7
5.5823 -1.7901 -2.7336 0.4226 0 7
5.5983 -1.7395 -2.7336 0.4226 0 7
5.6138 -1.6888 -2.7336 0.4226 0 7
5.6288 -1.6379 -2.7336 0.4226 0 7
5.6434 -1.5869 -2.7336 0.4226 0 7
5.6575 -1.5358 -2.7336 0.4226 0 7
5.6712 -1.4845 -2.7336 0.4226 0 7
5.6844 -1.4331 -2.7336 0.4226 0 7
5.6971 -1.3816 -2.7336 0.4226 0 7
5.7094 -1.3300 -2.7336 0.4226 0 7
5.7212 -1.2783 -2.7336 0.4226 0 7
5.7326 -1.2264 -2.7336 0.4226 0 7
5.7434 -1.1745 -2.7336 0.4226 0 7
5.7538 -1.1225 -2.7336 0.4226 0 7
5.7637 -1.0704 -2.7336 0.4226 0 7
5.7732 -1.0182 -2.7336 0.4226 0 7
5.7822 -0.9659 -2.7336 0.4226 0 7
5.7907 -0.9135 -2.7336 0.4226 0 7
5.7987 -0.8611 -2.7336 0.4226 0 7
5.8063 -0.8086 -2.7336 0.4226 0 7
5.8133 -0.7560 -2.7336 0.4226 0 7
5.8199 -0.7033 -2.7336 0.4226 0 7
5.8261 -0.6507 -2.7336 0.4226 0 7
5.8317 -0.5979 -2.7336 0.4226 0 7
5.8369 -0.5451 -2.7336 0.4226 0 7
5.8416 -0.4923 -2.7336 0.4226 0 7
5.8458 -0.4394 -2.7336 0.4226 0 7
5.8495 -0.3865 -2.7336 0.4226 0 7
5.8528 -0.3335 -2.7336 0.4226 0 7
5.8556 -0.2805 -2.7336 0.4226 0 7
5.8579 -0.2275 -2.7336 0.4226 0 7
5.8597 -0.1745 -2.7336 0.4226 0 7
5.8610 -0.1215 -2.7336 0.4226 0 7
5.8619 -0.0684 -2.7336 0.4226 0 7
5.8623 -0.0154 -2.7336 0.4226 0 7
5.8622 0.0377 -2.7336 0.4226 0 7
5.8616 0.0907 -2.7336 0.4226 0 7
5.8605 0.1438 -2.7336 0.4226 0 7
5.8590 0.1968 -2.7336 0.4226 0 7
5.8570 0.2498 -2.7336 0.4226 0 7
5.8545 0.3028 -2.7336 0.4226 0 7
5.8515 0.3558 -2.7336 0.4226 0 7
5.8480 0.4087 -2.7336 0.4226 0 7
5.8441 0.4616 -2.7336 0.4226 0 7
5.8397 0.5145 -2.7336 0.4226 0 7
5.8348 0.5673 -2.7336 0.4226 0 7
5.8294 0.6201 -2.7336 0.4226 0 7
5.8235 0.6728 -2.7336 0.4226 0 7
5.8172 0.7255 -2.7336 0.4226 0 7
5.8104 0.7781 -2.7336 0.4226 0 7
5.8031 0.8307 -2.7336 0.4226 0 7
5.7954 0.8831 -2.7336 0.4226 0 7
5.7871 0.9356 -2.7336 0.4226 0 7
5.7784 0.9879 -2.7336 0.4226 0 7
5.7693 1.0401 -2.7336 0.4226 0 7
5.7596 1.0923 -2.7336 0.4226 0 7
5.7495 1.1444 -2.7336 0.4226 0 7
5.7389 1.1964 -2.7336 0.4226 0 7
5.7278 1.2483 -2.7336 0.4226 0 7
5.7163 1.3000 -2.7336 0.4226 0 7
5.7043 1.3517 -2.7336 0.4226 0 7
5.6918 1.4033 -2.7336 0.4226 0 7
5.6789 1.4547 -2.7336 0.4226 0 7
5.6655 1.5061 -2.7336 0.4226 0 7
5.6517 1.5573 -2.7336 0.4226 0 7
5.6373 1.6084 -2.7336 0.4226 0 7
5.6225 1.6593 -2.7336 0.4226 0 7
5.6073 1.7101 -2.7336 0.4226 0 7
5.5916 1.7608 -2.7336 0.4226 0 7
5.5754 1.8113 -2.7336 0.4226 0 7
5.5588 1.8617 -2.7336 0.4226 0 7
5.5417 1.9119 -2.7336 0.4226 0 7
5.5242 1.9620 -2.7336 0.4226 0 7
5.5062 2.0119 -2.7336 0.4226 0 7
5.4878 2.0617 -2.7336 0.4226 0 7
5.4689 2.1113 -2.7336 0.4226 0 7
5.4496 2.1607 -2.7336 0.4226 0 7
5.4298 2.2099 -2.7336 0.4226 0 7
5.4096 2.2589 -2.7336 0.4226 0 7
5.3889 2.3078 -2.7336 0.4226 0 7
5.3678 2.3565 -2.7336 0.4226 0 7
5.3463 2.4050 -2.7336 0.4226 0 7
5.3243 2.4532 -2.7336 0.4226 0 7
5.3019 2.5013 -2.7336 0.4226 0 7
5.2790 2.5492 -2.7336 0.4226 0 7
5.2557 2.5969 -2.7336 0.4226 0 7
5.2320 2.6443 -2.7336 0.4226 0 7
5.2079 2.6916 -2.7336 0.4226 0 7
5.1833 2.7386 -2.7336 0.4226 0 7
5.1583 2.7854 -2.7336 0.4226 0 7
5.1329 2.8319 -2.7336 0.4226 0 7
5.1070 2.8783 -2.7336 0.4226 0 7
5.0808 2.9244 -2.7336 0.4226 0 7
5.0541 2.9702 -2.7336 0.4226 0 7
5.0270 3.0159 -2.7336 0.4226 0 7
4.9995 3.0612 -2.7336 0.4226 0 7
4.9716 3.1063 -2.7336 0.4226 0 7
4.9433 3.1512 -2.7336 0.4226 0 7
4.9146 3.1958 -2.7336 0.4226 0 7
4.8855 3.2402 -2.7336 0.4226 0 7
4.8559 3.2842 -2.7336 0.4226 0 7
4.8260 3.3280 -2.7336 0.4226 0 7
4.7957 3.3716 -2.7336 0.4226 0 7
4.7650 3.4148 -2.7336 0.4226 0 7
4.7339 3.4578 -2.7336 0.4226 0 7
4.7024 3.5005 -2.7336 0.4226 0 7
4.6705 3.5429 -2.7336 0.4226 0 7
4.6383 3.5851 -2.7336 0.4226 0 7
4.6056 3.6269 -2.7336 0.4226 0 7
4.5726 3.6684 -2.7336 0.4226 0 7
4.5393 3.7097 -2.7336 0.4226 0 7
4.5055 3.7506 -2.7336 0.4226 0 7
4.4714 3.7912 -2.7336 0.4226 0 7
4.4369 3.8315 -2.7336 0.4226 0 7
4.4020 3.8715 -2.7336 0.4226 0 7
4.3668 3.9112 -2.7336 0.4226 0 7
4.3312 3.9505 -2.7336 0.4226 0 7
4.2953 3.9896 -2.7336 0.4226 0 7
4.2590 4.0283 -2.7336 0.4226 0 7
4.2224 4.0667 -2.7336 0.4226 0 7
4.1854 4.1047 -2.7336 0.4226 0 7
4.1481 4.1424 -2.7336 0.4226 0 7
4.1104 4.1798 -2.7336 0.4226 0 7
4.0724 4.2168 -2.7336 0.4226 0 7
4.0341 4.2535 -2.7336 0.4226 0 7
3.9955 4.2898 -2.7336 0.4226 0 7
3.9565 4.3258 -2.7336 0.4226 0 7
3.9172 4.3614 -2.7336 0.4226 0 7
3.8775 4.3967 -2.7336 0.4226 0 7
3.8376 4.4316 -2.7336 0.4226 0 7
3.7973 4.4662 -2.7336 0.4226 0 7
3.7568 4.5003 -2.7336 0.4226 0 7
3.7159 4.5342 -2.7336 0.4226 0 7
3.6747 4.5676 -2.7336 0.4226 0 7
3.6332 4.6007 -2.7336 0.4226 0 7
3.5914 4.6334 -2.7336 0.4226 0 7
3.5493 4.6657 -2.7336 0.4226 0 7
3.5070 4.6976 -2.7336 0.4226 0 7
3.4643 4.7291 -2.7336 0.4226 0 7
3.4214 4.7603 -2.7336 0.4226 0 7
3.3782 4.7911 -2.7336 0.4226 0 7
3.3347 4.8214 -2.7336 0.4226 0 7
3.2909 4.8514 -2.7336 0.4226 0 6
3.2469 4.8810 -2.7336 0.4226 0 6
3.2026 4.9102 -2.7336 0.4226 0 6
3.1580 4.9390 -2.7336 0.4226 0 7
3.1132 4.9673 -2.7336 0.4226 0 7
3.0681 4.9953 -2.7336 0.4226 0 7
3.0228 5.0229 -2.7336 0.4226 0 7
2.9772 5.0500 -2.7336 0.4226 0 7
2.9313 5.0768 -2.7336 0.4226 0 7
2.8853 5.1031 -2.7336 0.4226 0 7
2.8390 5.1290 -2.7336 0.4226 0 7
2.7925 5.1545 -2.7336 0.4226 0 7
2.7457 5.1795 -2.7336 0.4226 0 7
2.6987 5.2042 -2.7336 0.4226 0 7
2.6515 5.2284 -2.7336 0.4226 0 7
2.6041 5.2522 -2.7336 0.4226 0 7
2.5564 5.2755 -2.7336 0.4226 0 7
2.5086 5.2984 -2.7336 0.4226 0 7
2.4605 5.3209 -2.7336 0.4226 0 7
2.4123 5.3430 -2.7336 0.4226 0 7
2.3638 5.3646 -2.7336 0.4226 0 7
2.3152 5.3857 -2.7336 0.4226 0 7
2.2664 5.4065 -2.7336 0.4226 0 7
2.2173 5.4268 -2.7336 0.4226 0 7
2.1681 5.4466 -2.7336 0.4226 0 7
2.1188 5.4660 -2.7336 0.4226 0 7
2.0692 5.4850 -2.7336 0.4226 0 7
2.0195 5.5035 -2.7336 0.4226 0 7
1.9696 5.5215 -2.7336 0.4226 0 7
1.9196 5.5391 -2.7336 0.4226 0 7
1.8693 5.5562 -2.7336 0.4226 0 7
1.8190 5.5729 -2.7336 0.4226 0 7
1.7685 5.5892 -2.7336 0.4226 0 7
1.7178 5.6049 -2.7336 0.4226 0 7
1.6670 5.6203 -2.7336 0.4226 0 7
1.6161 5.6351 -2.7336 0.4226 0 7
1.5650 5.6495 -2.7336 0.4226 0 7
1.5138 5.6634 -2.7336 0.4226 0 7
1.4625 5.6769 -2.7336 0.4226 0 7
1.4111 5.6899 -2.7336 0.4226 0 7
1.3595 5.7024 -2.7336 0.4226 0 7
1.3079 5.7145 -2.7336 0.4226 0 7
1.2561 5.7261 -2.7336 0.4226 0 7
1.2042 5.7373 -2.7336 0.4226 0 7
1.1523 5.7479 -2.7336 0.4226 0 7
1.1002 5.7581 -2.7336 0.4226 0 7
1.0481 5.7678 -2.7336 0.4226 0 7
0.9958 5.7771 -2.7336 0.4226 0 7
0.9435 5.7859 -2.7336 0.4226 0 7
0.8911 5.7942 -2.7336 0.4226 0 7
0.8386 5.8020 -2.7336 0.4226 0 7
0.7861 5.8093 -2.7336 0.4226 0 7
0.7335 5.8162 -2.7336 0.4226 0 7
0.6808 5.8226 -2.7336 0.4226 0 7
0.6281 5.8285 -2.7336 0.4226 0 7
0.5753 5.8340 -2.7336 0.4226 0 7
0.5225 5.8389 -2.7336 0.4226 0 7
0.4696 5.8434 -2.7336 0.4226 0 7
0.4168 5.8474 -2.7336 0.4226 0 7
0.3638 5.8510 -2.7336 0.4226 0 7
0.3108 5.8540 -2.7336 0.4226 0 7
0.2579 5.8566 -2.7336 0.4226 0 7
0.2048 5.8587 -2.7336 0.4226 0 7
0.1518 5.8603 -2.7336 0.4226 0 7
0.0988 5.8614 -2.7336 0.4226 0 7
0.0457 5.8621 -2.7336 0.4226 0 7
-0.0073 5.8623 -2.7336 0.4226 0 7
-0.0604 5.8620 -2.7336 0.4226 0 7
-0.1134 5.8612 -2.7336 0.4226 0 7
-0.1665 5.8599 -2.7336 0.4226 0 7
