ply
format ascii 1.0
element vertex 1374
property float32 x
property float32 y
property float32 z
property float32 CosAngle
property uint32 ObjIdx
property uint32 ObjTag
end_header
-2.7986 16.0614 -2.7330 0.1653 0 6
-2.9438 16.0354 -2.7330 0.1653 0 6
-3.0888 16.0081 -2.7330 0.1653 0 6
-3.2335 15.9795 -2.7330 0.1653 0 6
-3.3780 15.9496 -2.7330 0.1653 0 6
-3.5222 15.9184 -2.7330 0.1653 0 6
14.3180 0.0000 -2.7330 0.1875 0 7
14.3174 0.1296 -2.7330 0.1875 0 7
14.3156 0.2591 -2.7330 0.1875 0 7
14.3127 0.3887 -2.7330 0.1875 0 7
14.3086 0.5182 -2.7330 0.1875 0 7
14.3033 0.6476 -2.7330 0.1875 0 7
14.2969 0.7770 -2.7330 0.1875 0 7
14.2893 0.9063 -2.7330 0.1875 0 7
14.2805 1.0356 -2.7330 0.1875 0 7
14.2705 1.1648 -2.7330 0.1875 0 7
14.2594 1.2939 -2.7330 0.1875 0 7
14.2471 1.4229 -2.7330 0.1875 0 7
14.2337 1.5517 -2.7330 0.1875 0 7
14.2190 1.6805 -2.7330 0.1875 0 7
14.2033 1.8091 -2.7330 0.1875 0 7
14.1863 1.9375 -2.7330 0.1875 0 7
14.1682 2.0658 -2.7330 0.1875 0 7
14.1489 2.1939 -2.7330 0.1875 0 7
14.1285 2.3219 -2.7330 0.1875 0 7
14.1069 2.4496 -2.7330 0.1875 0 7
14.0842 2.5772 -2.7330 0.1875 0 7
14.0602 2.7045 -2.7330 0.1875 0 7
14.0352 2.8316 -2.7330 0.1875 0 7
14.0090 2.9585 -2.7330 0.1875 0 7
13.9817 3.0852 -2.7330 0.1875 0 7
13.9532 3.2116 -2.7330 0.1875 0 7
13.9235 3.3377 -2.7330 0.1875 0 7
13.8928 3.4635 -2.7330 0.1875 0 7
13.8609 3.5891 -2.7330 0.1875 0 7
13.8278 3.7144 -2.7330 0.1875 0 7
13.7936 3.8394 -2.7330 0.1875 0 7
13.7583 3.9640 -2.7330 0.1875 0 7
13.7219 4.0884 -2.7330 0.1875 0 7
13.6843 4.2124 -2.7330 0.1875 0 7
13.6457 4.3360 -2.7330 0.1875 0 7
13.6059 4.4593 -2.7330 0.1875 0 7
13.5650 4.5823 -2.7330 0.1875 0 7
13.5229 4.7048 -2.7330 0.1875 0 7
13.4798 4.8270 -2.7330 0.1875 0 7
13.4356 4.9488 -2.7330 0.1875 0 7
13.3902 5.0701 -2.7330 0.1875 0 7
13.3438 5.1911 -2.7330 0.1875 0 7
13.2963 5.3116 -2.7330 0.1875 0 7
13.2477 5.4317 -2.7330 0.1875 0 7
13.1980 5.5514 -2.7330 0.1875 0 7
13.1472 5.6706 -2.7330 0.1875 0 7
13.0954 5.7893 -2.7330 0.1875 0 7
13.0425 5.9076 -2.7330 0.1875 0 7
12.9885 6.0254 -2.7330 0.1875 0 7
12.9334 6.1426 -2.7330 0.1875 0 7
12.8773 6.2594 -2.7330 0.1875 0 7
12.8201 6.3757 -2.7330 0.1875 0 7
12.7619 6.4914 -2.7330 0.1875 0 7
12.7026 6.6067 -2.7330 0.1875 0 7
12.6423 6.7213 -2.7330 0.1875 0 7
12.5810 6.8355 -2.7330 0.1875 0 7
12.5186 6.9490 -2.7330 0.1875 0 7
12.4552 7.0620 -2.7330 0.1875 0 7
12.3908 7.1744 -2.7330 0.1875 0 7
12.3254 7.2863 -2.7330 0.1875 0 7
12.2590 7.3975 -2.7330 0.1875 0 7
12.1915 7.5081 -2.7330 0.1875 0 7
12.1231 7.6181 -2.7330 0.1875 0 7
12.0536 7.7275 -2.7330 0.1875 0 7
11.9832 7.8363 -2.7330 0.1875 0 7
11.9118 7.9444 -2.7330 0.1875 0 7
11.8395 8.0519 -2.7330 0.1875 0 7
11.7661 8.1587 -2.7330 0.1875 0 7
11.6918 8.2648 -2.7330 0.1875 0 7
11.6165 8.3703 -2.7330 0.1875 0 7
11.5403 8.4750 -2.7330 0.1875 0 7
11.4632 8.5791 -2.7330 0.1875 0 7
11.3851 8.6825 -2.7330 0.1875 0 7
11.3060 8.7852 -2.7330 0.1875 0 7
11.2261 8.8871 -2.7330 0.1875 0 7
11.1452 8.9883 -2.7330 0.1875 0 7
11.0634 9.0888 -2.7330 0.1875 0 7
10.9807 9.1886 -2.7330 0.1875 0 7
10.8971 9.2875 -2.7330 0.1875 0 7
10.8126 9.3858 -2.7330 0.1875 0 7
10.7272 9.4832 -2.7330 0.1875 0 7
10.6410 9.5799 -2.7330 0.1875 0 7
10.5539 9.6758 -2.7330 0.1875 0 7
10.4659 9.7709 -2.7330 0.1875 0 7
10.3770 9.8652 -2.7330 0.1875 0 7
10.2873 9.9587 -2.7330 0.1875 0 7
10.1968 10.0514 -2.7330 0.1875 0 7
10.1054 10.1433 -2.7330 0.1875 0 7
10.0132 10.2343 -2.7330 0.1875 0 7
9.9202 10.3245 -2.7330 0.1875 0 7
9.8264 10.4138 -2.7330 0.1875 0 7
9.7317 10.5023 -2.7330 0.1875 0 7
9.6363 10.5899 -2.7330 0.1875 0 7
9.5401 10.6767 -2.7330 0.1875 0 7
9.4431 10.7626 -2.7330 0.1875 0 7
9.3453 10.8476 -2.7330 0.1875 0 7
9.2468 10.9317 -2.7330 0.1875 0 7
9.1475 11.0150 -2.7330 0.1875 0 7
9.0474 11.0973 -2.7330 0.1875 0 7
8.9466 11.1787 -2.7330 0.1875 0 7
8.8451 11.2592 -2.7330 0.1875 0 7
8.7429 11.3388 -2.7330 0.1875 0 7
8.6399 11.4174 -2.7330 0.1875 0 7
8.4832 11.4237 -2.7160 0.5369 0 8
8.2742 11.3555 -2.6819 0.6318 0 8
8.0915 11.3186 -2.6557 0.7117 0 8
7.9246 11.2999 -2.6344 0.7769 0 8
7.7681 11.2927 -2.6162 0.8294 0 8
7.6203 11.2954 -2.6008 0.8343 0 8
7.4828 11.3110 -2.5887 0.7384 0 8
7.3787 11.3760 -2.5882 0.1875 0 8
7.2755 11.4424 -2.5882 0.1875 0 8
7.1722 11.5086 -2.5884 0.7935 0 8
7.0672 11.5721 -2.5882 0.1875 0 14
6.9622 11.6356 -2.5882 0.1875 0 14
6.8566 11.6981 -2.5882 0.1875 0 14
6.7505 11.7597 -2.5882 0.1875 0 14
6.6438 11.8203 -2.5882 0.1875 0 14
6.5366 11.8799 -2.5882 0.1875 0 14
6.3230 12.0010 -2.5892 0.2046 0 8
6.2117 12.0530 -2.5882 0.1875 0 8
6.1210 12.1457 -2.5961 0.7665 0 8
6.0570 12.2942 -2.6160 0.6937 0 8
6.0013 12.4644 -2.6406 0.6210 0 8
5.9555 12.6612 -2.6707 0.5508 0 8
5.9217 12.8910 -2.7078 0.4844 0 8
5.8588 13.0644 -2.7330 0.1875 0 6
5.7404 13.1169 -2.7330 0.1875 0 6
5.6214 13.1683 -2.7330 0.1875 0 6
5.5021 13.2186 -2.7330 0.1875 0 6
5.3822 13.2679 -2.7330 0.1875 0 6
5.2619 13.3160 -2.7330 0.1875 0 6
5.1412 13.3631 -2.7330 0.1875 0 6
5.0201 13.4091 -2.7330 0.1875 0 6
4.8985 13.4540 -2.7330 0.1875 0 6
4.7766 13.4977 -2.7330 0.1875 0 6
4.6543 13.5404 -2.7330 0.1875 0 7
4.5315 13.5820 -2.7330 0.1875 0 7
4.4085 13.6224 -2.7330 0.1875 0 7
4.2850 13.6617 -2.7330 0.1875 0 7
4.1612 13.7000 -2.7330 0.1875 0 6
4.0371 13.7371 -2.7330 0.1875 0 6
3.9126 13.7730 -2.7330 0.1875 0 6
3.7878 13.8079 -2.7330 0.1875 0 6
3.6627 13.8416 -2.7330 0.1875 0 7
3.5373 13.8742 -2.7330 0.1875 0 7
3.4116 13.9056 -2.7330 0.1875 0 7
3.2856 13.9359 -2.7330 0.1875 0 7
3.1594 13.9651 -2.7330 0.1875 0 6
3.0329 13.9931 -2.7330 0.1875 0 6
2.9062 14.0199 -2.7330 0.1875 0 6
2.7792 14.0457 -2.7330 0.1875 0 6
2.6520 14.0702 -2.7330 0.1875 0 7
2.5245 14.0937 -2.7330 0.1875 0 7
2.3969 14.1159 -2.7330 0.1875 0 7
2.2691 14.1371 -2.7330 0.1875 0 7
2.1411 14.1570 -2.7330 0.1875 0 6
2.0129 14.1758 -2.7330 0.1875 0 6
1.8845 14.1934 -2.7330 0.1875 0 6
1.7560 14.2099 -2.7330 0.1875 0 6
1.6273 14.2252 -2.7330 0.1875 0 7
1.4985 14.2394 -2.7330 0.1875 0 7
1.3696 14.2523 -2.7330 0.1875 0 7
1.2406 14.2641 -2.7330 0.1875 0 7
1.1115 14.2748 -2.7330 0.1875 0 6
0.9823 14.2843 -2.7330 0.1875 0 6
0.8530 14.2926 -2.7330 0.1875 0 6
0.7236 14.2997 -2.7330 0.1875 0 6
0.5942 14.3057 -2.7330 0.1875 0 7
0.4647 14.3105 -2.7330 0.1875 0 7
0.3352 14.3141 -2.7330 0.1875 0 7
0.2056 14.3165 -2.7330 0.1875 0 7
0.0761 14.3178 -2.7330 0.1875 0 6
-0.0535 14.3179 -2.7330 0.1875 0 6
-0.1830 14.3168 -2.7330 0.1875 0 6
-0.3126 14.3146 -2.7330 0.1875 0 6
-0.4421 14.3112 -2.7330 0.1875 0 7
-0.5716 14.3066 -2.7330 0.1875 0 7
-0.7010 14.3008 -2.7330 0.1875 0 7
-0.8304 14.2939 -2.7330 0.1875 0 7
-0.9597 14.2858 -2.7330 0.1875 0 6
-1.0889 14.2765 -2.7330 0.1875 0 6
-1.2181 14.2661 -2.7330 0.1875 0 6
-1.3471 14.2545 -2.7330 0.1875 0 6
-1.4761 14.2417 -2.7330 0.1875 0 7
-1.6049 14.2278 -2.7330 0.1875 0 7
-1.7335 14.2127 -2.7330 0.1875 0 7
-1.8621 14.1964 -2.7330 0.1875 0 7
-1.9905 14.1790 -2.7330 0.1875 0 6
-2.1187 14.1604 -2.7330 0.1875 0 6
-2.2467 14.1406 -2.7330 0.1875 0 6
-2.3746 14.1197 -2.7330 0.1875 0 6
-2.5023 14.0976 -2.7330 0.1875 0 7
-2.6298 14.0744 -2.7330 0.1875 0 7
-2.7570 14.0500 -2.7330 0.1875 0 7
-2.8840 14.0245 -2.7330 0.1875 0 7
-3.0108 13.9978 -2.7330 0.1875 0 6
-3.1374 13.9700 -2.7330 0.1875 0 6
-3.2636 13.9411 -2.7330 0.1875 0 6
-3.3897 13.9110 -2.7330 0.1875 0 6
-3.5154 13.8797 -2.7330 0.1875 0 7
-3.6408 13.8474 -2.7330 0.1875 0 7
-3.7660 13.8138 -2.7330 0.1875 0 7
-3.8908 13.7792 -2.7330 0.1875 0 7
-4.0154 13.7434 -2.7330 0.1875 0 7
-4.1396 13.7065 -2.7330 0.1875 0 7
-4.2634 13.6685 -2.7330 0.1875 0 7
-4.3869 13.6294 -2.7330 0.1875 0 6
-4.5101 13.5891 -2.7330 0.1875 0 6
-4.6328 13.5476 -2.7329 0.1982 0 6
-4.7525 13.4973 -2.7314 0.1983 0 8
-4.8716 13.4460 -2.7298 0.1984 0 8
-4.9902 13.3938 -2.7282 0.1985 0 8
-5.1084 13.3405 -2.7267 0.1993 0 8
-5.2233 13.2798 -2.7238 0.7248 0 8
-5.2988 13.1218 -2.7012 0.7309 0 8
-5.3731 12.9665 -2.6791 0.7369 0 8
-5.4494 12.8214 -2.6592 0.7817 0 8
-5.5263 12.6823 -2.6406 0.7872 0 8
-5.6021 12.5450 -2.6225 0.7926 0 8
-5.6773 12.4104 -2.6050 0.7857 0 8
-5.7517 12.2782 -2.5880 0.8428 0 8
-5.8457 12.1904 -2.5806 0.1875 0 8
-5.9558 12.1370 -2.5806 0.1875 0 8
-6.0653 12.0827 -2.5806 0.1875 0 8
-6.1744 12.0273 -2.5806 0.1875 0 8
-6.2830 11.9709 -2.5806 0.1875 0 8
-6.3911 11.9136 -2.5806 0.1875 0 8
-6.4986 11.8553 -2.5806 0.1875 0 8
-6.6056 11.7960 -2.5806 0.1875 0 8
-6.7121 11.7357 -2.5806 0.1875 0 8
-6.8180 11.6745 -2.5806 0.1875 0 8
-6.9234 11.6123 -2.5806 0.1875 0 8
-7.0282 11.5492 -2.5806 0.1875 0 8
-7.1324 11.4851 -2.5806 0.1875 0 8
-7.2360 11.4201 -2.5806 0.1875 0 8
-7.3391 11.3542 -2.5806 0.1875 0 8
-7.4415 11.2873 -2.5806 0.1875 0 8
-7.5433 11.2195 -2.5806 0.1875 0 8
-7.6446 11.1508 -2.5806 0.1875 0 8
-7.7451 11.0811 -2.5806 0.1875 0 8
-7.8451 11.0106 -2.5806 0.1875 0 8
-7.9444 10.9391 -2.5806 0.1875 0 8
-8.0431 10.8668 -2.5806 0.1875 0 8
-8.1411 10.7936 -2.5806 0.1875 0 8
-8.2384 10.7195 -2.5806 0.1875 0 8
-8.3351 10.6445 -2.5806 0.1875 0 8
-8.4311 10.5686 -2.5806 0.1875 0 8
-8.5263 10.4919 -2.5806 0.1875 0 8
-8.6209 10.4143 -2.5806 0.1875 0 8
-8.7148 10.3359 -2.5806 0.1875 0 8
-8.8080 10.2566 -2.5806 0.1875 0 8
-8.9004 10.1765 -2.5806 0.1875 0 8
-8.9922 10.0955 -2.5806 0.1875 0 8
-9.0831 10.0138 -2.5806 0.1875 0 8
-9.1734 9.9311 -2.5806 0.1875 0 8
-9.1119 9.6872 -2.5385 0.9893 0 5
-9.2002 9.6054 -2.5388 0.9892 0 5
-9.2885 9.5236 -2.5393 0.9890 0 5
-9.5268 9.5927 -2.5806 0.1875 0 8
-9.6132 9.5061 -2.5806 0.1875 0 8
-9.6988 9.4187 -2.5806 0.1875 0 8
-9.7836 9.3305 -2.5806 0.1875 0 8
-9.8677 9.2416 -2.5806 0.1875 0 8
-9.9509 9.1520 -2.5806 0.1875 0 8
-10.0333 9.0615 -2.5806 0.1875 0 8
-10.1149 8.9704 -2.5806 0.1875 0 8
-10.1957 8.8785 -2.5806 0.1875 0 8
-10.2756 8.7859 -2.5806 0.1875 0 8
-10.3547 8.6925 -2.5806 0.1875 0 8
-10.4329 8.5985 -2.5806 0.1875 0 8
-10.5103 8.5037 -2.5806 0.1875 0 8
-10.5868 8.4083 -2.5806 0.1875 0 8
-10.6624 8.3121 -2.5806 0.1875 0 8
-10.7372 8.2153 -2.5806 0.1875 0 8
-10.8111 8.1178 -2.5806 0.1875 0 8
-10.9120 8.0401 -2.5872 0.7054 0 8
-11.0497 7.9884 -2.6026 0.8256 0 8
-11.2018 7.9450 -2.6214 0.7724 0 8
-11.3566 7.9013 -2.6407 0.7667 0 8
-11.5136 7.8569 -2.6606 0.7610 0 8
-11.6730 7.8117 -2.6810 0.7552 0 8
-11.8425 7.7710 -2.7037 0.6942 0 8
-12.0088 7.7255 -2.7256 0.1987 0 8
-12.0850 7.6208 -2.7271 0.1986 0 8
-12.1603 7.5154 -2.7286 0.1985 0 8
-12.2348 7.4093 -2.7302 0.1984 0 8
-12.3084 7.3025 -2.7318 0.1983 0 8
-12.3795 7.1940 -2.7330 0.1875 0 7
-12.4441 7.0817 -2.7330 0.1875 0 7
-12.5076 6.9688 -2.7330 0.1875 0 7
-12.5702 6.8553 -2.7330 0.1875 0 7
-12.6317 6.7413 -2.7330 0.1875 0 7
-12.6922 6.6267 -2.7330 0.1875 0 7
-12.7516 6.5116 -2.7330 0.1875 0 6
-12.8100 6.3959 -2.7330 0.1875 0 6
-12.8674 6.2797 -2.7330 0.1875 0 6
-12.9237 6.1631 -2.7330 0.1875 0 6
-12.9789 6.0459 -2.7330 0.1875 0 6
-13.0331 5.9282 -2.7330 0.1875 0 6
-13.0862 5.8100 -2.7330 0.1875 0 6
-13.1383 5.6913 -2.7330 0.1875 0 7
-13.1892 5.5722 -2.7330 0.1875 0 7
-13.2391 5.4526 -2.7330 0.1875 0 7
-13.2879 5.3326 -2.7330 0.1875 0 7
-13.3356 5.2122 -2.7330 0.1875 0 7
-13.3822 5.0913 -2.7330 0.1875 0 7
-13.4277 4.9700 -2.7330 0.1875 0 7
-13.4722 4.8482 -2.7330 0.1875 0 7
-13.5155 4.7262 -2.7330 0.1875 0 7
-13.5577 4.6037 -2.7330 0.1875 0 7
-13.5988 4.4808 -2.7330 0.1875 0 7
-13.6388 4.3576 -2.7330 0.1875 0 7
-13.6776 4.2340 -2.7330 0.1875 0 7
-13.7154 4.1100 -2.7330 0.1875 0 7
-13.7521 3.9857 -2.7330 0.1875 0 7
-13.7875 3.8611 -2.7330 0.1875 0 7
-13.8219 3.7362 -2.7330 0.1875 0 7
-13.8552 3.6110 -2.7330 0.1875 0 7
-13.8873 3.4855 -2.7330 0.1875 0 7
-13.9182 3.3596 -2.7330 0.1875 0 7
-13.9481 3.2336 -2.7330 0.1875 0 7
-13.9768 3.1072 -2.7330 0.1875 0 7
-14.0043 2.9806 -2.7330 0.1875 0 7
-14.0307 2.8538 -2.7330 0.1875 0 7
-14.0560 2.7267 -2.7330 0.1875 0 7
-14.0800 2.5994 -2.7330 0.1875 0 7
-14.1030 2.4719 -2.7330 0.1875 0 7
-14.1248 2.3442 -2.7330 0.1875 0 7
-14.1454 2.2163 -2.7330 0.1875 0 7
-14.1649 2.0881 -2.7330 0.1875 0 7
-14.1832 1.9599 -2.7330 0.1875 0 7
-14.2004 1.8315 -2.7330 0.1875 0 7
-14.2163 1.7029 -2.7330 0.1875 0 7
-14.2312 1.5742 -2.7330 0.1875 0 7
-14.2448 1.4454 -2.7330 0.1875 0 7
-14.2573 1.3164 -2.7330 0.1875 0 7
-14.2687 1.1873 -2.7330 0.1875 0 7
-14.2788 1.0581 -2.7330 0.1875 0 7
-14.2878 0.9289 -2.7330 0.1875 0 7
-14.2956 0.7996 -2.7330 0.1875 0 7
-14.3023 0.6701 -2.7330 0.1875 0 7
-14.3078 0.5407 -2.7330 0.1875 0 7
-14.3121 0.4112 -2.7330 0.1875 0 7
-14.3152 0.2817 -2.7330 0.1875 0 7
-14.3172 0.1521 -2.7330 0.1875 0 7
-14.3180 0.0226 -2.7330 0.1875 0 7
-14.3176 -0.1070 -2.7330 0.1875 0 7
-14.3160 -0.2365 -2.7330 0.1875 0 7
-14.3133 -0.3660 -2.7330 0.1875 0 7
-14.3094 -0.4956 -2.7330 0.1875 0 7
-14.3043 -0.6251 -2.7330 0.1875 0 7
-14.2981 -0.7544 -2.7330 0.1875 0 7
-14.2907 -0.8838 -2.7330 0.1875 0 7
-14.2821 -1.0131 -2.7330 0.1875 0 7
-14.2723 -1.1422 -2.7330 0.1875 0 7
-14.2614 -1.2714 -2.7330 0.1875 0 7
-14.2493 -1.4004 -2.7330 0.1875 0 7
-14.2361 -1.5292 -2.7330 0.1875 0 7
-14.2216 -1.6576 -2.7330 0.1875 0 7
-14.2061 -1.7866 -2.7330 0.1875 0 6
-14.1893 -1.9151 -2.7330 0.1875 0 7
-14.1714 -2.0434 -2.7330 0.1875 0 6
-14.1523 -2.1716 -2.7330 0.1875 0 7
-14.1321 -2.2995 -2.7330 0.1875 0 7
-14.1107 -2.4273 -2.7330 0.1875 0 7
-14.0882 -2.5549 -2.7330 0.1875 0 7
-14.0645 -2.6823 -2.7330 0.1875 0 7
-14.0396 -2.8095 -2.7330 0.1875 0 7
-14.0136 -2.9364 -2.7330 0.1875 0 7
-13.9865 -3.0631 -2.7330 0.1875 0 7
-13.9582 -3.1895 -2.7330 0.1875 0 7
-13.9288 -3.3157 -2.7330 0.1875 0 7
-13.8982 -3.4416 -2.7330 0.1875 0 7
-13.8665 -3.5672 -2.7330 0.1875 0 7
-13.8337 -3.6926 -2.7330 0.1875 0 7
-13.7997 -3.8176 -2.7330 0.1875 0 7
-13.7646 -3.9423 -2.7330 0.1875 0 7
-13.7283 -4.0667 -2.7330 0.1875 0 7
-13.6909 -4.1907 -2.7330 0.1875 0 7
-13.6525 -4.3145 -2.7330 0.1875 0 7
-13.6129 -4.4378 -2.7330 0.1875 0 7
-13.5722 -4.5608 -2.7330 0.1875 0 7
-13.5303 -4.6835 -2.7330 0.1875 0 7
-13.4874 -4.8057 -2.7330 0.1875 0 7
-13.4434 -4.9275 -2.7330 0.1875 0 7
-13.3982 -5.0490 -2.7330 0.1875 0 7
-13.3520 -5.1700 -2.7330 0.1875 0 6
-13.3047 -5.2906 -2.7330 0.1875 0 6
-13.2562 -5.4108 -2.7330 0.1875 0 6
-13.2067 -5.5305 -2.7330 0.1875 0 6
-13.1561 -5.6498 -2.7330 0.1875 0 6
-13.1045 -5.7686 -2.7330 0.1875 0 6
-13.0517 -5.8870 -2.7330 0.1875 0 6
-12.9979 -6.0048 -2.7330 0.1875 0 6
-12.9431 -6.1222 -2.7330 0.1875 0 7
-12.8871 -6.2391 -2.7330 0.1875 0 7
-12.8302 -6.3554 -2.7330 0.1875 0 7
-12.7721 -6.4713 -2.7330 0.1875 0 7
-12.7130 -6.5866 -2.7330 0.1875 0 7
-12.6529 -6.7013 -2.7330 0.1875 0 6
-12.5918 -6.8156 -2.7330 0.1875 0 6
-12.5296 -6.9292 -2.7330 0.1875 0 6
-12.4663 -7.0423 -2.7330 0.1875 0 6
-12.4021 -7.1549 -2.7330 0.1875 0 7
-12.3369 -7.2668 -2.7330 0.1875 0 7
-12.2706 -7.3781 -2.7330 0.1875 0 7
-12.2033 -7.4889 -2.7330 0.1875 0 7
-12.1351 -7.5990 -2.7330 0.1875 0 7
-12.0658 -7.7085 -2.7330 0.1875 0 6
-11.9956 -7.8174 -2.7330 0.1875 0 6
-11.9243 -7.9256 -2.7330 0.1875 0 6
-11.8521 -8.0331 -2.7330 0.1875 0 6
-11.7790 -8.1401 -2.7330 0.1875 0 6
-11.7048 -8.2463 -2.7330 0.1875 0 7
-11.6297 -8.3519 -2.7330 0.1875 0 7
-11.5537 -8.4568 -2.7330 0.1875 0 7
-11.4767 -8.5610 -2.7330 0.1875 0 7
-11.3987 -8.6645 -2.7330 0.1875 0 7
-11.3199 -8.7673 -2.7330 0.1875 0 6
-11.2401 -8.8694 -2.7330 0.1875 0 6
-11.1593 -8.9707 -2.7330 0.1875 0 6
-11.0777 -9.0713 -2.7330 0.1875 0 6
-10.9952 -9.1712 -2.7330 0.1875 0 6
-10.9117 -9.2703 -2.7330 0.1875 0 6
-10.8274 -9.3687 -2.7330 0.1875 0 6
-10.7422 -9.4663 -2.7330 0.1875 0 6
-10.6561 -9.5631 -2.7330 0.1875 0 6
-10.5691 -9.6591 -2.7330 0.1875 0 7
-10.4813 -9.7544 -2.7330 0.1875 0 7
-10.3926 -9.8488 -2.7330 0.1875 0 7
-10.3030 -9.9424 -2.7330 0.1875 0 7
-10.2126 -10.0353 -2.7330 0.1875 0 7
-10.1214 -10.1273 -2.7330 0.1875 0 7
-10.0294 -10.2184 -2.7330 0.1875 0 7
-9.9365 -10.3088 -2.7330 0.1875 0 7
-9.8428 -10.3983 -2.7330 0.1875 0 7
-9.7483 -10.4869 -2.7330 0.1875 0 7
-9.6530 -10.5747 -2.7330 0.1875 0 7
-9.5569 -10.6616 -2.7330 0.1875 0 7
-9.4600 -10.7477 -2.7330 0.1875 0 7
-9.3624 -10.8328 -2.7330 0.1875 0 7
-9.2640 -10.9171 -2.7330 0.1875 0 7
-9.1648 -11.0005 -2.7330 0.1875 0 7
-9.0621 -11.0795 -2.7321 0.2007 0 8
-8.9574 -11.1559 -2.7309 0.2008 0 8
-8.8521 -11.2315 -2.7296 0.2009 0 8
-8.7462 -11.3061 -2.7284 0.2009 0 8
-8.6398 -11.3799 -2.7272 0.2010 0 8
-8.5328 -11.4526 -2.7261 0.2011 0 8
-8.4076 -11.5004 -2.7192 0.8316 0 8
-8.2546 -11.5083 -2.7033 0.8365 0 8
-8.1033 -11.5160 -2.6878 0.8413 0 8
-7.9537 -11.5236 -2.6726 0.8461 0 8
-7.8058 -11.5310 -2.6579 0.8508 0 8
-7.6594 -11.5383 -2.6435 0.8554 0 8
-7.5146 -11.5455 -2.6295 0.8600 0 8
-7.3712 -11.5527 -2.6158 0.8645 0 8
-7.2293 -11.5597 -2.6024 0.8689 0 8
-7.0889 -11.5665 -2.5894 0.8733 0 8
-6.9600 -11.5904 -2.5806 0.1875 0 8
-6.8548 -11.6529 -2.5806 0.1875 0 8
-6.7491 -11.7144 -2.5806 0.1875 0 8
-6.6428 -11.7750 -2.5806 0.1875 0 8
-6.5360 -11.8347 -2.5806 0.1875 0 8
-6.4286 -11.8933 -2.5806 0.1875 0 8
-6.3207 -11.9510 -2.5806 0.1875 0 8
-6.2123 -12.0077 -2.5806 0.1875 0 8
-6.1034 -12.0634 -2.5806 0.1875 0 8
-5.9940 -12.1182 -2.5806 0.1875 0 8
-5.8841 -12.1719 -2.5806 0.1875 0 8
-5.7737 -12.2247 -2.5806 0.1875 0 8
-5.6629 -12.2764 -2.5806 0.1875 0 8
-5.5516 -12.3271 -2.5806 0.1875 0 8
-5.4398 -12.3769 -2.5806 0.1875 0 8
-5.3276 -12.4256 -2.5806 0.1875 0 8
-5.2149 -12.4733 -2.5806 0.1875 0 8
-5.1018 -12.5200 -2.5806 0.1875 0 8
-4.9883 -12.5656 -2.5806 0.1875 0 8
-4.8744 -12.6103 -2.5806 0.1875 0 8
-4.7601 -12.6538 -2.5806 0.1875 0 8
-4.6454 -12.6964 -2.5806 0.1875 0 8
-4.5303 -12.7379 -2.5806 0.1875 0 8
-4.4149 -12.7784 -2.5806 0.1875 0 8
-4.2991 -12.8178 -2.5806 0.1875 0 8
-4.1829 -12.8562 -2.5806 0.1875 0 8
-4.0664 -12.8935 -2.5806 0.1875 0 8
-3.9496 -12.9298 -2.5806 0.1875 0 8
-3.8324 -12.9650 -2.5806 0.1875 0 8
-3.7149 -12.9991 -2.5806 0.1875 0 8
-3.4104 -12.3556 -2.4466 0.9634 0 5
-3.2916 -12.3604 -2.4415 0.9653 0 5
-3.2106 -12.5102 -2.4653 0.2150 0 5
-3.2421 -13.1251 -2.5806 0.1875 0 8
-3.1232 -13.1539 -2.5806 0.1875 0 8
-3.0040 -13.1816 -2.5806 0.1875 0 8
-2.8846 -13.2082 -2.5806 0.1875 0 8
-2.7650 -13.2338 -2.5806 0.1875 0 8
-2.6451 -13.2583 -2.5806 0.1875 0 8
-2.5250 -13.2817 -2.5806 0.1875 0 8
-2.4048 -13.3040 -2.5806 0.1875 0 8
-2.2843 -13.3252 -2.5806 0.1875 0 8
-2.1636 -13.3453 -2.5806 0.1875 0 8
-2.0427 -13.3644 -2.5806 0.1875 0 8
-1.9217 -13.3823 -2.5806 0.1875 0 8
-1.8006 -13.3991 -2.5806 0.1875 0 8
-1.6792 -13.4149 -2.5806 0.1875 0 8
-1.5578 -13.4295 -2.5806 0.1875 0 8
-1.4362 -13.4431 -2.5806 0.1875 0 8
-1.3145 -13.4555 -2.5806 0.1875 0 8
-1.1927 -13.4669 -2.5806 0.1875 0 8
-1.0708 -13.4771 -2.5806 0.1875 0 8
-0.9488 -13.4862 -2.5806 0.1875 0 8
-0.8267 -13.4943 -2.5806 0.1875 0 8
-0.7045 -13.5012 -2.5806 0.1875 0 8
-0.5824 -13.5070 -2.5806 0.1875 0 8
-0.4601 -13.5117 -2.5806 0.1875 0 8
-0.3378 -13.5153 -2.5806 0.1875 0 8
-0.2155 -13.5179 -2.5806 0.1875 0 8
-0.0932 -13.5192 -2.5806 0.1875 0 8
0.0292 -13.5195 -2.5806 0.1875 0 8
0.1515 -13.5187 -2.5806 0.1875 0 8
0.2738 -13.5168 -2.5806 0.1875 0 8
0.3961 -13.5138 -2.5806 0.1875 0 8
0.5184 -13.5096 -2.5806 0.1875 0 8
0.6406 -13.5044 -2.5806 0.1875 0 8
0.7628 -13.4980 -2.5806 0.1875 0 8
0.8849 -13.4906 -2.5806 0.1875 0 8
1.0070 -13.4820 -2.5806 0.1875 0 8
1.1289 -13.4724 -2.5806 0.1875 0 8
1.2508 -13.4616 -2.5806 0.1875 0 8
1.3725 -13.4497 -2.5806 0.1875 0 8
1.4942 -13.4367 -2.5806 0.1875 0 8
1.6157 -13.4227 -2.5806 0.1875 0 8
1.7371 -13.4075 -2.5806 0.1875 0 8
1.8584 -13.3912 -2.5806 0.1875 0 8
1.9795 -13.3739 -2.5806 0.1875 0 8
2.1004 -13.3554 -2.5806 0.1875 0 8
2.2212 -13.3359 -2.5806 0.1875 0 8
2.3417 -13.3152 -2.5806 0.1875 0 8
2.4621 -13.2935 -2.5806 0.1875 0 8
2.5823 -13.2707 -2.5806 0.1875 0 8
2.7023 -13.2467 -2.5806 0.1875 0 8
2.8221 -13.2218 -2.5806 0.1875 0 8
2.9416 -13.1957 -2.5806 0.1875 0 8
3.0609 -13.1685 -2.5806 0.1875 0 8
3.1799 -13.1403 -2.5806 0.1875 0 8
3.2987 -13.1109 -2.5806 0.1875 0 8
3.4172 -13.0806 -2.5806 0.1875 0 8
3.5354 -13.0491 -2.5806 0.1875 0 8
3.6533 -13.0166 -2.5806 0.1875 0 8
3.7710 -12.9830 -2.5806 0.1875 0 8
3.8883 -12.9483 -2.5806 0.1875 0 8
4.0053 -12.9126 -2.5806 0.1875 0 8
4.1220 -12.8759 -2.5806 0.1875 0 8
4.2383 -12.8380 -2.5806 0.1875 0 8
4.3543 -12.7991 -2.5806 0.1875 0 8
4.4700 -12.7592 -2.5806 0.1875 0 8
4.5853 -12.7183 -2.5806 0.1875 0 8
4.7002 -12.6762 -2.5806 0.1875 0 8
4.8147 -12.6332 -2.5806 0.1875 0 8
4.9288 -12.5891 -2.5806 0.1875 0 8
5.0425 -12.5440 -2.5806 0.1875 0 8
5.1558 -12.4978 -2.5806 0.1875 0 8
5.2687 -12.4507 -2.5806 0.1875 0 8
5.3811 -12.4025 -2.5806 0.1875 0 8
5.4931 -12.3533 -2.5806 0.1875 0 8
5.6047 -12.3031 -2.5806 0.1875 0 8
5.7158 -12.2519 -2.5806 0.1875 0 8
5.8264 -12.1996 -2.5806 0.1875 0 8
5.9366 -12.1464 -2.5806 0.1875 0 8
6.0462 -12.0922 -2.5806 0.1875 0 8
6.1554 -12.0370 -2.5806 0.1875 0 8
6.2725 -11.9969 -2.5840 0.7373 0 8
6.4107 -11.9956 -2.5962 0.8710 0 8
6.5521 -11.9977 -2.6093 0.8666 0 8
6.6949 -11.9997 -2.6228 0.8622 0 8
6.8392 -12.0018 -2.6367 0.8576 0 8
6.9850 -12.0038 -2.6509 0.8530 0 8
7.1323 -12.0058 -2.6655 0.8484 0 8
7.2813 -12.0077 -2.6805 0.8436 0 8
7.4320 -12.0097 -2.6958 0.8388 0 8
7.5843 -12.0116 -2.7115 0.8340 0 8
7.7324 -12.0041 -2.7255 0.2012 0 8
7.8440 -11.9387 -2.7267 0.2011 0 8
7.9552 -11.8724 -2.7279 0.2010 0 8
8.0658 -11.8051 -2.7291 0.2009 0 8
8.1760 -11.7369 -2.7303 0.2008 0 8
8.2856 -11.6677 -2.7315 0.2007 0 8
8.3946 -11.5975 -2.7328 0.2006 0 8
8.4999 -11.5220 -2.7330 0.1875 0 7
8.6038 -11.4446 -2.7330 0.1875 0 7
8.7070 -11.3663 -2.7330 0.1875 0 7
8.8095 -11.2870 -2.7330 0.1875 0 7
8.9113 -11.2069 -2.7330 0.1875 0 7
9.0123 -11.1258 -2.7330 0.1875 0 7
9.1126 -11.0437 -2.7330 0.1875 0 7
9.2122 -10.9608 -2.7330 0.1875 0 7
9.3110 -10.8770 -2.7330 0.1875 0 7
9.4091 -10.7923 -2.7330 0.1875 0 7
9.5063 -10.7067 -2.7330 0.1875 0 7
9.6028 -10.6203 -2.7330 0.1875 0 7
9.6985 -10.5329 -2.7330 0.1875 0 7
9.7935 -10.4447 -2.7330 0.1875 0 7
9.8876 -10.3557 -2.7330 0.1875 0 7
9.9809 -10.2658 -2.7330 0.1875 0 7
10.0734 -10.1751 -2.7330 0.1875 0 7
10.1650 -10.0835 -2.7330 0.1875 0 7
10.2558 -9.9911 -2.7330 0.1875 0 7
10.3458 -9.8979 -2.7330 0.1875 0 7
10.4350 -9.8039 -2.7330 0.1875 0 7
10.5233 -9.7090 -2.7330 0.1875 0 7
10.6107 -9.6134 -2.7330 0.1875 0 7
10.6972 -9.5170 -2.7330 0.1875 0 7
10.7829 -9.4198 -2.7330 0.1875 0 7
10.8677 -9.3219 -2.7330 0.1875 0 7
10.9516 -9.2231 -2.7330 0.1875 0 7
11.0346 -9.1237 -2.7330 0.1875 0 7
11.1168 -9.0234 -2.7330 0.1875 0 7
11.1980 -8.9225 -2.7330 0.1875 0 7
11.2782 -8.8208 -2.7330 0.1875 0 7
11.3576 -8.7184 -2.7330 0.1875 0 7
11.4360 -8.6152 -2.7330 0.1875 0 7
11.5135 -8.5114 -2.7330 0.1875 0 7
11.5901 -8.4069 -2.7330 0.1875 0 7
11.6656 -8.3017 -2.7330 0.1875 0 7
11.7403 -8.1957 -2.7330 0.1875 0 7
11.8140 -8.0892 -2.7330 0.1875 0 7
11.8867 -7.9819 -2.7330 0.1875 0 7
11.9584 -7.8741 -2.7330 0.1875 0 7
12.0292 -7.7655 -2.7330 0.1875 0 7
12.0990 -7.6563 -2.7330 0.1875 0 7
12.1678 -7.5465 -2.7330 0.1875 0 7
12.2355 -7.4361 -2.7330 0.1875 0 7
12.3023 -7.3251 -2.7330 0.1875 0 7
12.3681 -7.2135 -2.7330 0.1875 0 7
12.4329 -7.1013 -2.7330 0.1875 0 7
12.4966 -6.9885 -2.7330 0.1875 0 7
12.5594 -6.8751 -2.7330 0.1875 0 7
12.6211 -6.7612 -2.7330 0.1875 0 7
12.6817 -6.6467 -2.7330 0.1875 0 7
12.7413 -6.5317 -2.7330 0.1875 0 7
12.7999 -6.4161 -2.7330 0.1875 0 7
12.8575 -6.3000 -2.7330 0.1875 0 7
12.9140 -6.1834 -2.7330 0.1875 0 7
12.9694 -6.0663 -2.7330 0.1875 0 7
13.0237 -5.9487 -2.7330 0.1875 0 7
13.0770 -5.8306 -2.7330 0.1875 0 7
13.1292 -5.7120 -2.7330 0.1875 0 7
13.1804 -5.5930 -2.7330 0.1875 0 7
13.2305 -5.4735 -2.7330 0.1875 0 7
13.2795 -5.3536 -2.7330 0.1875 0 7
13.3274 -5.2332 -2.7330 0.1875 0 7
13.3742 -5.1124 -2.7330 0.1875 0 7
13.4199 -4.9911 -2.7330 0.1875 0 7
13.4645 -4.8695 -2.7330 0.1875 0 7
13.5080 -4.7475 -2.7330 0.1875 0 7
13.5504 -4.6250 -2.7330 0.1875 0 7
13.5917 -4.5022 -2.7330 0.1875 0 7
13.6319 -4.3790 -2.7330 0.1875 0 7
13.6710 -4.2555 -2.7330 0.1875 0 7
13.7089 -4.1316 -2.7330 0.1875 0 7
13.7457 -4.0074 -2.7330 0.1875 0 7
13.7814 -3.8829 -2.7330 0.1875 0 7
13.8160 -3.7580 -2.7330 0.1875 0 7
13.8495 -3.6328 -2.7330 0.1875 0 7
13.8818 -3.5074 -2.7330 0.1875 0 7
13.9129 -3.3816 -2.7330 0.1875 0 7
13.9430 -3.2556 -2.7330 0.1875 0 7
13.9718 -3.1293 -2.7330 0.1875 0 7
13.9996 -3.0027 -2.7330 0.1875 0 7
14.0262 -2.8759 -2.7330 0.1875 0 7
14.0516 -2.7488 -2.7330 0.1875 0 7
14.0759 -2.6216 -2.7330 0.1875 0 7
14.0991 -2.4941 -2.7330 0.1875 0 7
14.1211 -2.3664 -2.7330 0.1875 0 7
14.1419 -2.2385 -2.7330 0.1875 0 7
14.1616 -2.1105 -2.7330 0.1875 0 7
14.1801 -1.9823 -2.7330 0.1875 0 7
14.1975 -1.8539 -2.7330 0.1875 0 7
14.2137 -1.7253 -2.7330 0.1875 0 7
14.2287 -1.5966 -2.7330 0.1875 0 7
14.2426 -1.4678 -2.7330 0.1875 0 7
14.2553 -1.3388 -2.7330 0.1875 0 7
14.2668 -1.2098 -2.7330 0.1875 0 7
14.2771 -1.0807 -2.7330 0.1875 0 7
14.2863 -0.9514 -2.7330 0.1875 0 7
14.2944 -0.8221 -2.7330 0.1875 0 7
14.3012 -0.6927 -2.7330 0.1875 0 7
14.3069 -0.5633 -2.7330 0.1875 0 7
14.3114 -0.4338 -2.7330 0.1875 0 7
14.3148 -0.3043 -2.7330 0.1875 0 7
14.3169 -0.1747 -2.7330 0.1875 0 7
14.3179 -0.0452 -2.7330 0.1875 0 7
14.3178 0.0844 -2.7330 0.1875 0 7
14.3164 0.2139 -2.7330 0.1875 0 7
14.3139 0.3435 -2.7330 0.1875 0 7
14.3102 0.4730 -2.7330 0.1875 0 7
14.3053 0.6025 -2.7330 0.1875 0 7
14.2993 0.7319 -2.7330 0.1875 0 7
14.2921 0.8612 -2.7330 0.1875 0 7
14.2837 0.9905 -2.7330 0.1875 0 7
14.2741 1.1198 -2.7330 0.1875 0 7
14.2634 1.2489 -2.7330 0.1875 0 7
14.2515 1.3779 -2.7330 0.1875 0 7
14.2385 1.5068 -2.7330 0.1875 0 7
14.2243 1.6356 -2.7330 0.1875 0 7
14.2089 1.7642 -2.7330 0.1875 0 7
14.1923 1.8927 -2.7330 0.1875 0 7
14.1746 2.0211 -2.7330 0.1875 0 7
14.1558 2.1492 -2.7330 0.1875 0 7
14.1357 2.2773 -2.7330 0.1875 0 7
14.1146 2.4051 -2.7330 0.1875 0 7
14.0922 2.5327 -2.7330 0.1875 0 7
14.0687 2.6601 -2.7330 0.1875 0 7
14.0441 2.7873 -2.7330 0.1875 0 7
14.0183 2.9143 -2.7330 0.1875 0 7
13.9913 3.0410 -2.7330 0.1875 0 7
13.9632 3.1675 -2.7330 0.1875 0 7
13.9340 3.2937 -2.7330 0.1875 0 7
13.9036 3.4197 -2.7330 0.1875 0 7
13.8721 3.5453 -2.7330 0.1875 0 7
13.8395 3.6707 -2.7330 0.1875 0 7
13.8057 3.7958 -2.7330 0.1875 0 7
13.7708 3.9206 -2.7330 0.1875 0 7
13.7347 4.0450 -2.7330 0.1875 0 7
13.6976 4.1691 -2.7330 0.1875 0 7
13.6593 4.2929 -2.7330 0.1875 0 7
13.6199 4.4163 -2.7330 0.1875 0 7
13.5794 4.5394 -2.7330 0.1875 0 7
13.5377 4.6621 -2.7330 0.1875 0 7
13.4950 4.7844 -2.7330 0.1875 0 7
13.4511 4.9063 -2.7330 0.1875 0 7
13.4062 5.0278 -2.7330 0.1875 0 7
13.3601 5.1490 -2.7330 0.1875 0 7
13.3130 5.2696 -2.7330 0.1875 0 7
13.2648 5.3899 -2.7330 0.1875 0 7
13.2155 5.5097 -2.7330 0.1875 0 7
13.1650 5.6291 -2.7330 0.1875 0 7
13.1136 5.7480 -2.7330 0.1875 0 7
13.0610 5.8664 -2.7330 0.1875 0 7
13.0074 5.9843 -2.7330 0.1875 0 7
12.9527 6.1018 -2.7330 0.1875 0 7
12.8970 6.2188 -2.7330 0.1875 0 7
12.8402 6.3352 -2.7330 0.1875 0 7
12.7823 6.4511 -2.7330 0.1875 0 7
12.7234 6.5665 -2.7330 0.1875 0 7
12.6635 6.6814 -2.7330 0.1875 0 7
12.6025 6.7957 -2.7330 0.1875 0 7
12.5405 6.9095 -2.7330 0.1875 0 7
12.4775 7.0227 -2.7330 0.1875 0 7
12.4134 7.1353 -2.7330 0.1875 0 7
12.3483 7.2473 -2.7330 0.1875 0 7
12.2822 7.3588 -2.7330 0.1875 0 7
12.2151 7.4696 -2.7330 0.1875 0 7
12.1471 7.5798 -2.7330 0.1875 0 7
12.0780 7.6895 -2.7330 0.1875 0 7
12.0079 7.7984 -2.7330 0.1875 0 7
11.9368 7.9068 -2.7330 0.1875 0 7
11.8648 8.0145 -2.7330 0.1875 0 7
11.7918 8.1215 -2.7330 0.1875 0 7
11.7178 8.2279 -2.7330 0.1875 0 7
11.6429 8.3335 -2.7330 0.1875 0 7
11.5670 8.4386 -2.7330 0.1875 0 7
11.4902 8.5429 -2.7330 0.1875 0 7
11.4124 8.6465 -2.7330 0.1875 0 7
11.3337 8.7494 -2.7330 0.1875 0 7
11.2541 8.8516 -2.7330 0.1875 0 7
11.1735 8.9531 -2.7330 0.1875 0 7
11.0920 9.0539 -2.7330 0.1875 0 7
11.0096 9.1539 -2.7330 0.1875 0 7
10.9263 9.2531 -2.7330 0.1875 0 7
10.8422 9.3516 -2.7330 0.1875 0 7
10.7571 9.4493 -2.7330 0.1875 0 7
10.6712 9.5463 -2.7330 0.1875 0 7
10.5843 9.6425 -2.7330 0.1875 0 7
10.4967 9.7378 -2.7330 0.1875 0 7
10.4081 9.8324 -2.7330 0.1875 0 7
10.3187 9.9262 -2.7330 0.1875 0 7
10.2285 10.0192 -2.7330 0.1875 0 7
10.1374 10.1113 -2.7330 0.1875 0 7
10.0455 10.2026 -2.7330 0.1875 0 7
9.9527 10.2931 -2.7330 0.1875 0 7
9.8592 10.3827 -2.7330 0.1875 0 7
9.7648 10.4715 -2.7330 0.1875 0 7
9.6697 10.5595 -2.7330 0.1875 0 7
9.5737 10.6466 -2.7330 0.1875 0 7
9.4770 10.7327 -2.7330 0.1875 0 7
9.3795 10.8181 -2.7330 0.1875 0 7
9.2812 10.9025 -2.7330 0.1875 0 7
9.1822 10.9860 -2.7330 0.1875 0 7
9.0824 11.0687 -2.7330 0.1875 0 7
8.9819 11.1504 -2.7330 0.1875 0 7
8.8806 11.2312 -2.7330 0.1875 0 7
8.7786 11.3111 -2.7330 0.1875 0 7
8.6759 11.3901 -2.7330 0.1875 0 7
8.5688 11.4632 -2.7318 0.4327 0 8
8.3417 11.3725 -2.6921 0.6294 0 8
8.1521 11.3276 -2.6639 0.7095 0 8
7.9803 11.3032 -2.6411 0.7750 0 8
7.8214 11.2937 -2.6222 0.7806 0 8
7.6717 11.2945 -2.6061 0.8326 0 8
7.5294 11.3038 -2.5925 0.7373 0 8
7.4146 11.3527 -2.5882 0.1875 0 8
7.3115 11.4193 -2.5882 0.1875 0 8
7.2147 11.4959 -2.5906 0.7705 0 8
7.1037 11.5498 -2.5882 0.1875 0 14
6.9989 11.6136 -2.5882 0.1875 0 14
6.8935 11.6764 -2.5882 0.1875 0 14
6.7876 11.7383 -2.5882 0.1875 0 14
6.6811 11.7993 -2.5882 0.1875 0 14
6.5740 11.8593 -2.5882 0.1875 0 14
6.4664 11.9183 -2.5882 0.1875 0 14
6.3638 11.9865 -2.5904 0.2045 0 8
6.2497 12.0333 -2.5882 0.1875 0 8
6.1469 12.1019 -2.5909 0.7073 0 8
6.0789 12.2410 -2.6088 0.7628 0 8
6.0206 12.4042 -2.6318 0.6895 0 8
5.9713 12.5914 -2.6600 0.6165 0 8
5.9327 12.8081 -2.6943 0.5459 0 8
5.9000 13.0459 -2.7330 0.1875 0 6
5.7817 13.0987 -2.7330 0.1875 0 6
5.6630 13.1505 -2.7330 0.1875 0 6
5.5437 13.2012 -2.7330 0.1875 0 6
5.4241 13.2508 -2.7330 0.1875 0 6
5.3039 13.2994 -2.7330 0.1875 0 6
5.1834 13.3468 -2.7330 0.1875 0 6
5.0624 13.3932 -2.7330 0.1875 0 6
4.9410 13.4384 -2.7330 0.1875 0 6
4.8192 13.4826 -2.7330 0.1875 0 6
4.6970 13.5257 -2.7330 0.1875 0 7
4.5744 13.5676 -2.7330 0.1875 0 7
4.4514 13.6084 -2.7330 0.1875 0 7
4.3281 13.6482 -2.7330 0.1875 0 7
4.2044 13.6868 -2.7330 0.1875 0 6
4.0804 13.7242 -2.7330 0.1875 0 6
3.9561 13.7606 -2.7330 0.1875 0 6
3.8314 13.7959 -2.7330 0.1875 0 6
3.7064 13.8300 -2.7330 0.1875 0 7
3.5811 13.8629 -2.7330 0.1875 0 7
3.4555 13.8948 -2.7330 0.1875 0 7
3.3296 13.9254 -2.7330 0.1875 0 7
3.2035 13.9550 -2.7330 0.1875 0 7
3.0771 13.9834 -2.7330 0.1875 0 6
2.9504 14.0107 -2.7330 0.1875 0 6
2.8235 14.0368 -2.7330 0.1875 0 6
2.6964 14.0618 -2.7330 0.1875 0 6
2.5690 14.0856 -2.7330 0.1875 0 7
2.4414 14.1083 -2.7330 0.1875 0 7
2.3137 14.1298 -2.7330 0.1875 0 7
2.1857 14.1502 -2.7330 0.1875 0 7
2.0576 14.1694 -2.7330 0.1875 0 6
1.9293 14.1874 -2.7330 0.1875 0 6
1.8008 14.2043 -2.7330 0.1875 0 6
1.6722 14.2200 -2.7330 0.1875 0 6
1.5435 14.2346 -2.7330 0.1875 0 7
1.4146 14.2479 -2.7330 0.1875 0 7
1.2856 14.2602 -2.7330 0.1875 0 7
1.1565 14.2712 -2.7330 0.1875 0 7
1.0273 14.2811 -2.7330 0.1875 0 6
0.8981 14.2898 -2.7330 0.1875 0 6
0.7687 14.2973 -2.7330 0.1875 0 6
0.6393 14.3037 -2.7330 0.1875 0 6
0.5099 14.3089 -2.7330 0.1875 0 7
0.3804 14.3129 -2.7330 0.1875 0 7
0.2508 14.3158 -2.7330 0.1875 0 7
0.1213 14.3175 -2.7330 0.1875 0 7
-0.0083 14.3180 -2.7330 0.1875 0 6
-0.1379 14.3173 -2.7330 0.1875 0 6
-0.2674 14.3155 -2.7330 0.1875 0 6
-0.3969 14.3125 -2.7330 0.1875 0 7
-0.5264 14.3083 -2.7330 0.1875 0 7
-0.6559 14.3030 -2.7330 0.1875 0 7
-0.7853 14.2964 -2.7330 0.1875 0 7
-0.9146 14.2887 -2.7330 0.1875 0 7
-1.0439 14.2799 -2.7330 0.1875 0 6
-1.1730 14.2699 -2.7330 0.1875 0 6
-1.3021 14.2587 -2.7330 0.1875 0 6
-1.4311 14.2463 -2.7330 0.1875 0 7
-1.5600 14.2328 -2.7330 0.1875 0 7
-1.6887 14.2181 -2.7330 0.1875 0 7
-1.8173 14.2022 -2.7330 0.1875 0 7
-1.9457 14.1852 -2.7330 0.1875 0 7
-2.0740 14.1670 -2.7330 0.1875 0 6
-2.2021 14.1476 -2.7330 0.1875 0 6
-2.3300 14.1271 -2.7330 0.1875 0 6
-2.4578 14.1055 -2.7330 0.1875 0 6
-2.5853 14.0826 -2.7330 0.1875 0 7
-2.7126 14.0587 -2.7330 0.1875 0 7
-2.8397 14.0336 -2.7330 0.1875 0 7
-2.9666 14.0073 -2.7330 0.1875 0 7
-3.0932 13.9799 -2.7330 0.1875 0 6
12.7517 0.0000 -2.7330 0.2096 0 7
12.7512 0.1154 -2.7330 0.2096 0 7
12.7496 0.2308 -2.7330 0.2096 0 7
12.7470 0.3461 -2.7330 0.2096 0 7
12.7433 0.4615 -2.7330 0.2096 0 7
12.7386 0.5768 -2.7330 0.2096 0 7
12.7329 0.6920 -2.7330 0.2096 0 7
12.7261 0.8072 -2.7330 0.2096 0 7
12.7183 0.9223 -2.7330 0.2096 0 7
12.7094 1.0374 -2.7330 0.2096 0 7
12.6995 1.1523 -2.7330 0.2096 0 7
12.6886 1.2672 -2.7330 0.2096 0 7
12.6766 1.3820 -2.7330 0.2096 0 7
12.6636 1.4966 -2.7330 0.2096 0 7
12.6495 1.6112 -2.7330 0.2096 0 7
12.6344 1.7256 -2.7330 0.2096 0 7
12.6183 1.8398 -2.7330 0.2096 0 7
12.6011 1.9539 -2.7330 0.2096 0 7
12.5829 2.0679 -2.7330 0.2096 0 7
12.5637 2.1817 -2.7330 0.2096 0 7
12.5434 2.2952 -2.7330 0.2096 0 7
12.5221 2.4086 -2.7330 0.2096 0 7
12.4998 2.5219 -2.7330 0.2096 0 7
12.4765 2.6349 -2.7330 0.2096 0 7
12.4521 2.7477 -2.7330 0.2096 0 7
12.4268 2.8602 -2.7330 0.2096 0 7
12.4004 2.9726 -2.7330 0.2096 0 7
12.3730 3.0846 -2.7330 0.2096 0 7
12.3446 3.1965 -2.7330 0.2096 0 7
12.3151 3.3081 -2.7330 0.2096 0 7
12.2847 3.4194 -2.7330 0.2096 0 7
12.2532 3.5304 -2.7330 0.2096 0 7
12.2208 3.6411 -2.7330 0.2096 0 7
12.1873 3.7516 -2.7330 0.2096 0 7
12.1529 3.8617 -2.7330 0.2096 0 7
12.1175 3.9715 -2.7330 0.2096 0 7
12.0810 4.0810 -2.7330 0.2096 0 7
12.0436 4.1901 -2.7330 0.2096 0 7
12.0052 4.2989 -2.7330 0.2096 0 7
11.9658 4.4074 -2.7330 0.2096 0 7
11.9254 4.5155 -2.7330 0.2096 0 7
11.8841 4.6232 -2.7330 0.2096 0 7
11.8418 4.7306 -2.7330 0.2096 0 7
11.7985 4.8375 -2.7330 0.2096 0 7
11.7542 4.9441 -2.7330 0.2096 0 7
11.7090 5.0503 -2.7330 0.2096 0 7
11.6628 5.1560 -2.7330 0.2096 0 7
11.6157 5.2613 -2.7330 0.2096 0 7
11.5676 5.3662 -2.7330 0.2096 0 7
11.5186 5.4707 -2.7330 0.2096 0 7
11.4686 5.5747 -2.7330 0.2096 0 7
11.4177 5.6782 -2.7330 0.2096 0 7
11.3658 5.7813 -2.7330 0.2096 0 7
11.3130 5.8839 -2.7330 0.2096 0 7
11.2593 5.9861 -2.7330 0.2096 0 7
11.2047 6.0877 -2.7330 0.2096 0 7
11.1492 6.1888 -2.7330 0.2096 0 7
11.0927 6.2895 -2.7330 0.2096 0 7
11.0353 6.3896 -2.7330 0.2096 0 7
10.9771 6.4892 -2.7330 0.2096 0 7
10.9179 6.5883 -2.7330 0.2096 0 7
10.8578 6.6868 -2.7330 0.2096 0 7
10.7969 6.7848 -2.7330 0.2096 0 7
10.7350 6.8822 -2.7330 0.2096 0 7
10.6723 6.9790 -2.7330 0.2096 0 7
10.6087 7.0753 -2.7330 0.2096 0 7
10.5443 7.1710 -2.7330 0.2096 0 7
10.4790 7.2662 -2.7330 0.2096 0 7
10.4128 7.3607 -2.7330 0.2096 0 7
10.3458 7.4546 -2.7330 0.2096 0 7
10.2779 7.5479 -2.7330 0.2096 0 7
10.2091 7.6406 -2.7330 0.2096 0 7
10.1396 7.7327 -2.7330 0.2096 0 7
10.0692 7.8241 -2.7330 0.2096 0 7
9.9980 7.9149 -2.7330 0.2096 0 7
9.9260 8.0051 -2.7330 0.2096 0 7
9.8531 8.0946 -2.7330 0.2096 0 7
9.7795 8.1834 -2.7330 0.2096 0 7
9.7050 8.2715 -2.7330 0.2096 0 7
9.6298 8.3590 -2.7330 0.2096 0 7
9.5537 8.4458 -2.7330 0.2096 0 7
9.4769 8.5319 -2.7330 0.2096 0 7
9.3993 8.6173 -2.7330 0.2096 0 7
9.3210 8.7020 -2.7330 0.2096 0 7
9.2418 8.7860 -2.7330 0.2096 0 7
9.1620 8.8693 -2.7330 0.2096 0 7
9.0813 8.9518 -2.7330 0.2096 0 7
9.0000 9.0336 -2.7330 0.2096 0 7
8.9179 9.1147 -2.7330 0.2096 0 7
8.8350 9.1950 -2.7330 0.2096 0 7
8.7514 9.2746 -2.7330 0.2096 0 7
8.6671 9.3534 -2.7330 0.2096 0 7
8.5821 9.4315 -2.7330 0.2096 0 7
8.4965 9.5087 -2.7330 0.2096 0 7
8.4101 9.5852 -2.7330 0.2096 0 7
8.3230 9.6609 -2.7330 0.2096 0 7
8.2352 9.7358 -2.7330 0.2096 0 7
8.1468 9.8100 -2.7330 0.2096 0 7
8.0577 9.8833 -2.7330 0.2096 0 7
7.9679 9.9558 -2.7330 0.2096 0 7
7.8775 10.0275 -2.7330 0.2096 0 7
7.7864 10.0984 -2.7330 0.2096 0 7
7.6948 10.1684 -2.7330 0.2096 0 7
7.6024 10.2376 -2.7330 0.2096 0 7
7.5095 10.3060 -2.7330 0.2096 0 7
7.4159 10.3735 -2.7330 0.2096 0 7
7.3217 10.4402 -2.7330 0.2096 0 7
7.2270 10.5060 -2.7330 0.2096 0 7
7.1316 10.5710 -2.7330 0.2096 0 7
7.0356 10.6351 -2.7330 0.2096 0 7
6.9391 10.6983 -2.7330 0.2096 0 7
6.8420 10.7607 -2.7330 0.2096 0 7
6.7444 10.8222 -2.7330 0.2096 0 7
6.6462 10.8827 -2.7330 0.2096 0 7
6.5474 10.9424 -2.7330 0.2096 0 7
6.4481 11.0012 -2.7330 0.2096 0 7
6.3483 11.0591 -2.7330 0.2096 0 7
6.2480 11.1161 -2.7330 0.2096 0 7
6.1471 11.1722 -2.7330 0.2096 0 7
6.0458 11.2274 -2.7330 0.2096 0 7
5.9440 11.2816 -2.7330 0.2096 0 7
5.8416 11.3350 -2.7330 0.2096 0 7
5.7388 11.3873 -2.7330 0.2096 0 7
5.6355 11.4388 -2.7330 0.2096 0 7
5.5318 11.4893 -2.7330 0.2096 0 7
5.4276 11.5389 -2.7330 0.2096 0 7
5.3230 11.5876 -2.7330 0.2096 0 7
5.2179 11.6352 -2.7330 0.2096 0 7
5.1124 11.6820 -2.7330 0.2096 0 7
5.0065 11.7278 -2.7330 0.2096 0 7
4.9002 11.7726 -2.7330 0.2096 0 7
4.7934 11.8165 -2.7330 0.2096 0 7
4.6863 11.8593 -2.7330 0.2096 0 7
4.5788 11.9013 -2.7330 0.2096 0 7
4.4709 11.9422 -2.7330 0.2096 0 7
4.3627 11.9822 -2.7330 0.2096 0 7
4.2541 12.0212 -2.7330 0.2096 0 7
4.1451 12.0592 -2.7330 0.2096 0 7
4.0358 12.0962 -2.7330 0.2096 0 7
3.9262 12.1322 -2.7330 0.2096 0 7
3.8163 12.1672 -2.7330 0.2096 0 7
3.7060 12.2013 -2.7330 0.2096 0 7
3.5954 12.2343 -2.7330 0.2096 0 7
3.4846 12.2663 -2.7330 0.2096 0 7
3.3734 12.2974 -2.7330 0.2096 0 7
3.2620 12.3274 -2.7330 0.2096 0 7
3.1504 12.3564 -2.7330 0.2096 0 7
3.0384 12.3844 -2.7330 0.2096 0 7
2.9262 12.4114 -2.7330 0.2096 0 7
2.8138 12.4374 -2.7330 0.2096 0 7
2.7011 12.4623 -2.7330 0.2096 0 7
2.5883 12.4863 -2.7330 0.2096 0 7
2.4751 12.5092 -2.7330 0.2096 0 7
2.3619 12.5311 -2.7330 0.2096 0 7
2.2484 12.5519 -2.7330 0.2096 0 7
2.1347 12.5717 -2.7330 0.2096 0 7
2.0208 12.5905 -2.7330 0.2096 0 7
1.9068 12.6083 -2.7330 0.2096 0 7
1.7927 12.6250 -2.7330 0.2096 0 7
1.6783 12.6408 -2.7330 0.2096 0 7
1.5639 12.6554 -2.7330 0.2096 0 7
1.4493 12.6691 -2.7330 0.2096 0 7
1.3346 12.6817 -2.7330 0.2096 0 7
1.2198 12.6932 -2.7330 0.2096 0 7
1.1049 12.7037 -2.7330 0.2096 0 7
0.9899 12.7132 -2.7330 0.2096 0 7
0.8748 12.7217 -2.7330 0.2096 0 7
0.7597 12.7290 -2.7330 0.2096 0 7
0.6444 12.7354 -2.7330 0.2096 0 7
0.5292 12.7407 -2.7330 0.2096 0 7
0.4139 12.7450 -2.7330 0.2096 0 7
0.2985 12.7482 -2.7330 0.2096 0 7
0.1831 12.7504 -2.7330 0.2096 0 7
0.0678 12.7515 -2.7330 0.2096 0 7
-0.0476 12.7516 -2.7330 0.2096 0 7
-0.1630 12.7506 -2.7330 0.2096 0 7
-0.2784 12.7486 -2.7330 0.2096 0 7
-0.3937 12.7456 -2.7330 0.2096 0 7
-0.5091 12.7415 -2.7330 0.2096 0 7
-0.6243 12.7364 -2.7330 0.2096 0 7
-0.7396 12.7302 -2.7330 0.2096 0 7
-0.8547 12.7230 -2.7330 0.2096 0 7
-0.9698 12.7148 -2.7330 0.2096 0 7
-1.0848 12.7055 -2.7330 0.2096 0 7
-1.1998 12.6951 -2.7330 0.2096 0 7
-1.3146 12.6837 -2.7330 0.2096 0 7
-1.4293 12.6713 -2.7330 0.2096 0 7
-1.5439 12.6579 -2.7330 0.2096 0 7
-1.6584 12.6434 -2.7330 0.2096 0 7
-1.7727 12.6279 -2.7330 0.2096 0 7
-1.8869 12.6113 -2.7330 0.2096 0 7
-2.0010 12.5937 -2.7330 0.2096 0 7
-2.1148 12.5751 -2.7330 0.2096 0 7
-2.2285 12.5554 -2.7330 0.2096 0 7
-2.3421 12.5348 -2.7330 0.2096 0 7
-2.4554 12.5130 -2.7330 0.2096 0 7
-2.5685 12.4903 -2.7330 0.2096 0 7
-2.6814 12.4666 -2.7330 0.2096 0 7
-2.7941 12.4418 -2.7330 0.2096 0 7
-2.9066 12.4160 -2.7330 0.2096 0 7
-3.0188 12.3892 -2.7330 0.2096 0 7
-3.1308 12.3614 -2.7330 0.2096 0 7
-3.2425 12.3325 -2.7330 0.2096 0 7
-3.3540 12.3027 -2.7330 0.2096 0 7
-3.4652 12.2718 -2.7330 0.2096 0 7
-3.5761 12.2400 -2.7330 0.2096 0 7
-3.6867 12.2071 -2.7330 0.2096 0 7
-3.7970 12.1732 -2.7330 0.2096 0 7
-3.9070 12.1384 -2.7330 0.2096 0 7
-4.0167 12.1025 -2.7330 0.2096 0 7
-4.1261 12.0657 -2.7330 0.2096 0 7
-4.2351 12.0279 -2.7330 0.2096 0 7
-4.3437 11.9891 -2.7330 0.2096 0 7
-4.4520 11.9493 -2.7330 0.2096 0 7
-4.5600 11.9085 -2.7330 0.2096 0 7
-4.6676 11.8667 -2.7330 0.2096 0 7
-4.7748 11.8240 -2.7330 0.2096 0 7
-4.8816 11.7803 -2.7330 0.2096 0 7
-4.9879 11.7357 -2.7330 0.2096 0 7
-5.0939 11.6900 -2.7330 0.2096 0 7
-5.1995 11.6435 -2.7330 0.2096 0 7
-5.3047 11.5959 -2.7330 0.2096 0 7
-5.4094 11.5475 -2.7330 0.2096 0 7
-5.5137 11.4981 -2.7330 0.2096 0 7
-5.6175 11.4477 -2.7330 0.2096 0 7
-5.7208 11.3964 -2.7330 0.2096 0 7
-5.8225 11.3418 -2.7324 0.2242 0 8
-5.9231 11.2852 -2.7316 0.2243 0 8
-6.0232 11.2278 -2.7307 0.2244 0 8
-6.1227 11.1695 -2.7299 0.2244 0 8
-6.2218 11.1106 -2.7292 0.2248 0 8
-6.3205 11.0510 -2.7285 0.2249 0 8
-6.4186 10.9906 -2.7278 0.2249 0 8
-6.5162 10.9294 -2.7272 0.2250 0 8
-6.6133 10.8675 -2.7265 0.2253 0 8
-6.7100 10.8050 -2.7260 0.2254 0 8
-6.8062 10.7417 -2.7254 0.2254 0 8
-6.8879 10.6561 -2.7194 0.9611 0 8
-6.9666 10.5670 -2.7126 0.9635 0 8
-7.0475 10.4820 -2.7071 0.9771 0 8
-7.1287 10.3983 -2.7020 0.9790 0 8
-7.2096 10.3149 -2.6972 0.9807 0 8
-7.2902 10.2318 -2.6926 0.9824 0 8
-7.3717 10.1506 -2.6887 0.9887 0 8
-7.4563 10.0740 -2.6862 0.9949 0 8
-7.5409 9.9979 -2.6839 0.9957 0 8
-7.6254 9.9219 -2.6819 0.9965 0 8
-7.7097 9.8459 -2.6802 0.9971 0 8
-7.7939 9.7700 -2.6786 0.9977 0 8
-7.8780 9.6941 -2.6772 0.9982 0 8
-7.9664 9.6236 -2.6776 0.9991 0 8
-8.0558 9.5543 -2.6784 0.9988 0 8
-8.1452 9.4848 -2.6795 0.9983 0 8
-8.2347 9.4153 -2.6808 0.9979 0 8
-8.3243 9.3457 -2.6823 0.9973 0 8
-8.4139 9.2759 -2.6841 0.9967 0 8
-8.5076 9.2103 -2.6872 0.9862 0 8
-8.6035 9.1467 -2.6913 0.9847 0 8
-8.6998 9.0829 -2.6956 0.9832 0 8
-8.7963 9.0189 -2.7001 0.9815 0 8
-8.8931 8.9546 -2.7048 0.9798 0 8
-8.9902 8.8900 -2.7098 0.9780 0 8
-9.0902 8.8277 -2.7157 0.9559 0 8
-9.1950 8.7692 -2.7232 0.9533 0 8
-9.2827 8.6937 -2.7258 0.2253 0 8
-9.3629 8.6112 -2.7263 0.2252 0 8
-9.4425 8.5280 -2.7269 0.2252 0 8
-9.5215 8.4441 -2.7275 0.2251 0 8
-9.5997 8.3595 -2.7282 0.2251 0 8
-9.6776 8.2746 -2.7289 0.2245 0 8
-9.7549 8.1891 -2.7297 0.2244 0 8
-9.8316 8.1029 -2.7305 0.2244 0 8
-9.9075 8.0160 -2.7314 0.2243 0 8
-9.9827 7.9285 -2.7322 0.2242 0 8
-10.0568 7.8400 -2.7330 0.2096 0 7
-10.1274 7.7487 -2.7330 0.2096 0 7
-10.1971 7.6567 -2.7330 0.2096 0 7
-10.2659 7.5641 -2.7330 0.2096 0 6
-10.3340 7.4709 -2.7330 0.2096 0 6
-10.4011 7.3771 -2.7330 0.2096 0 6
-10.4675 7.2827 -2.7330 0.2096 0 6
-10.5329 7.1877 -2.7330 0.2096 0 6
-10.5975 7.0921 -2.7330 0.2096 0 7
-10.6613 6.9959 -2.7330 0.2096 0 7
-10.7242 6.8991 -2.7330 0.2096 0 7
-10.7861 6.8018 -2.7330 0.2096 0 7
-10.8472 6.7039 -2.7330 0.2096 0 7
-10.9075 6.6055 -2.7330 0.2096 0 7
-10.9668 6.5065 -2.7330 0.2096 0 6
-11.0252 6.4070 -2.7330 0.2096 0 6
-11.0828 6.3070 -2.7330 0.2096 0 6
-11.1394 6.2064 -2.7330 0.2096 0 6
-11.1951 6.1054 -2.7330 0.2096 0 6
-11.2499 6.0038 -2.7330 0.2096 0 7
-11.3037 5.9018 -2.7330 0.2096 0 7
-11.3567 5.7992 -2.7330 0.2096 0 7
-11.4087 5.6962 -2.7330 0.2096 0 7
-11.4598 5.5928 -2.7330 0.2096 0 7
-11.5099 5.4889 -2.7330 0.2096 0 6
-11.5591 5.3845 -2.7330 0.2096 0 6
-11.6073 5.2796 -2.7330 0.2096 0 6
-11.6546 5.1744 -2.7330 0.2096 0 6
-11.7010 5.0687 -2.7330 0.2096 0 6
-11.7464 4.9626 -2.7330 0.2096 0 7
-11.7908 4.8561 -2.7330 0.2096 0 7
-11.8343 4.7492 -2.7330 0.2096 0 7
-11.8768 4.6420 -2.7330 0.2096 0 7
-11.9183 4.5343 -2.7330 0.2096 0 6
-11.9588 4.4263 -2.7330 0.2096 0 6
-11.9984 4.3179 -2.7330 0.2096 0 6
-12.0370 4.2091 -2.7330 0.2096 0 6
-12.0746 4.1000 -2.7330 0.2096 0 6
-12.1112 3.9906 -2.7330 0.2096 0 7
-12.1468 3.8809 -2.7330 0.2096 0 7
-12.1814 3.7708 -2.7330 0.2096 0 7
-12.2150 3.6604 -2.7330 0.2096 0 7
-12.2476 3.5497 -2.7330 0.2096 0 7
-12.2793 3.4388 -2.7330 0.2096 0 6
-12.3099 3.3275 -2.7330 0.2096 0 6
-12.3395 3.2160 -2.7330 0.2096 0 6
-12.3681 3.1042 -2.7330 0.2096 0 6
-12.3957 2.9921 -2.7330 0.2096 0 7
-12.4222 2.8798 -2.7330 0.2096 0 7
-12.4478 2.7673 -2.7330 0.2096 0 7
-12.4723 2.6546 -2.7330 0.2096 0 7
-12.4958 2.5416 -2.7330 0.2096 0 7
-12.5183 2.4284 -2.7330 0.2096 0 6
-12.5398 2.3150 -2.7330 0.2096 0 6
-12.5602 2.2015 -2.7330 0.2096 0 6
-12.5796 2.0877 -2.7330 0.2096 0 6
-12.5980 1.9738 -2.7330 0.2096 0 7
-12.6153 1.8597 -2.7330 0.2096 0 7
-12.6316 1.7455 -2.7330 0.2096 0 7
-12.6469 1.6311 -2.7330 0.2096 0 7
-12.6612 1.5166 -2.7330 0.2096 0 6
-12.6744 1.4020 -2.7330 0.2096 0 6
-12.6865 1.2872 -2.7330 0.2096 0 6
-12.6977 1.1724 -2.7330 0.2096 0 6
-12.7078 1.0574 -2.7330 0.2096 0 6
-12.7168 0.9424 -2.7330 0.2096 0 7
-12.7248 0.8273 -2.7330 0.2096 0 7
-12.7318 0.7121 -2.7330 0.2096 0 7
-12.7377 0.5969 -2.7330 0.2096 0 7
-12.7426 0.4816 -2.7330 0.2096 0 6
-12.7464 0.3663 -2.7330 0.2096 0 6
-12.7492 0.2509 -2.7330 0.2096 0 6
-12.7510 0.1355 -2.7330 0.2096 0 6
-12.7516 0.0201 -2.7330 0.2096 0 6
-12.7513 -0.0952 -2.7330 0.2096 0 7
-12.7499 -0.2106 -2.7330 0.2096 0 7
-12.7475 -0.3260 -2.7330 0.2096 0 7
-12.7440 -0.4413 -2.7330 0.2096 0 7
-12.7395 -0.5567 -2.7330 0.2096 0 6
-12.7340 -0.6719 -2.7330 0.2096 0 6
-12.7274 -0.7871 -2.7330 0.2096 0 6
-12.7197 -0.9022 -2.7330 0.2096 0 6
-12.7110 -1.0173 -2.7330 0.2096 0 7
-12.7013 -1.1323 -2.7330 0.2096 0 7
-12.6905 -1.2472 -2.7330 0.2096 0 7
-12.6787 -1.3620 -2.7330 0.2096 0 7
-12.6659 -1.4766 -2.7330 0.2096 0 7
-12.6520 -1.5912 -2.7330 0.2096 0 6
-12.6371 -1.7056 -2.7330 0.2096 0 6
-12.6211 -1.8199 -2.7330 0.2096 0 6
-12.6042 -1.9340 -2.7330 0.2096 0 6
-12.5861 -2.0480 -2.7330 0.2096 0 7
-12.5671 -2.1618 -2.7330 0.2096 0 7
-12.5470 -2.2754 -2.7330 0.2096 0 7
-12.5259 -2.3889 -2.7330 0.2096 0 7
-12.5038 -2.5021 -2.7330 0.2096 0 7
-12.4806 -2.6152 -2.7330 0.2096 0 6
-12.4565 -2.7280 -2.7330 0.2096 0 6
-12.4313 -2.8406 -2.7330 0.2096 0 6
-12.4050 -2.9530 -2.7330 0.2096 0 6
-12.3778 -3.0651 -2.7330 0.2096 0 7
-12.3496 -3.1770 -2.7330 0.2096 0 7
-12.3203 -3.2886 -2.7330 0.2096 0 7
-12.2901 -3.3999 -2.7330 0.2096 0 7
-12.2588 -3.5110 -2.7330 0.2096 0 7
-12.2265 -3.6218 -2.7330 0.2096 0 6
-12.1932 -3.7323 -2.7330 0.2096 0 6
-12.1590 -3.8425 -2.7330 0.2096 0 6
-12.1237 -3.9523 -2.7330 0.2096 0 6
-12.0874 -4.0619 -2.7330 0.2096 0 6
-12.0502 -4.1711 -2.7330 0.2096 0 7
-12.0120 -4.2800 -2.7330 0.2096 0 7
-11.9727 -4.3885 -2.7330 0.2096 0 7
-11.9325 -4.4966 -2.7330 0.2096 0 7
-11.8914 -4.6044 -2.7330 0.2096 0 6
-11.8492 -4.7118 -2.7330 0.2096 0 6
-11.8061 -4.8189 -2.7330 0.2096 0 6
-11.7620 -4.9255 -2.7330 0.2096 0 6
-11.7169 -5.0318 -2.7330 0.2096 0 6
-11.6709 -5.1376 -2.7330 0.2096 0 7
-11.6240 -5.2430 -2.7330 0.2096 0 7
-11.5760 -5.3479 -2.7330 0.2096 0 7
-11.5272 -5.4525 -2.7330 0.2096 0 7
-11.4774 -5.5565 -2.7330 0.2096 0 7
-11.4266 -5.6602 -2.7330 0.2096 0 6
-11.3749 -5.7634 -2.7330 0.2096 0 6
-11.3223 -5.8660 -2.7330 0.2096 0 6
-11.2688 -5.9683 -2.7330 0.2096 0 6
-11.2143 -6.0700 -2.7330 0.2096 0 6
-11.1589 -6.1712 -2.7330 0.2096 0 7
-11.1026 -6.2720 -2.7330 0.2096 0 7
-11.0454 -6.3721 -2.7330 0.2096 0 7
-10.9873 -6.4718 -2.7330 0.2096 0 7
-10.9283 -6.5710 -2.7330 0.2096 0 7
-10.8684 -6.6696 -2.7330 0.2096 0 6
-10.8076 -6.7677 -2.7330 0.2096 0 6
-10.7459 -6.8652 -2.7330 0.2096 0 6
-10.6833 -6.9621 -2.7330 0.2096 0 6
-10.6199 -7.0586 -2.7330 0.2096 0 6
-10.5556 -7.1543 -2.7330 0.2096 0 6
-10.4904 -7.2496 -2.7330 0.2096 0 7
-10.4244 -7.3442 -2.7330 0.2096 0 7
-10.3575 -7.4382 -2.7330 0.2096 0 7
-10.2898 -7.5317 -2.7330 0.2096 0 7
-10.2212 -7.6245 -2.7330 0.2096 0 7
-10.1518 -7.7166 -2.7330 0.2096 0 7
-10.0815 -7.8082 -2.7330 0.2096 0 7
-10.0105 -7.8991 -2.7330 0.2096 0 7
-9.9386 -7.9894 -2.7330 0.2096 0 7
-9.8659 -8.0790 -2.7330 0.2096 0 7
-9.7923 -8.1679 -2.7330 0.2096 0 7
-9.7180 -8.2562 -2.7330 0.2096 0 7
-9.6429 -8.3438 -2.7330 0.2096 0 7
-9.5671 -8.4307 -2.7330 0.2096 0 7
-9.4904 -8.5169 -2.7330 0.2096 0 7
-9.4129 -8.6024 -2.7330 0.2096 0 7
-9.3347 -8.6873 -2.7330 0.2096 0 7
-9.2557 -8.7714 -2.7330 0.2096 0 7
-9.1759 -8.8548 -2.7330 0.2096 0 7
-9.0954 -8.9375 -2.7330 0.2096 0 7
-9.0142 -9.0194 -2.7330 0.2096 0 7
-8.9322 -9.1006 -2.7330 0.2096 0 7
-8.8495 -9.1811 -2.7330 0.2096 0 7
-8.7660 -9.2608 -2.7330 0.2096 0 7
-8.6819 -9.3397 -2.7330 0.2096 0 7
-8.5970 -9.4179 -2.7330 0.2096 0 7
-8.5114 -9.4953 -2.7330 0.2096 0 7
-8.4252 -9.5719 -2.7330 0.2096 0 7
-8.3382 -9.6478 -2.7330 0.2096 0 7
-8.2506 -9.7228 -2.7330 0.2096 0 7
-8.1622 -9.7971 -2.7330 0.2096 0 7
-8.0733 -9.8705 -2.7330 0.2096 0 7
-7.9836 -9.9432 -2.7330 0.2096 0 7
-7.8933 -10.0150 -2.7330 0.2096 0 7
-7.8024 -10.0860 -2.7330 0.2096 0 7
-7.7108 -10.1562 -2.7330 0.2096 0 7
-7.6186 -10.2256 -2.7330 0.2096 0 7
-7.5257 -10.2941 -2.7330 0.2096 0 7
-7.4323 -10.3618 -2.7330 0.2096 0 7
-7.3382 -10.4286 -2.7330 0.2096 0 7
-7.2435 -10.4946 -2.7330 0.2096 0 7
-7.1483 -10.5597 -2.7330 0.2096 0 7
-7.0524 -10.6240 -2.7330 0.2096 0 7
-6.9560 -10.6873 -2.7330 0.2096 0 7
-6.8590 -10.7498 -2.7330 0.2096 0 7
-6.7614 -10.8115 -2.7330 0.2096 0 7
-6.6633 -10.8722 -2.7330 0.2096 0 7
-6.5647 -10.9321 -2.7330 0.2096 0 7
-6.4655 -10.9910 -2.7330 0.2096 0 7
-6.3658 -11.0491 -2.7330 0.2096 0 7
-6.2655 -11.1062 -2.7330 0.2096 0 7
-6.1633 -11.1598 -2.7323 0.2243 0 8
-6.0602 -11.2117 -2.7315 0.2244 0 8
-5.9567 -11.2628 -2.7307 0.2244 0 8
-5.8529 -11.3129 -2.7299 0.2245 0 8
-5.7486 -11.3622 -2.7291 0.2246 0 8
-5.6440 -11.4105 -2.7283 0.2246 0 8
-5.5390 -11.4580 -2.7276 0.2247 0 8
-5.4336 -11.5046 -2.7269 0.2247 0 8
-5.3279 -11.5502 -2.7262 0.2248 0 8
-5.2218 -11.5950 -2.7255 0.2249 0 8
-5.1011 -11.6062 -2.7171 0.9302 0 8
