ply
format ascii 1.0
element vertex 1386
property float32 x
property float32 y
property float32 z
property float32 CosAngle
property uint32 ObjIdx
property uint32 ObjTag
end_header
-10.3516 -8.1328 -2.8214 0.2096 0 7
-10.2777 -8.2260 -2.8214 0.2096 0 7
-10.2028 -8.3187 -2.8214 0.2096 0 7
-10.1272 -8.4106 -2.8214 0.2096 0 7
-10.0507 -8.5018 -2.8214 0.2096 0 7
-9.9734 -8.5924 -2.8214 0.2096 0 7
-9.8953 -8.6822 -2.8214 0.2096 0 7
-9.8164 -8.7714 -2.8214 0.2096 0 7
-9.7366 -8.8598 -2.8214 0.2096 0 7
-9.6561 -8.9475 -2.8214 0.2096 0 7
-9.5748 -9.0345 -2.8214 0.2096 0 7
-9.4927 -9.1207 -2.8214 0.2096 0 7
-9.4098 -9.2061 -2.8214 0.2096 0 7
-9.3262 -9.2909 -2.8214 0.2096 0 7
-9.2418 -9.3748 -2.8214 0.2096 0 7
-9.1566 -9.4580 -2.8214 0.2096 0 7
-9.0707 -9.5405 -2.8214 0.2096 0 6
-8.9840 -9.6221 -2.8214 0.2096 0 6
-8.8967 -9.7030 -2.8214 0.2096 0 7
-8.8085 -9.7830 -2.8214 0.2096 0 7
-8.7197 -9.8623 -2.8214 0.2096 0 7
-8.6302 -9.9408 -2.8214 0.2096 0 7
-8.5399 -10.0184 -2.8214 0.2096 0 7
-8.4489 -10.0952 -2.8214 0.2096 0 7
-8.3573 -10.1712 -2.8214 0.2096 0 7
-8.2650 -10.2464 -2.8214 0.2096 0 7
-8.1720 -10.3207 -2.8214 0.2096 0 7
-8.0783 -10.3942 -2.8214 0.2096 0 7
-7.9840 -10.4668 -2.8214 0.2096 0 7
-7.8890 -10.5386 -2.8214 0.2096 0 7
-7.7933 -10.6095 -2.8214 0.2096 0 7
-7.6971 -10.6796 -2.8214 0.2096 0 7
-7.6002 -10.7487 -2.8214 0.2096 0 7
-7.5027 -10.8170 -2.8214 0.2096 0 7
-7.4045 -10.8845 -2.8214 0.2096 0 7
-7.3058 -10.9510 -2.8214 0.2096 0 7
-7.2064 -11.0166 -2.8214 0.2096 0 7
-7.1065 -11.0813 -2.8214 0.2096 0 7
-7.0060 -11.1451 -2.8214 0.2096 0 7
-6.9049 -11.2080 -2.8214 0.2096 0 7
-6.8033 -11.2700 -2.8214 0.2096 0 7
-6.7011 -11.3311 -2.8214 0.2096 0 7
-6.5983 -11.3912 -2.8214 0.2096 0 7
-6.4950 -11.4504 -2.8214 0.2096 0 7
-6.3912 -11.5087 -2.8214 0.2096 0 7
-6.2869 -11.5660 -2.8214 0.2096 0 7
-6.1820 -11.6224 -2.8214 0.2096 0 7
-6.0766 -11.6779 -2.8214 0.2096 0 7
-5.9708 -11.7323 -2.8214 0.2096 0 7
-5.8644 -11.7859 -2.8214 0.2096 0 7
-5.7576 -11.8384 -2.8214 0.2096 0 7
-5.6503 -11.8900 -2.8214 0.2096 0 7
-5.5425 -11.9406 -2.8214 0.2096 0 7
-5.4343 -11.9903 -2.8214 0.2096 0 7
-5.3257 -12.0389 -2.8214 0.2096 0 7
-5.2166 -12.0866 -2.8214 0.2096 0 7
-5.1070 -12.1333 -2.8214 0.2096 0 7
-4.9971 -12.1790 -2.8214 0.2096 0 7
-4.8868 -12.2236 -2.8214 0.2096 0 7
-4.7760 -12.2673 -2.8214 0.2096 0 7
-4.6649 -12.3100 -2.8214 0.2096 0 7
-4.5533 -12.3517 -2.8214 0.2096 0 7
-4.4414 -12.3924 -2.8214 0.2096 0 7
-4.3291 -12.4317 -2.8213 0.2259 0 8
-4.2160 -12.4690 -2.8210 0.2259 0 8
-4.1027 -12.5054 -2.8207 0.2259 0 8
-3.9890 -12.5408 -2.8205 0.2259 0 8
-3.8751 -12.5753 -2.8202 0.2260 0 8
-3.7609 -12.6088 -2.8200 0.2260 0 8
-3.6464 -12.6413 -2.8198 0.2260 0 8
-3.5317 -12.6729 -2.8196 0.2260 0 8
-3.4167 -12.7035 -2.8194 0.2260 0 8
-3.3015 -12.7331 -2.8192 0.2260 0 8
-3.1861 -12.7618 -2.8191 0.2261 0 8
-3.0704 -12.7895 -2.8190 0.2261 0 8
-2.9545 -12.8163 -2.8189 0.2261 0 8
-2.8383 -12.8420 -2.8188 0.2261 0 8
-2.7220 -12.8668 -2.8187 0.2261 0 8
-2.6055 -12.8906 -2.8186 0.2261 0 8
-2.4887 -12.9134 -2.8186 0.2261 0 8
-2.3718 -12.9353 -2.8185 0.2261 0 8
-2.2547 -12.9562 -2.8185 0.2261 0 8
-2.1375 -12.9761 -2.8185 0.2261 0 8
-2.0201 -12.9950 -2.8186 0.2261 0 8
-1.9025 -13.0129 -2.8186 0.2261 0 8
-1.7847 -13.0298 -2.8187 0.2261 0 8
-1.6669 -13.0458 -2.8187 0.2261 0 8
-1.5489 -13.0607 -2.8188 0.2261 0 8
-1.4307 -13.0747 -2.8189 0.2261 0 8
-1.3125 -13.0877 -2.8191 0.2261 0 8
-1.1941 -13.0997 -2.8192 0.2261 0 8
-1.0757 -13.1107 -2.8194 0.2260 0 8
-0.9571 -13.1207 -2.8195 0.2260 0 8
-0.8385 -13.1297 -2.8197 0.2260 0 8
-0.7198 -13.1377 -2.8199 0.2260 0 8
-0.6010 -13.1447 -2.8202 0.2260 0 8
-0.4821 -13.1507 -2.8204 0.2260 0 8
-0.3632 -13.1558 -2.8207 0.2259 0 8
-0.2442 -13.1598 -2.8209 0.2259 0 8
-0.1252 -13.1628 -2.8212 0.2259 0 8
-0.0061 -13.1643 -2.8214 0.2096 0 7
0.1129 -13.1638 -2.8214 0.2096 0 7
0.2320 -13.1622 -2.8214 0.2096 0 7
0.3510 -13.1596 -2.8214 0.2096 0 7
0.4700 -13.1559 -2.8214 0.2096 0 7
0.5889 -13.1511 -2.8214 0.2096 0 7
0.7079 -13.1452 -2.8214 0.2096 0 7
0.8267 -13.1383 -2.8214 0.2096 0 7
0.9455 -13.1303 -2.8214 0.2096 0 7
1.0642 -13.1212 -2.8214 0.2096 0 7
1.1828 -13.1110 -2.8214 0.2096 0 7
1.3014 -13.0998 -2.8214 0.2096 0 7
1.4198 -13.0875 -2.8214 0.2096 0 7
1.5381 -13.0741 -2.8214 0.2096 0 7
1.6563 -13.0597 -2.8214 0.2096 0 6
1.7743 -13.0442 -2.8214 0.2096 0 6
1.8922 -13.0276 -2.8214 0.2096 0 6
2.0099 -13.0099 -2.8214 0.2096 0 6
2.1275 -12.9912 -2.8214 0.2096 0 6
2.2449 -12.9714 -2.8214 0.2096 0 6
2.3621 -12.9506 -2.8214 0.2096 0 6
2.4792 -12.9287 -2.8214 0.2096 0 6
2.5960 -12.9058 -2.8214 0.2096 0 6
2.7126 -12.8818 -2.8214 0.2096 0 6
2.8290 -12.8567 -2.8214 0.2096 0 6
2.9452 -12.8306 -2.8214 0.2096 0 6
3.0611 -12.8034 -2.8214 0.2096 0 7
3.1767 -12.7752 -2.8214 0.2096 0 7
3.2921 -12.7460 -2.8214 0.2096 0 7
3.4073 -12.7157 -2.8214 0.2096 0 7
3.5221 -12.6844 -2.8214 0.2096 0 7
3.6367 -12.6520 -2.8214 0.2096 0 7
3.7510 -12.6186 -2.8214 0.2096 0 7
3.8650 -12.5841 -2.8214 0.2096 0 7
3.9786 -12.5487 -2.8214 0.2096 0 7
4.0919 -12.5122 -2.8214 0.2096 0 6
4.2049 -12.4746 -2.8214 0.2096 0 6
4.3176 -12.4361 -2.8214 0.2096 0 7
4.4299 -12.3966 -2.8214 0.2096 0 7
4.5418 -12.3560 -2.8214 0.2096 0 7
4.6534 -12.3144 -2.8214 0.2096 0 7
4.7645 -12.2718 -2.8214 0.2096 0 7
4.8753 -12.2282 -2.8214 0.2096 0 7
4.9857 -12.1836 -2.8214 0.2096 0 7
5.0957 -12.1380 -2.8214 0.2096 0 7
5.2052 -12.0914 -2.8214 0.2096 0 7
5.3144 -12.0439 -2.8214 0.2096 0 7
5.4231 -11.9953 -2.8214 0.2096 0 7
5.5314 -11.9458 -2.8214 0.2096 0 7
5.6392 -11.8953 -2.8214 0.2096 0 7
5.7465 -11.8438 -2.8214 0.2096 0 7
5.8534 -11.7913 -2.8214 0.2096 0 7
5.9598 -11.7379 -2.8214 0.2096 0 7
6.0657 -11.6835 -2.8214 0.2096 0 7
6.1711 -11.6282 -2.8214 0.2096 0 7
6.2760 -11.5719 -2.8214 0.2096 0 7
6.3804 -11.5147 -2.8214 0.2096 0 7
6.4843 -11.4565 -2.8214 0.2096 0 7
6.5877 -11.3974 -2.8214 0.2096 0 7
6.6905 -11.3374 -2.8214 0.2096 0 7
6.7927 -11.2764 -2.8214 0.2096 0 7
6.8944 -11.2145 -2.8214 0.2096 0 7
6.9956 -11.1517 -2.8214 0.2096 0 7
7.0962 -11.0880 -2.8214 0.2096 0 7
7.1961 -11.0233 -2.8214 0.2096 0 7
7.2955 -10.9578 -2.8214 0.2096 0 7
7.3943 -10.8914 -2.8214 0.2096 0 7
7.4925 -10.8240 -2.8214 0.2096 0 7
7.5901 -10.7558 -2.8214 0.2096 0 7
7.6871 -10.6867 -2.8214 0.2096 0 7
7.7834 -10.6168 -2.8214 0.2096 0 7
7.8791 -10.5460 -2.8214 0.2096 0 7
7.9742 -10.4743 -2.8214 0.2096 0 7
8.0686 -10.4017 -2.8214 0.2096 0 7
8.1623 -10.3283 -2.8214 0.2096 0 7
8.2554 -10.2541 -2.8214 0.2096 0 7
8.3478 -10.1790 -2.8214 0.2096 0 7
8.4395 -10.1031 -2.8214 0.2096 0 7
8.5305 -10.0264 -2.8214 0.2096 0 7
8.6209 -9.9488 -2.8214 0.2096 0 7
8.7105 -9.8704 -2.8214 0.2096 0 7
8.7994 -9.7913 -2.8214 0.2096 0 7
8.8876 -9.7113 -2.8214 0.2096 0 7
8.9751 -9.6305 -2.8214 0.2096 0 7
9.0618 -9.5489 -2.8214 0.2096 0 7
9.1478 -9.4666 -2.8214 0.2096 0 7
9.2330 -9.3835 -2.8214 0.2096 0 7
9.3175 -9.2996 -2.8214 0.2096 0 7
9.4012 -9.2149 -2.8214 0.2096 0 7
9.4842 -9.1295 -2.8214 0.2096 0 7
9.5663 -9.0434 -2.8214 0.2096 0 7
9.6477 -8.9565 -2.8214 0.2096 0 7
9.7284 -8.8689 -2.8214 0.2096 0 7
9.8082 -8.7805 -2.8214 0.2096 0 7
9.8872 -8.6915 -2.8214 0.2096 0 7
9.9654 -8.6017 -2.8214 0.2096 0 7
10.0428 -8.5112 -2.8214 0.2096 0 7
10.1193 -8.4201 -2.8214 0.2096 0 7
10.1951 -8.3282 -2.8214 0.2096 0 7
10.2700 -8.2356 -2.8214 0.2096 0 7
10.3440 -8.1424 -2.8214 0.2096 0 7
10.4172 -8.0485 -2.8214 0.2096 0 7
10.4896 -7.9540 -2.8214 0.2096 0 7
10.5611 -7.8588 -2.8214 0.2096 0 7
10.6318 -7.7630 -2.8214 0.2096 0 7
10.7015 -7.6665 -2.8214 0.2096 0 7
10.7704 -7.5694 -2.8214 0.2096 0 7
10.8384 -7.4717 -2.8214 0.2096 0 7
10.9056 -7.3734 -2.8214 0.2096 0 7
10.9718 -7.2744 -2.8214 0.2096 0 7
11.0372 -7.1749 -2.8214 0.2096 0 7
11.1016 -7.0748 -2.8214 0.2096 0 7
11.1651 -6.9741 -2.8214 0.2096 0 7
11.2277 -6.8729 -2.8214 0.2096 0 7
11.2894 -6.7710 -2.8214 0.2096 0 7
11.3502 -6.6686 -2.8214 0.2096 0 7
11.4101 -6.5657 -2.8214 0.2096 0 7
11.4690 -6.4623 -2.8214 0.2096 0 7
11.5269 -6.3583 -2.8214 0.2096 0 7
11.5840 -6.2538 -2.8214 0.2096 0 7
11.6401 -6.1487 -2.8214 0.2096 0 7
11.6952 -6.0432 -2.8214 0.2096 0 7
11.7494 -5.9372 -2.8214 0.2096 0 7
11.8026 -5.8307 -2.8214 0.2096 0 7
11.8548 -5.7237 -2.8214 0.2096 0 7
11.9061 -5.6163 -2.8214 0.2096 0 7
11.9564 -5.5084 -2.8214 0.2096 0 7
12.0057 -5.4000 -2.8214 0.2096 0 7
12.0541 -5.2912 -2.8214 0.2096 0 7
12.1014 -5.1820 -2.8214 0.2096 0 7
12.1478 -5.0723 -2.8214 0.2096 0 7
12.1932 -4.9623 -2.8214 0.2096 0 7
12.2376 -4.8518 -2.8214 0.2096 0 7
12.2810 -4.7409 -2.8214 0.2096 0 7
12.3233 -4.6297 -2.8214 0.2096 0 7
12.3647 -4.5180 -2.8214 0.2096 0 7
12.4050 -4.4060 -2.8214 0.2096 0 7
12.4444 -4.2936 -2.8214 0.2096 0 7
12.4827 -4.1809 -2.8214 0.2096 0 7
12.5200 -4.0678 -2.8214 0.2096 0 7
12.5563 -3.9544 -2.8214 0.2096 0 7
12.5915 -3.8407 -2.8214 0.2096 0 7
12.6258 -3.7267 -2.8214 0.2096 0 7
12.6589 -3.6123 -2.8214 0.2096 0 7
12.6911 -3.4977 -2.8214 0.2096 0 7
12.7222 -3.3828 -2.8214 0.2096 0 7
12.7523 -3.2676 -2.8214 0.2096 0 7
12.7813 -3.1521 -2.8214 0.2096 0 7
12.8093 -3.0364 -2.8214 0.2096 0 7
12.8362 -2.9204 -2.8214 0.2096 0 7
12.8621 -2.8042 -2.8214 0.2096 0 7
12.8870 -2.6878 -2.8214 0.2096 0 7
12.9107 -2.5711 -2.8214 0.2096 0 7
12.9335 -2.4543 -2.8214 0.2096 0 7
12.9551 -2.3372 -2.8214 0.2096 0 7
12.9757 -2.2199 -2.8214 0.2096 0 7
12.9953 -2.1025 -2.8214 0.2096 0 7
13.0138 -1.9849 -2.8214 0.2096 0 7
13.0312 -1.8671 -2.8214 0.2096 0 7
13.0475 -1.7492 -2.8214 0.2096 0 7
13.0628 -1.6311 -2.8214 0.2096 0 7
13.0770 -1.5129 -2.8214 0.2096 0 7
13.0902 -1.3946 -2.8214 0.2096 0 7
13.1023 -1.2761 -2.8214 0.2096 0 7
13.1133 -1.1576 -2.8214 0.2096 0 7
13.1232 -1.0389 -2.8214 0.2096 0 7
13.1321 -0.9202 -2.8214 0.2096 0 7
13.1399 -0.8014 -2.8214 0.2096 0 7
13.1466 -0.6826 -2.8214 0.2096 0 7
13.1522 -0.5636 -2.8214 0.2096 0 7
13.1568 -0.4447 -2.8214 0.2096 0 7
13.1602 -0.3257 -2.8214 0.2096 0 7
13.1627 -0.2066 -2.8214 0.2096 0 7
13.1640 -0.0876 -2.8214 0.2096 0 7
13.1642 0.0315 -2.8214 0.2096 0 7
13.1634 0.1505 -2.8214 0.2096 0 7
13.1615 0.2696 -2.8214 0.2096 0 7
13.1585 0.3886 -2.8214 0.2096 0 7
13.1545 0.5076 -2.8214 0.2096 0 7
13.1494 0.6265 -2.8214 0.2096 0 7
13.1432 0.7454 -2.8214 0.2096 0 7
13.1359 0.8643 -2.8214 0.2096 0 7
13.1275 0.9830 -2.8214 0.2096 0 7
13.1181 1.1017 -2.8214 0.2096 0 7
13.1076 1.2203 -2.8214 0.2096 0 7
13.0960 1.3388 -2.8214 0.2096 0 7
13.0834 1.4572 -2.8214 0.2096 0 7
13.0697 1.5755 -2.8214 0.2096 0 7
13.0549 1.6936 -2.8214 0.2096 0 7
13.0390 1.8116 -2.8214 0.2096 0 7
13.0221 1.9294 -2.8214 0.2096 0 7
13.0041 2.0471 -2.8214 0.2096 0 7
12.9851 2.1647 -2.8214 0.2096 0 7
12.9650 2.2820 -2.8214 0.2096 0 7
12.9438 2.3992 -2.8214 0.2096 0 7
12.9216 2.5161 -2.8214 0.2096 0 7
12.8983 2.6329 -2.8214 0.2096 0 7
12.8740 2.7494 -2.8214 0.2096 0 7
12.8486 2.8657 -2.8214 0.2096 0 7
12.8221 2.9818 -2.8214 0.2096 0 7
12.7946 3.0977 -2.8214 0.2096 0 7
12.7661 3.2132 -2.8214 0.2096 0 7
12.7365 3.3286 -2.8214 0.2096 0 7
12.7059 3.4436 -2.8214 0.2096 0 7
12.6742 3.5584 -2.8214 0.2096 0 7
12.6415 3.6729 -2.8214 0.2096 0 7
12.6078 3.7870 -2.8214 0.2096 0 7
12.5730 3.9009 -2.8214 0.2096 0 7
12.5372 4.0145 -2.8214 0.2096 0 7
12.5004 4.1277 -2.8214 0.2096 0 7
12.4626 4.2406 -2.8214 0.2096 0 7
12.4237 4.3531 -2.8214 0.2096 0 7
12.3838 4.4653 -2.8214 0.2096 0 7
12.3429 4.5771 -2.8214 0.2096 0 7
12.3010 4.6885 -2.8214 0.2096 0 7
12.2581 4.7996 -2.8214 0.2096 0 7
12.2142 4.9103 -2.8214 0.2096 0 7
12.1693 5.0205 -2.8214 0.2096 0 7
12.1234 5.1304 -2.8214 0.2096 0 7
12.0765 5.2398 -2.8214 0.2096 0 7
12.0286 5.3488 -2.8214 0.2096 0 7
11.9798 5.4574 -2.8214 0.2096 0 7
11.9299 5.5655 -2.8214 0.2096 0 7
11.8791 5.6732 -2.8214 0.2096 0 7
11.8273 5.7804 -2.8214 0.2096 0 7
11.7746 5.8871 -2.8214 0.2096 0 7
11.7208 5.9933 -2.8214 0.2096 0 7
11.6661 6.0991 -2.8214 0.2096 0 7
11.6105 6.2044 -2.8214 0.2096 0 7
11.5539 6.3091 -2.8214 0.2096 0 7
11.4964 6.4133 -2.8214 0.2096 0 7
11.4379 6.5171 -2.8214 0.2096 0 7
11.3785 6.6202 -2.8214 0.2096 0 7
11.3182 6.7229 -2.8214 0.2096 0 7
11.2569 6.8250 -2.8214 0.2096 0 7
11.1947 6.9265 -2.8214 0.2096 0 7
11.1316 7.0274 -2.8214 0.2096 0 7
11.0676 7.1278 -2.8214 0.2096 0 7
11.0027 7.2276 -2.8214 0.2096 0 7
10.9369 7.3268 -2.8214 0.2096 0 7
10.8702 7.4254 -2.8214 0.2096 0 7
10.8026 7.5234 -2.8214 0.2096 0 7
10.7341 7.6208 -2.8214 0.2096 0 7
10.6647 7.7176 -2.8214 0.2096 0 7
10.5945 7.8137 -2.8214 0.2096 0 7
10.5204 7.9070 -2.8206 0.2069 0 8
10.4410 7.9961 -2.8186 0.2071 0 8
10.3608 8.0844 -2.8166 0.2072 0 8
9.7723 7.7683 -2.6756 0.0895 0 8
9.6779 7.8372 -2.6690 0.2096 0 8
9.6066 7.9244 -2.6690 0.2096 0 8
9.5345 8.0109 -2.6690 0.2096 0 8
9.4617 8.0968 -2.6690 0.2096 0 8
9.3881 8.1821 -2.6690 0.2096 0 8
9.3137 8.2666 -2.6690 0.2096 0 8
9.2385 8.3505 -2.6690 0.2096 0 8
9.1626 8.4338 -2.6690 0.2096 0 8
9.0860 8.5163 -2.6690 0.2096 0 8
9.0086 8.5981 -2.6690 0.2096 0 8
8.9305 8.6792 -2.6690 0.2096 0 8
8.8516 8.7596 -2.6690 0.2096 0 8
8.7721 8.8393 -2.6690 0.2096 0 8
8.6917 8.9183 -2.6690 0.2096 0 8
8.6107 8.9965 -2.6690 0.2096 0 8
8.5290 9.0740 -2.6690 0.2096 0 8
11.8548 0.0000 -2.8214 0.2315 0 7
11.8544 0.1072 -2.8214 0.2315 0 7
11.8529 0.2144 -2.8214 0.2315 0 7
11.8505 0.3216 -2.8214 0.2315 0 7
11.8471 0.4288 -2.8214 0.2315 0 7
11.8427 0.5359 -2.8214 0.2315 0 7
11.8374 0.6430 -2.8214 0.2315 0 7
11.8311 0.7500 -2.8214 0.2315 0 7
11.8238 0.8570 -2.8214 0.2315 0 7
11.8156 0.9639 -2.8214 0.2315 0 7
11.8064 1.0707 -2.8214 0.2315 0 7
11.7962 1.1774 -2.8214 0.2315 0 7
11.7851 1.2841 -2.8214 0.2315 0 7
11.7730 1.3906 -2.8214 0.2315 0 7
11.7599 1.4970 -2.8214 0.2315 0 7
11.7459 1.6033 -2.8214 0.2315 0 7
11.7309 1.7095 -2.8214 0.2315 0 7
11.7150 1.8155 -2.8214 0.2315 0 7
11.6981 1.9213 -2.8214 0.2315 0 7
11.6802 2.0271 -2.8214 0.2315 0 7
11.6614 2.1326 -2.8214 0.2315 0 7
11.6417 2.2380 -2.8214 0.2315 0 7
11.6210 2.3432 -2.8214 0.2315 0 7
11.5993 2.4482 -2.8214 0.2315 0 7
11.5767 2.5530 -2.8214 0.2315 0 7
11.5531 2.6576 -2.8214 0.2315 0 7
11.5286 2.7620 -2.8214 0.2315 0 7
11.5032 2.8661 -2.8214 0.2315 0 7
11.4768 2.9700 -2.8214 0.2315 0 7
11.4494 3.0737 -2.8214 0.2315 0 7
11.4212 3.1771 -2.8214 0.2315 0 7
11.3920 3.2803 -2.8214 0.2315 0 7
11.3618 3.3832 -2.8214 0.2315 0 7
11.3308 3.4858 -2.8214 0.2315 0 7
11.2988 3.5881 -2.8214 0.2315 0 7
11.2659 3.6902 -2.8214 0.2315 0 7
11.2320 3.7919 -2.8214 0.2315 0 7
11.1973 3.8933 -2.8214 0.2315 0 7
11.1616 3.9944 -2.8214 0.2315 0 7
11.1250 4.0952 -2.8214 0.2315 0 7
11.0875 4.1957 -2.8214 0.2315 0 7
11.0491 4.2958 -2.8214 0.2315 0 7
11.0098 4.3955 -2.8214 0.2315 0 7
10.9696 4.4949 -2.8214 0.2315 0 7
10.9285 4.5939 -2.8214 0.2315 0 7
10.8865 4.6926 -2.8214 0.2315 0 7
10.8437 4.7909 -2.8214 0.2315 0 7
10.7999 4.8887 -2.8214 0.2315 0 7
10.7552 4.9862 -2.8214 0.2315 0 7
10.7097 5.0833 -2.8214 0.2315 0 7
10.6633 5.1799 -2.8214 0.2315 0 7
10.6160 5.2761 -2.8214 0.2315 0 7
10.5679 5.3719 -2.8214 0.2315 0 7
10.5188 5.4673 -2.8214 0.2315 0 7
10.4690 5.5622 -2.8214 0.2315 0 7
10.4182 5.6566 -2.8214 0.2315 0 7
10.3666 5.7506 -2.8214 0.2315 0 7
10.3142 5.8441 -2.8214 0.2315 0 7
10.2609 5.9372 -2.8214 0.2315 0 7
10.2068 6.0298 -2.8214 0.2315 0 7
10.1519 6.1218 -2.8214 0.2315 0 7
10.0961 6.2134 -2.8214 0.2315 0 7
10.0395 6.3044 -2.8214 0.2315 0 7
9.9821 6.3950 -2.8214 0.2315 0 7
9.9238 6.4850 -2.8214 0.2315 0 7
9.8648 6.5745 -2.8214 0.2315 0 7
9.8049 6.6634 -2.8214 0.2315 0 7
9.7442 6.7518 -2.8214 0.2315 0 7
9.6828 6.8397 -2.8214 0.2315 0 7
9.6205 6.9270 -2.8214 0.2315 0 7
9.5548 7.0117 -2.8206 0.2310 0 8
9.4849 7.0933 -2.8188 0.2312 0 8
9.4143 7.1741 -2.8170 0.2313 0 8
9.3430 7.2543 -2.8152 0.2315 0 8
8.9322 7.0657 -2.7105 0.0921 0 8
8.7321 7.0368 -2.6690 0.2315 0 8
8.6681 7.1154 -2.6690 0.2315 0 8
8.6033 7.1936 -2.6690 0.2315 0 8
8.5379 7.2711 -2.6690 0.2315 0 8
8.4718 7.3480 -2.6690 0.2315 0 8
8.4050 7.4243 -2.6690 0.2315 0 8
8.3375 7.5000 -2.6690 0.2315 0 8
8.2694 7.5751 -2.6690 0.2315 0 8
8.2005 7.6496 -2.6690 0.2315 0 8
8.1310 7.7234 -2.6690 0.2315 0 8
8.0608 7.7967 -2.6690 0.2315 0 8
7.9900 7.8692 -2.6690 0.2315 0 8
7.9185 7.9412 -2.6690 0.2315 0 8
7.8464 8.0125 -2.6690 0.2315 0 8
7.7736 8.0831 -2.6690 0.2315 0 8
7.7002 8.1530 -2.6690 0.2315 0 8
7.6261 8.2224 -2.6690 0.2315 0 8
7.5514 8.2910 -2.6690 0.2315 0 8
7.4761 8.3589 -2.6690 0.2315 0 8
7.4002 8.4262 -2.6690 0.2315 0 8
7.3237 8.4928 -2.6690 0.2315 0 8
7.2466 8.5587 -2.6690 0.2315 0 8
7.1689 8.6239 -2.6690 0.2315 0 8
7.0906 8.6884 -2.6690 0.2315 0 8
7.0118 8.7521 -2.6690 0.2315 0 8
6.9323 8.8152 -2.6690 0.2315 0 8
6.8523 8.8775 -2.6690 0.2315 0 8
6.7717 8.9391 -2.6690 0.2315 0 8
6.6906 9.0000 -2.6690 0.2315 0 8
6.6090 9.0602 -2.6690 0.2315 0 8
6.5267 9.1196 -2.6690 0.2315 0 8
6.4440 9.1782 -2.6690 0.2315 0 8
6.3607 9.2361 -2.6690 0.2315 0 8
6.2769 9.2933 -2.6690 0.2315 0 8
6.1926 9.3496 -2.6690 0.2315 0 8
6.1078 9.4053 -2.6690 0.2315 0 8
6.0225 9.4601 -2.6690 0.2315 0 8
5.9367 9.5142 -2.6690 0.2315 0 8
5.8504 9.5675 -2.6690 0.2315 0 8
5.7637 9.6200 -2.6690 0.2315 0 8
5.6764 9.6718 -2.6690 0.2315 0 8
5.5887 9.7227 -2.6690 0.2315 0 8
5.5006 9.7728 -2.6690 0.2315 0 8
5.4120 9.8222 -2.6690 0.2315 0 8
5.3229 9.8707 -2.6690 0.2315 0 8
5.2334 9.9185 -2.6690 0.2315 0 8
5.1435 9.9654 -2.6690 0.2315 0 8
5.0532 10.0115 -2.6690 0.2315 0 8
4.9624 10.0568 -2.6690 0.2315 0 8
4.8713 10.1013 -2.6690 0.2315 0 8
4.7797 10.1449 -2.6690 0.2315 0 8
4.6878 10.1877 -2.6690 0.2315 0 8
4.5954 10.2297 -2.6690 0.2315 0 8
4.5027 10.2708 -2.6690 0.2315 0 8
4.4097 10.3111 -2.6690 0.2315 0 8
4.3162 10.3506 -2.6690 0.2315 0 8
4.2224 10.3892 -2.6690 0.2315 0 8
4.1283 10.4270 -2.6690 0.2315 0 8
4.0339 10.4638 -2.6690 0.2315 0 8
3.9390 10.4999 -2.6690 0.2315 0 8
3.8439 10.5351 -2.6690 0.2315 0 8
3.7485 10.5695 -2.6690 0.2315 0 8
3.6527 10.6029 -2.6690 0.2315 0 8
3.5567 10.6355 -2.6690 0.2315 0 8
3.4604 10.6673 -2.6690 0.2315 0 8
3.3638 10.6981 -2.6690 0.2315 0 8
3.2669 10.7281 -2.6690 0.2315 0 8
3.1697 10.7572 -2.6690 0.2315 0 8
3.0723 10.7854 -2.6690 0.2315 0 8
2.9746 10.8128 -2.6690 0.2315 0 8
2.8767 10.8392 -2.6690 0.2315 0 8
2.7786 10.8648 -2.6690 0.2315 0 8
2.6802 10.8895 -2.6690 0.2315 0 8
2.5816 10.9133 -2.6690 0.2315 0 8
2.4828 10.9362 -2.6690 0.2315 0 8
2.3838 10.9582 -2.6690 0.2315 0 8
2.2846 10.9793 -2.6690 0.2315 0 8
2.1852 10.9995 -2.6690 0.2315 0 8
2.0856 11.0188 -2.6690 0.2315 0 8
1.9859 11.0373 -2.6690 0.2315 0 8
1.8860 11.0548 -2.6690 0.2315 0 8
1.7859 11.0714 -2.6690 0.2315 0 8
1.6857 11.0871 -2.6690 0.2315 0 8
1.5854 11.1019 -2.6690 0.2315 0 8
1.4849 11.1158 -2.6690 0.2315 0 8
1.3843 11.1287 -2.6690 0.2315 0 8
1.2836 11.1408 -2.6690 0.2315 0 8
1.1828 11.1519 -2.6690 0.2315 0 8
1.0819 11.1622 -2.6690 0.2315 0 8
0.9809 11.1715 -2.6690 0.2315 0 8
0.8798 11.1799 -2.6690 0.2315 0 8
0.7787 11.1874 -2.6690 0.2315 0 8
0.3961 6.5439 -1.5603 0.9347 0 5
0.3377 6.5630 -1.5640 0.8504 0 5
0.4749 11.2044 -2.6690 0.2315 0 8
0.3736 11.2083 -2.6690 0.2315 0 8
0.2722 11.2112 -2.6690 0.2315 0 8
0.1708 11.2132 -2.6690 0.2315 0 8
0.0694 11.2143 -2.6690 0.2315 0 8
-0.0321 11.2144 -2.6690 0.2315 0 8
-0.1335 11.2137 -2.6690 0.2315 0 8
-0.2349 11.2120 -2.6690 0.2315 0 8
-0.3363 11.2094 -2.6690 0.2315 0 8
-0.4377 11.2059 -2.6690 0.2315 0 8
-0.5390 11.2015 -2.6690 0.2315 0 8
-0.6403 11.1962 -2.6690 0.2315 0 8
-0.7415 11.1900 -2.6690 0.2315 0 8
-0.8427 11.1828 -2.6690 0.2315 0 8
-0.9438 11.1747 -2.6690 0.2315 0 8
-1.0448 11.1657 -2.6690 0.2315 0 8
-1.1457 11.1558 -2.6690 0.2315 0 8
-1.2466 11.1450 -2.6690 0.2315 0 8
-1.3473 11.1333 -2.6690 0.2315 0 8
-1.4480 11.1206 -2.6690 0.2315 0 8
-1.5485 11.1071 -2.6690 0.2315 0 8
-1.6488 11.0926 -2.6690 0.2315 0 8
-1.7491 11.0773 -2.6690 0.2315 0 8
-1.8492 11.0610 -2.6690 0.2315 0 8
-1.9492 11.0438 -2.6690 0.2315 0 8
-2.0490 11.0257 -2.6690 0.2315 0 8
-2.1486 11.0067 -2.6690 0.2315 0 8
-2.2481 10.9869 -2.6690 0.2315 0 8
-2.3473 10.9661 -2.6690 0.2315 0 8
-2.4464 10.9444 -2.6690 0.2315 0 8
-2.5453 10.9218 -2.6690 0.2315 0 8
-2.6440 10.8984 -2.6690 0.2315 0 8
-2.7424 10.8740 -2.6690 0.2315 0 8
-2.8406 10.8488 -2.6690 0.2315 0 8
-2.9386 10.8226 -2.6690 0.2315 0 8
-3.0364 10.7956 -2.6690 0.2315 0 8
-3.1339 10.7677 -2.6690 0.2315 0 8
-3.2312 10.7389 -2.6690 0.2315 0 8
-3.3281 10.7093 -2.6690 0.2315 0 8
-3.4249 10.6787 -2.6690 0.2315 0 8
-3.5213 10.6473 -2.6690 0.2315 0 8
-3.6175 10.6150 -2.6690 0.2315 0 8
-3.7133 10.5819 -2.6690 0.2315 0 8
-3.8089 10.5479 -2.6690 0.2315 0 8
-3.9041 10.5130 -2.6690 0.2315 0 8
-3.9990 10.4773 -2.6690 0.2315 0 8
-4.0936 10.4406 -2.6690 0.2315 0 8
-4.1879 10.4032 -2.6690 0.2315 0 8
-4.2818 10.3649 -2.6690 0.2315 0 8
-4.3753 10.3258 -2.6690 0.2315 0 8
-4.4685 10.2858 -2.6690 0.2315 0 8
-4.5614 10.2449 -2.6690 0.2315 0 8
-4.6539 10.2033 -2.6690 0.2315 0 8
-4.7459 10.1608 -2.6690 0.2315 0 8
-4.8376 10.1174 -2.6690 0.2315 0 8
-4.9289 10.0733 -2.6690 0.2315 0 8
-5.0198 10.0283 -2.6690 0.2315 0 8
-5.1103 9.9825 -2.6690 0.2315 0 8
-5.2004 9.9358 -2.6690 0.2315 0 8
-5.2900 9.8884 -2.6690 0.2315 0 8
-5.3792 9.8402 -2.6690 0.2315 0 8
-5.4680 9.7911 -2.6690 0.2315 0 8
-5.5564 9.7412 -2.6690 0.2315 0 8
-5.6442 9.6906 -2.6690 0.2315 0 8
-5.7316 9.6392 -2.6690 0.2315 0 8
-5.8186 9.5869 -2.6690 0.2315 0 8
-5.9050 9.5339 -2.6690 0.2315 0 8
-5.9910 9.4801 -2.6690 0.2315 0 8
-6.0765 9.4255 -2.6690 0.2315 0 8
-6.1615 9.3702 -2.6690 0.2315 0 8
-6.2460 9.3141 -2.6690 0.2315 0 8
-6.3300 9.2572 -2.6690 0.2315 0 8
-6.4134 9.1996 -2.6690 0.2315 0 8
-6.4964 9.1412 -2.6690 0.2315 0 8
-6.5788 9.0821 -2.6690 0.2315 0 8
-6.6607 9.0222 -2.6690 0.2315 0 8
-6.7420 8.9616 -2.6690 0.2315 0 8
-6.8227 8.9003 -2.6690 0.2315 0 8
-6.9030 8.8382 -2.6690 0.2315 0 8
-6.9826 8.7754 -2.6690 0.2315 0 8
-7.0617 8.7119 -2.6690 0.2315 0 8
-7.1402 8.6477 -2.6690 0.2315 0 8
-7.2181 8.5827 -2.6690 0.2315 0 8
-7.2954 8.5171 -2.6690 0.2315 0 8
-7.3722 8.4508 -2.6690 0.2315 0 8
-7.4483 8.3838 -2.6690 0.2315 0 8
-7.5238 8.3161 -2.6690 0.2315 0 8
-7.5987 8.2477 -2.6690 0.2315 0 8
-7.6730 8.1786 -2.6690 0.2315 0 8
-7.7466 8.1089 -2.6690 0.2315 0 8
-7.8197 8.0385 -2.6690 0.2315 0 8
-7.8921 7.9674 -2.6690 0.2315 0 8
-7.9638 7.8958 -2.6690 0.2315 0 8
-8.0349 7.8234 -2.6690 0.2315 0 8
-8.1053 7.7504 -2.6690 0.2315 0 8
-8.1751 7.6768 -2.6690 0.2315 0 8
-8.2441 7.6026 -2.6690 0.2315 0 8
-8.3126 7.5277 -2.6690 0.2315 0 8
-8.3803 7.4522 -2.6690 0.2315 0 8
-8.4474 7.3761 -2.6690 0.2315 0 8
-8.5137 7.2994 -2.6690 0.2315 0 8
-8.5794 7.2221 -2.6690 0.2315 0 8
-8.6444 7.1442 -2.6690 0.2315 0 8
-8.7424 7.0932 -2.6794 0.5083 0 8
-8.9394 7.1199 -2.7199 0.5007 0 8
-9.1415 7.1467 -2.7616 0.4959 0 8
-9.3497 7.1742 -2.8048 0.4883 0 8
-9.4486 7.1152 -2.8150 0.2391 0 8
-9.5178 7.0334 -2.8166 0.2389 0 8
-9.5864 6.9509 -2.8182 0.2388 0 8
-9.6543 6.8678 -2.8197 0.2387 0 8
-9.7215 6.7840 -2.8213 0.2385 0 8
-9.7827 6.6960 -2.8214 0.2315 0 7
-9.8428 6.6072 -2.8214 0.2315 0 7
-9.9022 6.5179 -2.8214 0.2315 0 7
-9.9607 6.4281 -2.8214 0.2315 0 7
-10.0185 6.3378 -2.8214 0.2315 0 7
-10.0754 6.2469 -2.8214 0.2315 0 7
-10.1315 6.1555 -2.8214 0.2315 0 7
-10.1867 6.0637 -2.8214 0.2315 0 7
-10.2411 5.9713 -2.8214 0.2315 0 7
-10.2947 5.8784 -2.8214 0.2315 0 7
-10.3475 5.7851 -2.8214 0.2315 0 7
-10.3994 5.6913 -2.8214 0.2315 0 7
-10.4504 5.5970 -2.8214 0.2315 0 7
-10.5006 5.5022 -2.8214 0.2315 0 7
-10.5499 5.4071 -2.8214 0.2315 0 7
-10.5984 5.3114 -2.8214 0.2315 0 7
-10.6460 5.2154 -2.8214 0.2315 0 7
-10.6927 5.1189 -2.8214 0.2315 0 7
-10.7386 5.0220 -2.8214 0.2315 0 7
-10.7836 4.9246 -2.8214 0.2315 0 6
-10.8277 4.8269 -2.8214 0.2315 0 7
-10.8709 4.7288 -2.8214 0.2315 0 7
-10.9132 4.6303 -2.8214 0.2315 0 7
-10.9546 4.5314 -2.8214 0.2315 0 7
-10.9952 4.4321 -2.8214 0.2315 0 7
-11.0348 4.3325 -2.8214 0.2315 0 7
-11.0735 4.2325 -2.8214 0.2315 0 7
-11.1114 4.1322 -2.8214 0.2315 0 7
-11.1483 4.0315 -2.8214 0.2315 0 7
-11.1843 3.9306 -2.8214 0.2315 0 7
-11.2194 3.8292 -2.8214 0.2315 0 7
-11.2535 3.7276 -2.8214 0.2315 0 7
-11.2868 3.6257 -2.8214 0.2315 0 7
-11.3191 3.5235 -2.8214 0.2315 0 7
-11.3505 3.4210 -2.8214 0.2315 0 7
-11.3810 3.3182 -2.8214 0.2315 0 7
-11.4105 3.2151 -2.8214 0.2315 0 7
-11.4391 3.1118 -2.8214 0.2315 0 7
-11.4668 3.0082 -2.8214 0.2315 0 7
-11.4936 2.9044 -2.8214 0.2315 0 7
-11.5194 2.8003 -2.8214 0.2315 0 7
-11.5442 2.6960 -2.8214 0.2315 0 7
-11.5681 2.5915 -2.8214 0.2315 0 7
-11.5911 2.4868 -2.8214 0.2315 0 7
-11.6131 2.3818 -2.8214 0.2315 0 7
-11.6342 2.2767 -2.8214 0.2315 0 7
-11.6543 2.1714 -2.8214 0.2315 0 7
-11.6734 2.0659 -2.8214 0.2315 0 7
-11.6917 1.9602 -2.8214 0.2315 0 7
-11.7089 1.8544 -2.8214 0.2315 0 7
-11.7252 1.7485 -2.8214 0.2315 0 7
-11.7405 1.6423 -2.8214 0.2315 0 7
-11.7549 1.5361 -2.8214 0.2315 0 6
-11.7683 1.4297 -2.8214 0.2315 0 7
-11.7808 1.3232 -2.8214 0.2315 0 7
-11.7922 1.2167 -2.8214 0.2315 0 7
-11.8028 1.1099 -2.8214 0.2315 0 7
-11.8123 1.0032 -2.8214 0.2315 0 7
-11.8209 0.8963 -2.8214 0.2315 0 7
-11.8285 0.7893 -2.8214 0.2315 0 7
-11.8352 0.6823 -2.8214 0.2315 0 7
-11.8409 0.5753 -2.8214 0.2315 0 7
-11.8456 0.4682 -2.8214 0.2315 0 7
-11.8493 0.3610 -2.8214 0.2315 0 7
-11.8521 0.2538 -2.8214 0.2315 0 7
-11.8539 0.1466 -2.8214 0.2315 0 7
-11.8548 0.0394 -2.8214 0.2315 0 7
-11.8546 -0.0678 -2.8214 0.2315 0 7
-11.8535 -0.1750 -2.8214 0.2315 0 7
-11.8515 -0.2822 -2.8214 0.2315 0 7
-11.8484 -0.3894 -2.8214 0.2315 0 7
-11.8444 -0.4965 -2.8214 0.2315 0 7
-11.8395 -0.6036 -2.8214 0.2315 0 7
-11.8335 -0.7107 -2.8214 0.2315 0 7
-11.8266 -0.8177 -2.8214 0.2315 0 7
-11.8187 -0.9246 -2.8214 0.2315 0 7
-11.8099 -1.0314 -2.8214 0.2315 0 7
-11.8001 -1.1382 -2.8214 0.2315 0 7
-11.7893 -1.2449 -2.8214 0.2315 0 7
-11.7776 -1.3514 -2.8214 0.2315 0 7
-11.7649 -1.4579 -2.8214 0.2315 0 7
-11.7512 -1.5642 -2.8214 0.2315 0 7
-11.7366 -1.6704 -2.8214 0.2315 0 7
-11.7210 -1.7765 -2.8214 0.2315 0 7
-11.7044 -1.8824 -2.8214 0.2315 0 6
-11.6869 -1.9882 -2.8214 0.2315 0 7
-11.6685 -2.0938 -2.8214 0.2315 0 6
-11.6491 -2.1993 -2.8214 0.2315 0 6
-11.6287 -2.3045 -2.8214 0.2315 0 7
-11.6074 -2.4096 -2.8214 0.2315 0 7
-11.5851 -2.5145 -2.8214 0.2315 0 7
-11.5619 -2.6192 -2.8214 0.2315 0 7
-11.5377 -2.7236 -2.8214 0.2315 0 7
-11.5126 -2.8279 -2.8214 0.2315 0 7
-11.4866 -2.9319 -2.8214 0.2315 0 7
-11.4596 -3.0356 -2.8214 0.2315 0 7
-11.4317 -3.1391 -2.8214 0.2315 0 7
-11.4028 -3.2424 -2.8214 0.2315 0 7
-11.3730 -3.3454 -2.8214 0.2315 0 7
-11.3423 -3.4481 -2.8214 0.2315 0 7
-11.3107 -3.5505 -2.8214 0.2315 0 7
-11.2781 -3.6527 -2.8214 0.2315 0 7
-11.2446 -3.7545 -2.8214 0.2315 0 7
-11.2102 -3.8561 -2.8214 0.2315 0 7
-11.1748 -3.9573 -2.8214 0.2315 0 7
-11.1386 -4.0582 -2.8214 0.2315 0 7
-11.1014 -4.1588 -2.8214 0.2315 0 7
-11.0634 -4.2590 -2.8214 0.2315 0 7
-11.0244 -4.3589 -2.8214 0.2315 0 7
-10.9845 -4.4584 -2.8214 0.2315 0 7
-10.9438 -4.5576 -2.8214 0.2315 0 7
-10.9021 -4.6564 -2.8214 0.2315 0 7
-10.8595 -4.7548 -2.8214 0.2315 0 7
-10.8161 -4.8528 -2.8214 0.2315 0 7
-10.7718 -4.9504 -2.8214 0.2315 0 7
-10.7265 -5.0476 -2.8214 0.2315 0 7
-10.6805 -5.1444 -2.8214 0.2315 0 7
-10.6335 -5.2408 -2.8214 0.2315 0 7
-10.5857 -5.3368 -2.8214 0.2315 0 7
-10.5370 -5.4323 -2.8214 0.2315 0 7
-10.4874 -5.5273 -2.8214 0.2315 0 7
-10.4370 -5.6220 -2.8214 0.2315 0 7
-10.3857 -5.7161 -2.8214 0.2315 0 7
-10.3336 -5.8098 -2.8214 0.2315 0 7
-10.2806 -5.9030 -2.8214 0.2315 0 7
-10.2268 -5.9958 -2.8214 0.2315 0 7
-10.1722 -6.0880 -2.8214 0.2315 0 7
-10.1167 -6.1798 -2.8214 0.2315 0 7
-10.0604 -6.2710 -2.8214 0.2315 0 7
-10.0033 -6.3617 -2.8214 0.2315 0 7
-9.9453 -6.4519 -2.8214 0.2315 0 7
-9.8866 -6.5416 -2.8214 0.2315 0 7
-9.8270 -6.6308 -2.8214 0.2315 0 7
-9.7666 -6.7194 -2.8214 0.2315 0 7
-9.7055 -6.8074 -2.8214 0.2315 0 7
-9.6435 -6.8949 -2.8214 0.2315 0 7
-9.5808 -6.9819 -2.8214 0.2315 0 7
-9.5172 -7.0682 -2.8214 0.2315 0 7
-9.4529 -7.1540 -2.8214 0.2315 0 7
-9.3878 -7.2392 -2.8214 0.2315 0 7
-9.3220 -7.3238 -2.8214 0.2315 0 7
-9.2554 -7.4078 -2.8214 0.2315 0 7
-9.1880 -7.4912 -2.8214 0.2315 0 7
-9.1199 -7.5740 -2.8214 0.2315 0 7
-9.0510 -7.6562 -2.8214 0.2315 0 7
-8.9814 -7.7377 -2.8214 0.2315 0 7
-8.9110 -7.8186 -2.8214 0.2315 0 7
-8.8399 -7.8989 -2.8214 0.2315 0 7
-8.7681 -7.9785 -2.8214 0.2315 0 7
-8.6956 -8.0575 -2.8214 0.2315 0 7
-8.6224 -8.1358 -2.8214 0.2315 0 7
-8.5485 -8.2135 -2.8214 0.2315 0 7
-8.4738 -8.2904 -2.8214 0.2315 0 7
-8.3985 -8.3667 -2.8214 0.2315 0 7
-8.3225 -8.4423 -2.8214 0.2315 0 7
-8.2458 -8.5173 -2.8214 0.2315 0 7
-8.1685 -8.5915 -2.8214 0.2315 0 7
-8.0904 -8.6650 -2.8214 0.2315 0 7
-8.0117 -8.7378 -2.8214 0.2315 0 7
-7.9324 -8.8099 -2.8214 0.2315 0 7
-7.8524 -8.8813 -2.8214 0.2315 0 7
-7.7717 -8.9520 -2.8214 0.2315 0 7
-7.6905 -9.0219 -2.8214 0.2315 0 7
-7.6085 -9.0911 -2.8214 0.2315 0 7
-7.5260 -9.1595 -2.8214 0.2315 0 7
-7.4429 -9.2272 -2.8214 0.2315 0 7
-7.3591 -9.2941 -2.8214 0.2315 0 7
-7.2748 -9.3603 -2.8214 0.2315 0 7
-7.1898 -9.4257 -2.8214 0.2315 0 7
-7.1043 -9.4903 -2.8214 0.2315 0 7
-7.0181 -9.5542 -2.8214 0.2315 0 7
-6.9314 -9.6173 -2.8214 0.2315 0 7
-6.8442 -9.6796 -2.8214 0.2315 0 7
-6.7564 -9.7411 -2.8214 0.2315 0 7
-6.6680 -9.8018 -2.8214 0.2315 0 7
-6.5791 -9.8617 -2.8214 0.2315 0 7
-6.4896 -9.9208 -2.8214 0.2315 0 7
-6.3996 -9.9791 -2.8214 0.2315 0 6
-6.3091 -10.0365 -2.8214 0.2315 0 6
-6.2181 -10.0932 -2.8214 0.2315 0 6
-6.1266 -10.1490 -2.8214 0.2315 0 7
-6.0345 -10.2040 -2.8214 0.2315 0 7
-5.9420 -10.2582 -2.8214 0.2315 0 7
-5.8490 -10.3115 -2.8214 0.2315 0 7
-5.7555 -10.3640 -2.8214 0.2315 0 7
-5.6615 -10.4156 -2.8214 0.2315 0 7
-5.5671 -10.4664 -2.8214 0.2315 0 7
-5.4722 -10.5163 -2.8214 0.2315 0 7
-5.3769 -10.5653 -2.8214 0.2315 0 7
-5.2811 -10.6135 -2.8214 0.2315 0 7
-5.1849 -10.6609 -2.8214 0.2315 0 7
-5.0883 -10.7073 -2.8214 0.2315 0 7
-4.9912 -10.7529 -2.8214 0.2315 0 7
-4.8938 -10.7976 -2.8214 0.2315 0 7
-4.7959 -10.8414 -2.8214 0.2315 0 7
-4.6977 -10.8844 -2.8214 0.2315 0 7
-4.5990 -10.9264 -2.8214 0.2315 0 7
-4.5000 -10.9675 -2.8214 0.2315 0 7
-4.4007 -11.0078 -2.8214 0.2315 0 7
-4.3009 -11.0471 -2.8214 0.2315 0 7
-4.2008 -11.0856 -2.8214 0.2315 0 7
-4.1004 -11.1231 -2.8214 0.2315 0 7
-3.9997 -11.1597 -2.8214 0.2315 0 7
-3.8986 -11.1955 -2.8214 0.2315 0 7
-3.7972 -11.2303 -2.8214 0.2315 0 7
-3.6954 -11.2641 -2.8214 0.2315 0 7
-3.5934 -11.2971 -2.8214 0.2315 0 7
-3.4911 -11.3291 -2.8214 0.2315 0 7
-3.3885 -11.3602 -2.8214 0.2315 0 7
-3.2856 -11.3904 -2.8214 0.2315 0 7
-3.1825 -11.4197 -2.8214 0.2315 0 7
-3.0791 -11.4480 -2.8214 0.2315 0 7
-2.9754 -11.4754 -2.8214 0.2315 0 7
-2.8715 -11.5018 -2.8214 0.2315 0 7
-2.7674 -11.5273 -2.8214 0.2315 0 7
-2.6630 -11.5519 -2.8214 0.2315 0 7
-2.5584 -11.5755 -2.8214 0.2315 0 7
-2.4536 -11.5981 -2.8214 0.2315 0 7
-2.3486 -11.6199 -2.8214 0.2315 0 7
-2.2434 -11.6406 -2.8214 0.2315 0 7
-2.1381 -11.6604 -2.8214 0.2315 0 7
-2.0325 -11.6793 -2.8214 0.2315 0 7
-1.9268 -11.6972 -2.8214 0.2315 0 7
-1.8210 -11.7142 -2.8214 0.2315 0 7
-1.7149 -11.7301 -2.8214 0.2315 0 7
-1.6088 -11.7452 -2.8214 0.2315 0 7
-1.5025 -11.7592 -2.8214 0.2315 0 7
-1.3961 -11.7723 -2.8214 0.2315 0 7
-1.2896 -11.7845 -2.8214 0.2315 0 7
-1.1829 -11.7957 -2.8214 0.2315 0 7
-1.0762 -11.8059 -2.8214 0.2315 0 7
-0.9694 -11.8151 -2.8214 0.2315 0 7
-0.8625 -11.8234 -2.8214 0.2315 0 7
-0.7555 -11.8307 -2.8214 0.2315 0 7
-0.6485 -11.8371 -2.8214 0.2315 0 7
-0.5414 -11.8425 -2.8214 0.2315 0 7
-0.4343 -11.8469 -2.8214 0.2315 0 7
-0.3271 -11.8503 -2.8214 0.2315 0 7
-0.2200 -11.8528 -2.8214 0.2315 0 7
-0.1127 -11.8543 -2.8214 0.2315 0 7
-0.0055 -11.8548 -2.8214 0.2315 0 7
0.1017 -11.8544 -2.8214 0.2315 0 7
0.2089 -11.8530 -2.8214 0.2315 0 7
0.3161 -11.8506 -2.8214 0.2315 0 7
0.4232 -11.8473 -2.8214 0.2315 0 7
0.5304 -11.8430 -2.8214 0.2315 0 7
0.6374 -11.8377 -2.8214 0.2315 0 7
0.7445 -11.8314 -2.8214 0.2315 0 7
0.8515 -11.8242 -2.8214 0.2315 0 7
0.9584 -11.8160 -2.8214 0.2315 0 7
1.0652 -11.8069 -2.8214 0.2315 0 7
1.1719 -11.7968 -2.8214 0.2315 0 7
1.2786 -11.7857 -2.8214 0.2315 0 7
1.3851 -11.7736 -2.8214 0.2315 0 7
1.4915 -11.7606 -2.8214 0.2315 0 7
1.5978 -11.7467 -2.8214 0.2315 0 7
1.7040 -11.7317 -2.8214 0.2315 0 7
1.8100 -11.7158 -2.8214 0.2315 0 6
1.9159 -11.6990 -2.8214 0.2315 0 6
2.0216 -11.6812 -2.8214 0.2315 0 6
2.1272 -11.6624 -2.8214 0.2315 0 6
2.2326 -11.6427 -2.8214 0.2315 0 6
2.3378 -11.6220 -2.8214 0.2315 0 7
2.4428 -11.6004 -2.8214 0.2315 0 7
2.5476 -11.5779 -2.8214 0.2315 0 7
2.6522 -11.5544 -2.8214 0.2315 0 7
2.7566 -11.5299 -2.8214 0.2315 0 7
2.8607 -11.5045 -2.8214 0.2315 0 7
2.9647 -11.4781 -2.8214 0.2315 0 7
3.0684 -11.4509 -2.8214 0.2315 0 7
3.1718 -11.4227 -2.8214 0.2315 0 7
3.2750 -11.3935 -2.8214 0.2315 0 7
3.3779 -11.3634 -2.8214 0.2315 0 7
3.4805 -11.3324 -2.8214 0.2315 0 6
3.5829 -11.3005 -2.8214 0.2315 0 6
3.6849 -11.2676 -2.8214 0.2315 0 6
3.7867 -11.2338 -2.8214 0.2315 0 6
3.8881 -11.1991 -2.8214 0.2315 0 6
3.9892 -11.1635 -2.8214 0.2315 0 6
4.0900 -11.1269 -2.8214 0.2315 0 6
4.1905 -11.0895 -2.8214 0.2315 0 6
4.2906 -11.0511 -2.8214 0.2315 0 6
4.3904 -11.0119 -2.8214 0.2315 0 6
4.4898 -10.9717 -2.8214 0.2315 0 7
4.5888 -10.9307 -2.8214 0.2315 0 7
4.6875 -10.8887 -2.8214 0.2315 0 7
4.7858 -10.8459 -2.8214 0.2315 0 7
4.8837 -10.8022 -2.8214 0.2315 0 7
4.9812 -10.7576 -2.8214 0.2315 0 7
5.0783 -10.7121 -2.8214 0.2315 0 7
5.1749 -10.6657 -2.8214 0.2315 0 7
5.2712 -10.6185 -2.8214 0.2315 0 7
5.3670 -10.5704 -2.8214 0.2315 0 7
5.4624 -10.5214 -2.8214 0.2315 0 7
5.5573 -10.4716 -2.8214 0.2315 0 7
5.6518 -10.4209 -2.8214 0.2315 0 7
5.7458 -10.3693 -2.8214 0.2315 0 7
5.8393 -10.3169 -2.8214 0.2315 0 7
5.9324 -10.2637 -2.8214 0.2315 0 7
6.0250 -10.2096 -2.8214 0.2315 0 7
6.1171 -10.1547 -2.8214 0.2315 0 7
6.2087 -10.0990 -2.8214 0.2315 0 7
6.2997 -10.0424 -2.8214 0.2315 0 7
6.3903 -9.9850 -2.8214 0.2315 0 7
6.4804 -9.9268 -2.8214 0.2315 0 7
6.5699 -9.8678 -2.8214 0.2315 0 7
6.6588 -9.8080 -2.8214 0.2315 0 7
6.7473 -9.7474 -2.8214 0.2315 0 7
6.8351 -9.6860 -2.8214 0.2315 0 7
6.9225 -9.6238 -2.8214 0.2315 0 7
7.0092 -9.5608 -2.8214 0.2315 0 7
7.0954 -9.4970 -2.8214 0.2315 0 7
7.1810 -9.4324 -2.8214 0.2315 0 7
7.2660 -9.3671 -2.8214 0.2315 0 7
7.3504 -9.3010 -2.8214 0.2315 0 7
7.4342 -9.2341 -2.8214 0.2315 0 7
7.5175 -9.1665 -2.8214 0.2315 0 7
7.6000 -9.0982 -2.8214 0.2315 0 7
7.6820 -9.0290 -2.8214 0.2315 0 7
7.7634 -8.9592 -2.8214 0.2315 0 7
7.8441 -8.8886 -2.8214 0.2315 0 7
7.9241 -8.8173 -2.8214 0.2315 0 7
8.0036 -8.7453 -2.8214 0.2315 0 7
8.0823 -8.6726 -2.8214 0.2315 0 7
8.1604 -8.5991 -2.8214 0.2315 0 7
8.2379 -8.5250 -2.8214 0.2315 0 7
8.3146 -8.4501 -2.8214 0.2315 0 7
8.3907 -8.3746 -2.8214 0.2315 0 7
8.4661 -8.2983 -2.8214 0.2315 0 7
8.5408 -8.2214 -2.8214 0.2315 0 7
8.6148 -8.1439 -2.8214 0.2315 0 7
8.6881 -8.0656 -2.8214 0.2315 0 7
8.7607 -7.9867 -2.8214 0.2315 0 7
8.8326 -7.9071 -2.8214 0.2315 0 7
8.9037 -7.8269 -2.8214 0.2315 0 7
8.9741 -7.7461 -2.8214 0.2315 0 7
9.0438 -7.6646 -2.8214 0.2315 0 7
9.1128 -7.5825 -2.8214 0.2315 0 7
9.1810 -7.4998 -2.8214 0.2315 0 7
9.2484 -7.4165 -2.8214 0.2315 0 7
9.3151 -7.3325 -2.8214 0.2315 0 7
9.3811 -7.2480 -2.8214 0.2315 0 7
9.4462 -7.1628 -2.8214 0.2315 0 7
9.5106 -7.0771 -2.8214 0.2315 0 7
9.5742 -6.9908 -2.8214 0.2315 0 7
9.6371 -6.9039 -2.8214 0.2315 0 7
9.6991 -6.8165 -2.8214 0.2315 0 7
9.7604 -6.7285 -2.8214 0.2315 0 7
9.8208 -6.6399 -2.8214 0.2315 0 7
9.8805 -6.5509 -2.8214 0.2315 0 7
9.9393 -6.4612 -2.8214 0.2315 0 7
9.9973 -6.3711 -2.8214 0.2315 0 7
10.0545 -6.2804 -2.8214 0.2315 0 7
10.1109 -6.1892 -2.8214 0.2315 0 7
10.1665 -6.0975 -2.8214 0.2315 0 7
10.2212 -6.0053 -2.8214 0.2315 0 7
10.2751 -5.9126 -2.8214 0.2315 0 7
10.3282 -5.8195 -2.8214 0.2315 0 7
10.3804 -5.7258 -2.8214 0.2315 0 7
10.4317 -5.6317 -2.8214 0.2315 0 7
10.4822 -5.5371 -2.8214 0.2315 0 7
10.5319 -5.4421 -2.8214 0.2315 0 7
10.5807 -5.3466 -2.8214 0.2315 0 7
10.6286 -5.2507 -2.8214 0.2315 0 7
10.6756 -5.1544 -2.8214 0.2315 0 7
10.7218 -5.0576 -2.8214 0.2315 0 7
10.7671 -4.9605 -2.8214 0.2315 0 7
10.8116 -4.8629 -2.8214 0.2315 0 7
10.8551 -4.7649 -2.8214 0.2315 0 7
10.8977 -4.6666 -2.8214 0.2315 0 7
10.9395 -4.5678 -2.8214 0.2315 0 7
10.9804 -4.4687 -2.8214 0.2315 0 7
11.0203 -4.3692 -2.8214 0.2315 0 7
11.0594 -4.2693 -2.8214 0.2315 0 7
11.0975 -4.1692 -2.8214 0.2315 0 7
11.1348 -4.0686 -2.8214 0.2315 0 7
11.1711 -3.9677 -2.8214 0.2315 0 7
11.2066 -3.8666 -2.8214 0.2315 0 7
11.2411 -3.7650 -2.8214 0.2315 0 7
11.2747 -3.6632 -2.8214 0.2315 0 7
11.3073 -3.5611 -2.8214 0.2315 0 7
11.3391 -3.4587 -2.8214 0.2315 0 7
11.3699 -3.3560 -2.8214 0.2315 0 7
11.3998 -3.2530 -2.8214 0.2315 0 7
11.4287 -3.1498 -2.8214 0.2315 0 7
11.4567 -3.0463 -2.8214 0.2315 0 7
11.4838 -2.9426 -2.8214 0.2315 0 7
11.5100 -2.8386 -2.8214 0.2315 0 7
11.5352 -2.7344 -2.8214 0.2315 0 7
11.5594 -2.6300 -2.8214 0.2315 0 7
11.5827 -2.5253 -2.8214 0.2315 0 7
11.6051 -2.4205 -2.8214 0.2315 0 7
11.6265 -2.3154 -2.8214 0.2315 0 7
11.6470 -2.2102 -2.8214 0.2315 0 7
11.6665 -2.1047 -2.8214 0.2315 0 7
11.6851 -1.9991 -2.8214 0.2315 0 7
11.7027 -1.8934 -2.8214 0.2315 0 7
11.7193 -1.7875 -2.8214 0.2315 0 7
11.7350 -1.6814 -2.8214 0.2315 0 7
11.7497 -1.5752 -2.8214 0.2315 0 7
11.7635 -1.4689 -2.8214 0.2315 0 7
11.7763 -1.3624 -2.8214 0.2315 0 7
11.7881 -1.2559 -2.8214 0.2315 0 7
11.7990 -1.1492 -2.8214 0.2315 0 7
11.8089 -1.0425 -2.8214 0.2315 0 7
11.8179 -0.9356 -2.8214 0.2315 0 7
11.8258 -0.8287 -2.8214 0.2315 0 7
11.8328 -0.7217 -2.8214 0.2315 0 7
11.8389 -0.6147 -2.8214 0.2315 0 7
11.8440 -0.5076 -2.8214 0.2315 0 7
11.8481 -0.4004 -2.8214 0.2315 0 7
11.8512 -0.2933 -2.8214 0.2315 0 7
11.8534 -0.1861 -2.8214 0.2315 0 7
11.8546 -0.0789 -2.8214 0.2315 0 7
11.8548 0.0284 -2.8214 0.2315 0 7
11.8541 0.1356 -2.8214 0.2315 0 7
11.8524 0.2428 -2.8214 0.2315 0 7
11.8497 0.3500 -2.8214 0.2315 0 7
11.8460 0.4571 -2.8214 0.2315 0 7
11.8414 0.5642 -2.8214 0.2315 0 7
11.8358 0.6713 -2.8214 0.2315 0 7
11.8293 0.7783 -2.8214 0.2315 0 7
11.8217 0.8853 -2.8214 0.2315 0 7
11.8133 0.9921 -2.8214 0.2315 0 7
11.8038 1.0989 -2.8214 0.2315 0 7
11.7934 1.2056 -2.8214 0.2315 0 7
11.7820 1.3122 -2.8214 0.2315 0 7
11.7696 1.4187 -2.8214 0.2315 0 7
11.7563 1.5251 -2.8214 0.2315 0 7
11.7421 1.6314 -2.8214 0.2315 0 7
11.7268 1.7375 -2.8214 0.2315 0 7
11.7106 1.8435 -2.8214 0.2315 0 7
11.6935 1.9493 -2.8214 0.2315 0 7
11.6754 2.0550 -2.8214 0.2315 0 7
11.6563 2.1605 -2.8214 0.2315 0 7
11.6363 2.2658 -2.8214 0.2315 0 7
11.6153 2.3710 -2.8214 0.2315 0 7
11.5934 2.4759 -2.8214 0.2315 0 7
11.5705 2.5807 -2.8214 0.2315 0 7
11.5467 2.6852 -2.8214 0.2315 0 7
11.5220 2.7895 -2.8214 0.2315 0 7
11.4963 2.8936 -2.8214 0.2315 0 7
11.4696 2.9975 -2.8214 0.2315 0 7
11.4420 3.1011 -2.8214 0.2315 0 7
11.4135 3.2044 -2.8214 0.2315 0 7
11.3841 3.3075 -2.8214 0.2315 0 7
11.3537 3.4104 -2.8214 0.2315 0 7
11.3224 3.5129 -2.8214 0.2315 0 7
11.2902 3.6151 -2.8214 0.2315 0 7
11.2570 3.7171 -2.8214 0.2315 0 7
11.2229 3.8188 -2.8214 0.2315 0 7
11.1879 3.9201 -2.8214 0.2315 0 7
11.1520 4.0211 -2.8214 0.2315 0 7
11.1152 4.1218 -2.8214 0.2315 0 7
11.0775 4.2222 -2.8214 0.2315 0 7
11.0388 4.3222 -2.8214 0.2315 0 7
10.9993 4.4219 -2.8214 0.2315 0 7
10.9589 4.5211 -2.8214 0.2315 0 7
10.9175 4.6201 -2.8214 0.2315 0 7
10.8753 4.7186 -2.8214 0.2315 0 7
10.8322 4.8168 -2.8214 0.2315 0 7
10.7882 4.9145 -2.8214 0.2315 0 7
10.7433 5.0119 -2.8214 0.2315 0 7
10.6975 5.1089 -2.8214 0.2315 0 7
10.6509 5.2054 -2.8214 0.2315 0 7
10.6034 5.3015 -2.8214 0.2315 0 7
10.5550 5.3972 -2.8214 0.2315 0 7
10.5057 5.4924 -2.8214 0.2315 0 7
10.4556 5.5872 -2.8214 0.2315 0 7
10.4047 5.6815 -2.8214 0.2315 0 7
10.3529 5.7754 -2.8214 0.2315 0 7
10.3002 5.8688 -2.8214 0.2315 0 7
10.2467 5.9617 -2.8214 0.2315 0 7
10.1924 6.0541 -2.8214 0.2315 0 7
10.1372 6.1461 -2.8214 0.2315 0 7
10.0812 6.2375 -2.8214 0.2315 0 7
10.0244 6.3284 -2.8214 0.2315 0 7
9.9667 6.4188 -2.8214 0.2315 0 7
9.9083 6.5087 -2.8214 0.2315 0 7
9.8490 6.5980 -2.8214 0.2315 0 7
9.7889 6.6868 -2.8214 0.2315 0 7
9.7281 6.7751 -2.8214 0.2315 0 7
9.6664 6.8628 -2.8214 0.2315 0 7
9.6039 6.9499 -2.8214 0.2315 0 7
9.5364 7.0333 -2.8201 0.2311 0 8
9.4663 7.1147 -2.8183 0.2312 0 8
9.3955 7.1954 -2.8165 0.2314 0 8
9.3240 7.2754 -2.8147 0.2315 0 8
8.7787 6.9785 -2.6690 0.2315 0 8
8.7152 7.0576 -2.6690 0.2315 0 8
8.6510 7.1361 -2.6690 0.2315 0 8
8.5861 7.2141 -2.6690 0.2315 0 8
8.5205 7.2915 -2.6690 0.2315 0 8
8.4542 7.3682 -2.6690 0.2315 0 8
8.3873 7.4444 -2.6690 0.2315 0 8
8.3196 7.5199 -2.6690 0.2315 0 8
8.2512 7.5949 -2.6690 0.2315 0 8
8.1822 7.6692 -2.6690 0.2315 0 8
8.1125 7.7429 -2.6690 0.2315 0 8
8.0422 7.8159 -2.6690 0.2315 0 8
7.9712 7.8883 -2.6690 0.2315 0 8
7.8995 7.9601 -2.6690 0.2315 0 8
7.8272 8.0312 -2.6690 0.2315 0 8
7.7542 8.1017 -2.6690 0.2315 0 8
7.6806 8.1715 -2.6690 0.2315 0 8
10.7718 -0.0000 -2.8214 0.2534 0 7
10.7714 0.0974 -2.8214 0.2534 0 7
10.7701 0.1948 -2.8214 0.2534 0 7
10.7679 0.2922 -2.8214 0.2534 0 7
10.7648 0.3896 -2.8214 0.2534 0 7
10.7608 0.4869 -2.8214 0.2534 0 7
10.7560 0.5842 -2.8214 0.2534 0 7
10.7503 0.6815 -2.8214 0.2534 0 7
10.7437 0.7787 -2.8214 0.2534 0 7
10.7362 0.8758 -2.8214 0.2534 0 7
10.7278 0.9729 -2.8214 0.2534 0 7
10.7186 1.0699 -2.8214 0.2534 0 7
10.7085 1.1668 -2.8214 0.2534 0 7
10.6975 1.2636 -2.8214 0.2534 0 7
10.6856 1.3602 -2.8214 0.2534 0 7
10.6729 1.4568 -2.8214 0.2534 0 7
10.6593 1.5533 -2.8214 0.2534 0 7
10.6448 1.6496 -2.8214 0.2534 0 7
10.6294 1.7458 -2.8214 0.2534 0 7
10.6132 1.8419 -2.8214 0.2534 0 7
10.5961 1.9378 -2.8214 0.2534 0 7
10.5781 2.0335 -2.8214 0.2534 0 7
10.5593 2.1291 -2.8214 0.2534 0 7
10.5396 2.2245 -2.8214 0.2534 0 7
10.5191 2.3198 -2.8214 0.2534 0 7
10.4977 2.4148 -2.8214 0.2534 0 7
10.4754 2.5096 -2.8214 0.2534 0 7
10.4523 2.6043 -2.8214 0.2534 0 7
10.4283 2.6987 -2.8214 0.2534 0 7
10.4035 2.7929 -2.8214 0.2534 0 7
10.3778 2.8869 -2.8214 0.2534 0 7
10.3512 2.9806 -2.8214 0.2534 0 7
10.3239 3.0741 -2.8214 0.2534 0 7
10.2956 3.1674 -2.8214 0.2534 0 7
10.2666 3.2603 -2.8214 0.2534 0 7
10.2367 3.3530 -2.8214 0.2534 0 7
10.2059 3.4455 -2.8214 0.2534 0 7
10.1743 3.5377 -2.8214 0.2534 0 7
10.1419 3.6295 -2.8214 0.2534 0 7
10.1087 3.7211 -2.8214 0.2534 0 7
10.0746 3.8124 -2.8214 0.2534 0 7
10.0397 3.9033 -2.8214 0.2534 0 7
10.0040 3.9940 -2.8214 0.2534 0 7
9.9675 4.0843 -2.8214 0.2534 0 7
9.9302 4.1743 -2.8214 0.2534 0 7
9.8920 4.2639 -2.8214 0.2534 0 7
9.8530 4.3532 -2.8214 0.2534 0 7
9.8133 4.4421 -2.8214 0.2534 0 7
9.7727 4.5307 -2.8214 0.2534 0 7
9.7313 4.6189 -2.8214 0.2534 0 7
9.6891 4.7067 -2.8214 0.2534 0 7
9.6462 4.7941 -2.8214 0.2534 0 7
9.6024 4.8812 -2.8214 0.2534 0 7
9.5579 4.9678 -2.8214 0.2534 0 7
9.5126 5.0541 -2.8214 0.2534 0 7
9.4665 5.1399 -2.8214 0.2534 0 7
9.4196 5.2253 -2.8214 0.2534 0 7
9.3720 5.3103 -2.8214 0.2534 0 7
9.3236 5.3948 -2.8214 0.2534 0 7
9.2744 5.4789 -2.8214 0.2534 0 7
9.2244 5.5625 -2.8214 0.2534 0 7
9.1738 5.6458 -2.8214 0.2534 0 7
9.1223 5.7285 -2.8214 0.2534 0 7
9.0701 5.8108 -2.8214 0.2534 0 7
9.0172 5.8925 -2.8214 0.2534 0 7
8.9636 5.9739 -2.8214 0.2534 0 7
8.9092 6.0547 -2.8214 0.2534 0 7
8.8540 6.1350 -2.8214 0.2534 0 7
8.7982 6.2148 -2.8214 0.2534 0 7
8.7416 6.2941 -2.8214 0.2534 0 7
8.6828 6.3718 -2.8209 0.2547 0 8
8.6199 6.4464 -2.8193 0.2548 0 8
8.5562 6.5203 -2.8176 0.2550 0 8
8.4920 6.5936 -2.8160 0.2551 0 8
8.4272 6.6662 -2.8144 0.2552 0 8
8.0923 6.5212 -2.7221 0.1653 0 8
7.8762 6.4654 -2.6690 0.2534 0 8
7.8174 6.5364 -2.6690 0.2534 0 8
7.7580 6.6068 -2.6690 0.2534 0 8
7.6979 6.6767 -2.6690 0.2534 0 8
7.6372 6.7460 -2.6690 0.2534 0 8
7.5759 6.8148 -2.6690 0.2534 0 8
7.5139 6.8831 -2.6690 0.2534 0 8
7.4514 6.9507 -2.6690 0.2534 0 8
7.3882 7.0178 -2.6690 0.2534 0 8
7.3244 7.0844 -2.6690 0.2534 0 8
7.2601 7.1503 -2.6690 0.2534 0 8
7.1951 7.2157 -2.6690 0.2534 0 8
7.1296 7.2805 -2.6690 0.2534 0 8
7.0634 7.3446 -2.6690 0.2534 0 8
6.9967 7.4082 -2.6690 0.2534 0 8
6.9294 7.4712 -2.6690 0.2534 0 8
6.8616 7.5336 -2.6690 0.2534 0 8
6.7931 7.5953 -2.6690 0.2534 0 8
6.7242 7.6564 -2.6690 0.2534 0 8
6.6547 7.7169 -2.6690 0.2534 0 8
6.5846 7.7768 -2.6690 0.2534 0 8
6.5140 7.8360 -2.6690 0.2534 0 8
6.4429 7.8946 -2.6690 0.2534 0 8
6.3712 7.9526 -2.6690 0.2534 0 8
6.2990 8.0099 -2.6690 0.2534 0 8
6.2263 8.0665 -2.6690 0.2534 0 8
6.1531 8.1225 -2.6690 0.2534 0 8
6.0794 8.1778 -2.6690 0.2534 0 8
6.0052 8.2325 -2.6690 0.2534 0 8
5.9305 8.2864 -2.6690 0.2534 0 8
5.8553 8.3397 -2.6690 0.2534 0 8
5.7796 8.3923 -2.6690 0.2534 0 8
5.7035 8.4443 -2.6690 0.2534 0 8
5.6269 8.4955 -2.6690 0.2534 0 8
5.5498 8.5461 -2.6690 0.2534 0 8
5.4723 8.5959 -2.6690 0.2534 0 8
5.3944 8.6450 -2.6690 0.2534 0 8
5.3160 8.6935 -2.6690 0.2534 0 8
5.2371 8.7412 -2.6690 0.2534 0 8
5.1579 8.7882 -2.6690 0.2534 0 8
5.0782 8.8345 -2.6690 0.2534 0 8
4.9981 8.8800 -2.6690 0.2534 0 8
4.9175 8.9249 -2.6690 0.2534 0 8
4.8366 8.9690 -2.6690 0.2534 0 8
4.7553 9.0124 -2.6690 0.2534 0 8
4.6736 9.0550 -2.6690 0.2534 0 8
4.5915 9.0969 -2.6690 0.2534 0 8
4.5091 9.1380 -2.6690 0.2534 0 8
4.4262 9.1785 -2.6690 0.2534 0 8
4.3431 9.2181 -2.6690 0.2534 0 8
4.2595 9.2570 -2.6690 0.2534 0 8
4.1756 9.2952 -2.6690 0.2534 0 8
4.0914 9.3325 -2.6690 0.2534 0 8
4.0068 9.3692 -2.6690 0.2534 0 8
3.9219 9.4050 -2.6690 0.2534 0 8
3.8367 9.4401 -2.6690 0.2534 0 8
3.7512 9.4744 -2.6690 0.2534 0 8
3.6653 9.5079 -2.6690 0.2534 0 8
3.5792 9.5407 -2.6690 0.2534 0 8
3.4928 9.5727 -2.6690 0.2534 0 8
3.4060 9.6039 -2.6690 0.2534 0 8
3.3190 9.6343 -2.6690 0.2534 0 8
3.2318 9.6639 -2.6690 0.2534 0 8
3.1442 9.6928 -2.6690 0.2534 0 8
3.0565 9.7208 -2.6690 0.2534 0 8
2.9684 9.7480 -2.6690 0.2534 0 8
2.8801 9.7745 -2.6690 0.2534 0 8
2.7916 9.8001 -2.6690 0.2534 0 8
2.7029 9.8250 -2.6690 0.2534 0 8
2.6139 9.8490 -2.6690 0.2534 0 8
2.5247 9.8723 -2.6690 0.2534 0 8
2.4353 9.8947 -2.6690 0.2534 0 8
2.3458 9.9163 -2.6690 0.2534 0 8
2.2560 9.9371 -2.6690 0.2534 0 8
2.1660 9.9571 -2.6690 0.2534 0 8
2.0759 9.9763 -2.6690 0.2534 0 8
1.9856 9.9947 -2.6690 0.2534 0 8
1.8951 10.0122 -2.6690 0.2534 0 8
1.8045 10.0289 -2.6690 0.2534 0 8
1.7137 10.0448 -2.6690 0.2534 0 8
1.6228 10.0599 -2.6690 0.2534 0 8
1.5317 10.0742 -2.6690 0.2534 0 8
1.4406 10.0876 -2.6690 0.2534 0 8
1.3493 10.1003 -2.6690 0.2534 0 8
1.2579 10.1121 -2.6690 0.2534 0 8
1.1664 10.1230 -2.6690 0.2534 0 8
1.0748 10.1332 -2.6690 0.2534 0 8
0.9831 10.1425 -2.6690 0.2534 0 8
0.8913 10.1509 -2.6690 0.2534 0 8
0.7995 10.1586 -2.6690 0.2534 0 8
0.7076 10.1654 -2.6690 0.2534 0 8
0.3960 6.5432 -1.7169 0.9295 0 5
0.3376 6.5621 -1.7211 0.8457 0 5
0.4315 10.1808 -2.6690 0.2534 0 8
0.3394 10.1843 -2.6690 0.2534 0 8
0.2473 10.1870 -2.6690 0.2534 0 8
0.1552 10.1888 -2.6690 0.2534 0 8
0.0630 10.1898 -2.6690 0.2534 0 8
-0.0291 10.1899 -2.6690 0.2534 0 8
-0.1213 10.1893 -2.6690 0.2534 0 8
-0.2134 10.1878 -2.6690 0.2534 0 8
-0.3056 10.1854 -2.6690 0.2534 0 8
-0.3977 10.1822 -2.6690 0.2534 0 8
-0.4897 10.1782 -2.6690 0.2534 0 8
-0.5818 10.1734 -2.6690 0.2534 0 8
-0.6737 10.1677 -2.6690 0.2534 0 8
-0.7657 10.1612 -2.6690 0.2534 0 8
-0.8575 10.1538 -2.6690 0.2534 0 8
-0.9493 10.1457 -2.6690 0.2534 0 8
-1.0411 10.1367 -2.6690 0.2534 0 8
-1.1327 10.1268 -2.6690 0.2534 0 8
-1.2242 10.1162 -2.6690 0.2534 0 8
-1.3157 10.1047 -2.6690 0.2534 0 8
-1.4070 10.0924 -2.6690 0.2534 0 8
-1.4982 10.0792 -2.6690 0.2534 0 8
-1.5893 10.0653 -2.6690 0.2534 0 8
-1.6803 10.0505 -2.6690 0.2534 0 8
-1.7711 10.0349 -2.6690 0.2534 0 8
-1.8618 10.0185 -2.6690 0.2534 0 8
-1.9523 10.0012 -2.6690 0.2534 0 8
-2.0427 9.9832 -2.6690 0.2534 0 8
-2.1329 9.9643 -2.6690 0.2534 0 8
-2.2229 9.9446 -2.6690 0.2534 0 8
-2.3128 9.9241 -2.6690 0.2534 0 8
-2.4024 9.9027 -2.6690 0.2534 0 8
-2.4919 9.8806 -2.6690 0.2534 0 8
-2.5811 9.8577 -2.6690 0.2534 0 8
-2.6702 9.8339 -2.6690 0.2534 0 8
-2.7590 9.8094 -2.6690 0.2534 0 8
-2.8476 9.7840 -2.6690 0.2534 0 8
-2.9360 9.7579 -2.6690 0.2534 0 8
-3.0241 9.7309 -2.6690 0.2534 0 8
-3.1120 9.7032 -2.6690 0.2534 0 8
-3.1996 9.6746 -2.6690 0.2534 0 8
-3.2870 9.6453 -2.6690 0.2534 0 8
-3.3741 9.6152 -2.6690 0.2534 0 8
-3.4609 9.5843 -2.6690 0.2534 0 8
-3.5474 9.5526 -2.6690 0.2534 0 8
-3.6337 9.5201 -2.6690 0.2534 0 8
-3.7196 9.4869 -2.6690 0.2534 0 8
-3.8053 9.4528 -2.6690 0.2534 0 8
-3.8906 9.4180 -2.6690 0.2534 0 8
-3.9756 9.3824 -2.6690 0.2534 0 8
-4.0603 9.3461 -2.6690 0.2534 0 8
-4.1447 9.3090 -2.6690 0.2534 0 8
-4.2287 9.2711 -2.6690 0.2534 0 8
-4.3124 9.2325 -2.6690 0.2534 0 8
-4.3957 9.1931 -2.6690 0.2534 0 8
-4.4787 9.1530 -2.6690 0.2534 0 8
-4.5612 9.1121 -2.6690 0.2534 0 8
-4.6435 9.0705 -2.6690 0.2534 0 8
-4.7253 9.0281 -2.6690 0.2534 0 8
-4.8068 8.9850 -2.6690 0.2534 0 8
-4.8878 8.9412 -2.6690 0.2534 0 8
-4.9685 8.8966 -2.6690 0.2534 0 8
-5.0487 8.8513 -2.6690 0.2534 0 8
-5.1286 8.8053 -2.6690 0.2534 0 8
-5.2080 8.7586 -2.6690 0.2534 0 8
-5.2870 8.7111 -2.6690 0.2534 0 8
