ply
format ascii 1.0
element vertex 1403
property float32 x
property float32 y
property float32 z
property float32 CosAngle
property uint32 ObjIdx
property uint32 ObjTag
end_header
10.6798 11.5279 3.4607 0.5958 0 9
9.4091 10.3425 3.0791 0.2346 0 9
10.3974 11.6387 3.4369 0.7966 0 9
9.3267 10.6323 3.1146 0.3359 0 9
9.0492 10.5063 3.0536 0.4927 0 9
9.0203 10.6664 3.0763 0.4725 0 9
8.6100 10.3702 2.9682 0.7878 0 9
8.4962 10.4236 2.9614 0.7990 0 9
8.4116 10.5126 2.9649 0.6350 0 9
8.3470 10.6277 2.9760 0.7584 0 9
8.3940 10.8890 3.0277 0.9144 0 9
8.3030 10.9750 3.0306 0.8019 0 9
8.0690 10.8686 2.9810 0.7429 0 9
7.5461 10.3589 2.8223 0.1716 0 9
7.3733 10.3166 2.7925 0.7630 0 9
7.2623 10.3582 2.7859 0.7648 0 9
9.8655 14.3456 3.8341 0.7347 0 9
7.7894 11.5491 3.0677 0.7665 0 9
6.9660 10.5327 2.7809 0.7929 0 9
6.7808 10.4572 2.7446 0.7780 0 9
6.7952 10.6901 2.7895 0.7904 0 9
6.9092 11.0899 2.8774 0.7675 0 9
6.8190 11.1689 2.8818 0.7663 0 9
6.7833 11.3400 2.9100 0.3530 0 9
6.6968 11.4290 2.9171 0.7264 0 9
6.7803 11.8154 2.9999 0.7387 0 9
6.6789 11.8865 3.0025 0.7381 0 9
6.3892 11.6160 2.9195 0.4500 0 9
6.6416 12.3379 3.0857 0.7514 0 9
6.6360 12.5993 3.1359 0.7187 0 9
7.4421 14.4455 3.5785 0.3346 0 9
6.5028 12.9078 3.1829 0.9058 0 9
6.0164 12.2163 2.9988 0.9258 0 9
5.9269 12.3145 3.0096 0.9225 0 9
5.8443 12.4295 3.0247 0.7750 0 9
5.6889 12.3888 3.0021 0.8668 0 9
5.5675 12.4196 2.9973 0.8682 0 9
5.5934 12.7862 3.0734 0.4884 0 9
5.5225 12.9420 3.0987 0.2142 0 9
6.1047 14.6728 3.4997 0.2702 0 9
2.6352 6.4989 1.5444 0.9453 0 5
5.2882 13.3885 3.1700 0.3013 0 9
6.1173 15.9076 3.7532 0.9476 0 9
5.2659 14.0724 3.3089 0.8886 0 9
5.3262 14.6357 3.4298 0.5796 0 9
6.0234 17.0297 3.9779 0.3292 0 9
8.9543 26.0639 6.0690 0.4809 0 9
8.7009 26.0923 6.0571 0.7604 0 9
1.0846 7.6483 1.7012 0.1179 0 9
0.9876 7.4492 1.6548 0.6939 0 9
0.9124 7.3947 1.6408 0.6998 0 9
0.8436 7.3868 1.6373 0.9529 0 9
0.7760 7.3874 1.6358 0.9538 0 9
0.7085 7.3879 1.6344 0.9546 0 9
0.6454 7.4374 1.6440 0.7235 0 9
0.5829 7.5048 1.6577 0.7175 0 9
0.5300 7.7289 1.7060 0.1311 0 9
-9.9197 14.1838 3.8116 0.7367 0 1
-9.9695 13.9838 3.7820 0.7425 0 1
-10.2100 14.0504 3.8248 0.2151 0 1
-10.3367 13.9574 3.8248 0.2151 0 1
-10.8580 14.3871 3.9694 0.7594 0 1
-10.3947 13.5171 3.7551 0.7122 0 9
-10.4938 13.3933 3.7469 0.7138 0 9
-10.6138 13.2969 3.7467 0.6467 0 9
-10.7408 13.2090 3.7492 0.6505 0 9
-10.8682 13.1212 3.7520 0.6500 0 9
-10.4367 12.1460 3.5266 0.3286 0 9
-10.4151 11.9012 3.4828 0.3783 0 9
-11.1578 12.2936 3.6561 0.1748 0 9
-9.0587 9.8011 2.9391 0.6580 0 9
-9.0708 9.6377 2.9146 0.9655 0 9
-9.1560 9.5535 2.9141 0.9657 0 9
-9.2674 9.4962 2.9221 0.8078 0 9
-9.4681 9.5278 2.9580 0.4692 0 9
-12.5760 12.4283 3.8937 0.2705 0 9
-13.2142 12.8247 4.0552 0.3709 0 9
-13.4109 12.7820 4.0799 0.6481 0 9
-14.2279 13.0774 4.2557 0.0742 0 9
-10.7234 9.6788 3.1812 0.1337 0 9
-12.7769 11.3241 3.7598 0.5044 0 9
-12.9558 11.2749 3.7822 0.5014 0 9
-10.5208 8.9898 3.0475 0.4328 0 9
-10.6192 8.9089 3.0525 0.4250 0 9
-18.7442 15.4384 5.3477 0.7603 0 9
-10.7712 8.7092 3.0504 0.9855 0 9
-10.8353 8.6000 3.0464 0.8918 0 9
-10.8748 8.4721 3.0358 0.8007 0 9
-10.8979 8.3327 3.0211 0.8046 0 9
-18.4524 13.8461 5.0804 0.2208 0 9
-18.3788 13.5327 5.0262 0.8266 0 9
-10.9908 7.9404 2.9859 0.8742 0 9
-11.0719 7.8474 2.9886 0.5705 0 9
-11.0367 7.6734 2.9602 0.4206 0 9
-11.1153 7.5797 2.9628 0.4203 0 9
-11.3164 7.5677 2.9980 0.1925 0 9
-11.4921 7.5356 3.0263 0.5766 0 9
-11.4661 7.3710 3.0018 0.6828 0 9
-11.5634 7.2866 3.0099 0.6810 0 9
-11.0627 6.8319 2.8633 0.7264 0 9
-11.1557 6.7507 2.8715 0.7244 0 9
-11.2490 6.6688 2.8798 0.7223 0 9
-11.3507 6.5910 2.8905 0.4313 0 9
-18.8662 10.7280 4.7794 0.8761 0 9
-18.9423 10.5455 4.7743 0.8359 0 9
-18.9582 10.3307 4.7546 0.8393 0 9
-18.9569 10.1086 4.7311 0.5715 0 9
-18.8480 9.8325 4.6815 0.7166 0 9
-18.8960 9.6410 4.6716 0.8456 0 9
-20.3362 10.1449 5.0047 0.9456 0 9
-20.1259 9.8136 4.9309 0.9173 0 9
-20.2382 9.6426 4.9368 0.7687 0 9
-20.4928 9.5373 4.9777 0.5972 0 9
-20.2070 9.1827 4.8879 0.9794 0 9
-20.1879 8.9545 4.8635 0.9199 0 9
-20.2007 8.7422 4.8473 0.9272 0 9
-20.3748 8.5995 4.8702 0.5349 0 9
-21.5951 8.8852 5.1424 0.9619 0 9
-21.6970 8.6984 5.1478 0.2668 0 9
-22.0837 8.6222 5.2208 0.2882 0 9
-22.1992 8.4366 5.2298 0.5223 0 9
-22.2957 8.2431 5.2347 0.7017 0 9
-22.5225 8.0960 5.2706 0.6603 0 9
-23.7488 8.2949 5.5398 0.4425 0 9
-23.7160 8.0434 5.5149 0.6169 0 9
-24.8039 8.1629 5.7505 0.8891 0 9
-24.9997 7.9773 5.7789 0.9198 0 9
-26.0993 8.0686 6.0159 0.6872 0 9
-26.6462 7.9742 6.1251 0.6759 0 9
-27.0485 7.8286 6.2010 0.2908 0 9
-37.1081 7.8833 8.3543 0.3157 0 9
-33.9556 6.8930 7.6302 0.8554 0 9
-34.9830 6.7725 7.8469 0.6876 0 9
-36.6284 6.7477 8.2020 0.4551 0 9
-36.4602 6.0366 8.1385 0.0953 0 9
-35.6910 5.5778 7.9552 0.8724 0 9
-33.7749 4.9657 7.5178 0.5484 0 9
-32.0561 4.4170 7.1260 0.3042 0 9
-32.0188 4.1169 7.1092 0.8872 0 9
-34.6699 4.1392 7.6892 0.2142 0 9
-24.8137 2.7350 5.4975 0.4652 0 9
-24.8453 2.5111 5.4993 0.9503 0 9
-24.2133 2.2260 5.3547 0.1907 0 9
-24.3501 2.0166 5.3807 0.7799 0 9
-24.7509 1.8244 5.4654 0.5300 0 9
-24.1990 1.5637 5.3402 0.5560 0 9
-24.3621 1.3529 5.3732 0.3866 0 9
-24.5971 1.1428 5.4226 0.2234 0 9
-24.4741 0.9152 5.3934 0.3079 0 9
-25.2345 0.7150 5.5593 0.5981 0 9
-24.9008 0.4800 5.4846 0.9340 0 9
-24.0416 0.2458 5.2947 0.9671 0 9
-24.5291 0.0288 5.4018 0.9161 0 9
-23.5162 -0.1852 5.1789 0.8455 0 9
-23.0006 -0.3893 5.0659 0.7525 0 9
-24.3463 -0.6326 5.3633 0.5022 0 9
-24.3629 -0.8537 5.3685 0.9217 0 9
-23.4863 -1.0358 5.1771 0.5802 0 9
-23.2717 -1.2375 5.1321 0.7848 0 9
-23.1674 -1.4423 5.1118 0.9589 0 9
-23.1711 -1.6532 5.1157 0.6785 0 9
-23.2724 -1.8723 5.1416 0.2244 0 9
-23.3420 -2.0906 5.1609 0.9525 0 9
-22.9206 -2.2622 5.0721 0.6522 0 9
-12.9159 -1.3929 2.8608 0.4044 0 9
-12.8274 -1.5009 2.8441 0.7939 0 9
-12.1631 -1.5349 2.6998 0.5877 0 9
-12.2596 -1.6599 2.7244 0.7255 0 9
-12.1747 -1.7607 2.7090 0.7296 0 9
-11.6483 -1.7924 2.5954 0.4437 0 9
-11.4688 -1.8712 2.5590 0.4435 0 9
-12.0939 -2.0857 2.7026 0.7089 0 9
-11.0120 -2.0019 2.4648 0.5053 0 9
-11.9260 -2.2797 2.6739 0.3510 0 9
-12.1910 -2.4450 2.7381 0.0856 0 9
-13.2950 -2.7918 2.9917 0.6985 0 9
-13.2974 -2.9182 2.9980 0.7446 0 9
-13.2566 -3.0352 2.9949 0.4265 0 9
-13.0977 -3.1238 2.9652 0.4308 0 9
-13.0098 -3.2276 2.9519 0.5710 0 9
-10.9789 -2.8295 2.4968 0.7867 0 9
-10.7642 -2.8783 2.4538 0.3087 0 9
-10.7409 -2.9765 2.4545 0.7764 0 9
-10.7531 -3.0849 2.4636 0.5380 0 9
-10.6267 -3.1530 2.4410 0.4684 0 9
-10.5800 -3.2436 2.4369 0.5606 0 9
-10.8868 -3.4458 2.5147 0.6372 0 9
-10.8799 -3.5522 2.5204 0.8778 0 9
-10.8874 -3.6640 2.5297 0.8694 0 9
-10.9725 -3.8035 2.5574 0.6815 0 9
-10.8940 -3.8871 2.5472 0.6935 0 9
-10.8520 -3.9832 2.5457 0.9409 0 9
-10.2926 -3.8839 2.4226 0.9300 0 9
-10.2340 -3.9680 2.4172 0.9540 0 9
-10.0882 -4.0169 2.3913 0.7014 0 9
-10.1647 -4.1543 2.4182 0.8117 0 9
-9.9616 -4.1769 2.3788 0.4322 0 9
-10.0858 -4.3367 2.4177 0.6464 0 9
-10.1068 -4.4546 2.4323 0.6336 0 9
-11.7774 -5.3187 2.8458 0.9059 0 9
-10.3905 -4.8060 2.5211 0.9854 0 9
-9.9931 -4.7325 2.4350 0.6505 0 9
-10.0411 -4.8669 2.4573 0.6359 0 9
-10.5984 -5.2560 2.6052 0.8965 0 9
-11.3162 -5.7402 2.7943 0.9088 0 9
-10.2709 -5.3274 2.5480 0.9779 0 9
-10.2267 -5.4224 2.5491 0.6722 0 9
-10.0274 -5.4336 2.5116 0.8732 0 9
-9.9563 -5.5123 2.5062 0.8817 0 9
-9.8959 -5.5964 2.5036 0.5391 0 9
-10.1019 -5.8342 2.5690 0.8604 0 9
-10.0520 -5.9273 2.5698 0.7706 0 9
-10.0630 -6.0572 2.5865 0.7637 0 9
-10.1659 -6.2452 2.6274 0.7722 0 9
-11.0026 -6.8971 2.8597 0.5885 0 9
-10.9430 -6.9985 2.8605 0.6134 0 9
-10.4038 -6.7871 2.7355 0.7177 0 9
-10.9182 -7.2644 2.8880 0.5899 0 9
-10.8193 -7.3407 2.8792 0.8859 0 9
-11.7647 -8.1386 3.1503 0.9940 0 9
-11.7267 -8.2702 3.1600 0.6693 0 9
-11.6201 -8.3535 3.1516 0.4558 0 9
-13.0441 -9.5575 3.5611 0.6118 0 9
-10.6938 -7.9851 2.9391 0.8216 0 9
-6.9836 -5.3138 1.9325 0.6092 0 9
-6.9563 -5.3931 1.9384 0.6073 0 9
-6.9287 -5.4728 1.9444 0.6054 0 9
-6.8998 -5.5521 1.9503 0.6036 0 9
-6.5513 -5.3701 1.8655 0.5945 0 9
-6.5513 -5.4700 1.8795 0.5901 0 9
-6.5499 -5.5702 1.8935 0.5904 0 9
-6.5516 -5.6746 1.9087 0.3595 0 9
-6.5990 -5.8210 1.9378 0.3548 0 9
-6.5041 -6.2828 1.9915 0.6685 0 9
-6.5406 -6.4335 2.0204 0.3299 0 9
-6.0278 -6.0373 1.8788 0.5941 0 9
-5.9533 -6.0717 1.8726 0.5960 0 9
-5.8799 -6.1064 1.8668 0.6153 0 9
-5.8068 -6.1407 1.8612 0.6172 0 9
-5.8829 -6.4513 1.9227 0.5961 0 9
-5.8043 -6.4819 1.9161 0.5981 0 9
-5.8236 -6.6231 1.9422 0.0642 0 9
-5.5515 -6.4301 1.8708 0.3992 0 9
-5.4455 -6.4240 1.8546 0.4026 0 9
-5.3410 -6.4176 1.8387 0.4010 0 9
-5.6927 -6.9674 1.9814 0.8433 0 9
-5.6312 -7.0209 1.9820 0.8431 0 9
-5.2136 -6.6221 1.8560 0.1678 0 9
-5.2551 -6.8005 1.8926 0.1574 0 9
-4.6406 -7.1382 1.8749 0.7783 0 9
-4.5704 -7.1714 1.8727 0.9898 0 9
-4.5116 -7.2227 1.8754 0.9855 0 9
-4.4527 -7.2740 1.8782 0.9841 0 9
-4.4068 -7.3475 1.8868 0.6626 0 9
-4.4385 -7.5546 1.9296 0.2159 0 9
-4.2871 -7.4505 1.8930 0.6775 0 9
-4.2039 -7.4613 1.8860 0.9206 0 9
-4.1390 -7.5041 1.8872 0.7970 0 9
-4.0872 -7.5714 1.8948 0.7925 0 9
-4.0062 -7.5848 1.8890 0.9753 0 9
-3.9340 -7.6141 1.8874 0.9803 0 9
-3.8617 -7.6431 1.8858 0.9811 0 9
-3.4675 -7.0199 1.7242 0.4018 0 9
-3.3863 -7.0147 1.7154 0.3690 0 9
-3.3070 -7.0118 1.7072 0.3708 0 9
-3.2314 -7.0155 1.7009 0.7400 0 9
-3.1661 -7.0407 1.7000 0.9350 0 9
-3.0950 -7.0525 1.6961 0.9372 0 9
-2.6502 -6.3488 1.5150 0.5122 0 9
-3.4735 -8.5376 2.0298 0.3212 0 9
-2.5046 -6.3193 1.4969 0.2506 0 9
-2.4185 -6.2672 1.4794 0.2767 0 9
-2.3476 -6.2513 1.4705 0.4871 0 9
-2.3083 -6.3199 1.4817 0.4834 0 9
-2.2687 -6.3902 1.4933 0.4760 0 9
-2.2707 -6.5843 1.5338 0.7335 0 9
-2.9168 -8.7128 2.0234 0.4184 0 9
-2.2513 -6.9326 1.6052 0.4056 0 9
-2.2156 -7.0389 1.6251 0.4334 0 9
-2.1075 -6.9136 1.5917 0.3723 0 9
-2.6020 -8.8210 2.0253 0.5890 0 9
-2.5207 -8.8393 2.0242 0.5893 0 9
-2.4394 -8.8575 2.0232 0.5808 0 9
-1.8011 -6.7789 1.5446 0.4805 0 9
-2.2911 -8.9486 2.0342 0.6065 0 9
-2.2190 -9.0055 2.0425 0.6041 0 9
-2.2241 -9.3914 2.1254 0.4384 0 9
-2.1533 -9.4738 2.1395 0.4061 0 9
-2.2861 -10.4970 2.3658 0.3152 0 9
-2.2044 -10.5814 2.3802 0.3133 0 9
-1.9539 -9.8234 2.2057 0.2066 0 9
-5.2148 -27.5172 6.1676 0.8375 0 9
-5.0880 -28.2425 6.3197 0.2935 0 9
-5.0590 -29.6154 6.6163 0.0966 0 9
-3.0879 -19.1175 4.2646 0.6832 0 9
-2.8961 -19.0219 4.2373 0.9273 0 9
-2.6414 -18.4710 4.1090 0.4556 0 9
-2.4852 -18.5764 4.1273 0.3212 0 9
-2.4524 -19.6855 4.3686 0.8682 0 9
-2.1895 -18.9739 4.2061 0.8456 0 9
-1.9656 -18.5019 4.0974 0.6950 0 9
-1.7406 -17.9268 3.9664 0.9764 0 9
-1.6129 -18.3364 4.0536 0.3479 0 9
-1.3742 -17.4272 3.8497 0.7332 0 9
-1.2092 -17.3355 3.8269 0.7376 0 9
-1.0536 -17.3685 3.8319 0.8677 0 9
-0.9042 -17.5279 3.8651 0.9916 0 9
-0.7044 -16.5692 3.6521 0.6308 0 9
-0.5605 -16.7561 3.6921 0.5939 0 9
-0.3994 -16.3760 3.6074 0.6828 0 9
-0.1175 -7.6598 1.6870 0.9630 0 5
-0.1023 -16.2758 3.5843 0.8127 0 9
0.0451 -16.3256 3.5952 0.8102 0 9
0.1965 -16.6299 3.6625 0.5930 0 9
0.3556 -17.0420 3.7538 0.6081 0 9
0.4945 -16.5265 3.6411 0.4797 0 9
0.6397 -16.4086 3.6162 0.4657 0 9
0.8382 -17.4450 3.8461 0.7392 0 9
0.9895 -17.3204 3.8205 0.6630 0 9
1.1467 -17.3196 3.8225 0.7450 0 9
1.2462 -16.5488 3.6547 0.6629 0 9
1.3509 -16.0033 3.5368 0.5449 0 9
1.4987 -16.0225 3.5439 0.7989 0 9
1.6164 -15.7428 3.4851 0.7753 0 9
1.7522 -15.6685 3.4720 0.3372 0 9
1.8990 -15.6937 3.4813 0.8710 0 9
2.0822 -15.9929 3.5517 0.7779 0 9
2.2176 -15.9072 3.5370 0.7811 0 9
2.3185 -15.5976 3.4726 0.7891 0 9
2.4584 -15.5683 3.4709 0.7895 0 9
2.5966 -15.5298 3.4674 0.7282 0 9
2.7398 -15.5217 3.4710 0.7318 0 9
2.7145 -14.6051 3.2714 0.4713 0 9
2.8359 -14.5252 3.2591 0.4731 0 9
2.9956 -14.6373 3.2902 0.4479 0 9
3.4843 -16.2742 3.6651 0.6599 0 9
3.6298 -16.2346 3.6634 0.7173 0 9
3.4048 -14.6060 3.3027 0.6695 0 9
3.5245 -14.5239 3.2913 0.8210 0 9
3.6404 -14.4303 3.2774 0.5896 0 9
3.9122 -14.9363 3.4002 0.9165 0 9
4.0371 -14.8633 3.3918 0.9818 0 9
4.1724 -14.8295 3.3925 0.6517 0 9
4.1820 -14.3638 3.2945 0.8901 0 9
4.3133 -14.3301 3.2956 0.5916 0 9
4.6563 -14.9771 3.4539 0.6319 0 9
5.1973 -16.1989 3.7464 0.7200 0 9
5.4820 -16.5691 3.8433 0.1488 0 9
5.7170 -16.7690 3.9016 0.5803 0 9
5.8324 -16.6135 3.8775 0.6018 0 9
6.0012 -16.6118 3.8896 0.2072 0 9
6.3998 -17.2258 4.0468 0.6521 0 9
6.5668 -17.1969 4.0538 0.6556 0 9
13.3378 11.7376 3.9126 0.0484 0 9
12.7152 11.3955 3.7601 0.2089 0 9
12.5468 11.4510 3.7408 0.6236 0 9
14.2741 13.2662 4.2914 0.3299 0 9
10.4559 9.8955 3.1703 0.3357 0 9
10.2391 9.8675 3.1315 0.3409 0 9
12.6154 12.3797 3.8924 0.4336 0 9
12.2210 12.2117 3.8046 0.5494 0 9
12.4552 12.6731 3.9131 0.4966 0 9
11.6387 12.0586 3.6907 0.6336 0 9
11.9237 12.5799 3.8170 0.7753 0 9
10.6869 11.4814 3.4542 0.5969 0 9
9.5432 10.4405 3.1150 0.9292 0 9
9.3328 10.3977 3.0769 0.3911 0 9
10.2598 11.6407 3.4171 0.7243 0 9
9.0742 10.4854 3.0537 0.6128 0 9
9.0277 10.6244 3.0703 0.4735 0 9
8.6394 10.3560 2.9700 0.7874 0 9
8.5258 10.4098 2.9632 0.7985 0 9
8.4229 10.4763 2.9603 0.6360 0 9
8.3789 10.6168 2.9784 0.6321 0 9
8.2546 10.6563 2.9684 0.7604 0 9
8.3236 10.9486 3.0287 0.8024 0 9
8.0906 10.8444 2.9795 0.7433 0 9
7.7605 10.6008 2.8932 0.3149 0 9
7.4022 10.3058 2.7943 0.7622 0 9
7.2911 10.3474 2.7876 0.7643 0 9
9.9178 14.3494 3.8413 0.7333 0 9
9.7650 14.4052 3.8325 0.9099 0 9
7.3175 11.0079 2.9109 0.3088 0 9
6.8084 10.4459 2.7459 0.7777 0 9
6.7022 10.4893 2.7412 0.7790 0 9
6.9326 11.0694 2.8763 0.7651 0 9
6.8424 11.1484 2.8806 0.7666 0 9
6.7763 11.2682 2.8956 0.3548 0 9
6.7199 11.4068 2.9155 0.7318 0 9
6.8362 11.8482 3.0124 0.5343 0 9
6.7052 11.8681 3.0019 0.7382 0 9
6.4134 11.5952 2.9180 0.8969 0 9
6.6677 12.3170 3.0844 0.7517 0 9
6.6509 12.5560 3.1290 0.7204 0 9
7.4629 14.4026 3.5722 0.9134 0 9
6.5261 12.8787 3.1795 0.9068 0 9
6.2153 12.5457 3.0833 0.9250 0 9
5.9502 12.2890 3.0068 0.9233 0 9
5.8641 12.3958 3.0198 0.7763 0 9
5.7204 12.3808 3.0034 0.8664 0 9
5.5989 12.4117 2.9985 0.8679 0 9
5.5707 12.6534 3.0446 0.1863 0 9
5.9109 13.7625 3.2985 0.7596 0 9
6.0779 14.5122 3.4648 0.9118 0 9
2.6529 6.4986 1.5458 0.8392 0 5
2.6033 6.5460 1.5514 0.4906 0 5
5.2669 13.6007 3.2119 0.2974 0 9
5.2946 14.0486 3.3062 0.8893 0 9
5.3497 14.5935 3.4229 0.5808 0 9
6.0296 16.9205 3.9557 0.3311 0 9
8.6008 24.8447 5.7898 0.8591 0 9
8.5365 25.4005 5.9011 0.4463 0 9
11.8742 11.4971 3.2514 0.4228 0 9
11.7138 11.5491 3.2360 0.8114 0 9
11.4984 11.5438 3.2052 0.5096 0 9
12.4686 12.7465 3.5077 0.7502 0 9
14.4837 15.0771 4.1128 0.7031 0 9
10.0680 10.6721 2.8862 0.2512 0 9
10.2060 11.0165 2.9542 0.4720 0 9
10.0377 11.0334 2.9343 0.5121 0 9
9.7665 10.9325 2.8838 0.1117 0 9
9.6349 10.9836 2.8742 0.3217 0 9
9.5723 11.1136 2.8854 0.3347 0 9
10.1562 12.0095 3.0940 0.8987 0 9
9.8929 11.9153 3.0466 0.6395 0 9
8.9061 10.9265 2.7730 0.2576 0 9
8.7241 10.9032 2.7470 0.2126 0 9
8.6287 10.9863 2.7481 0.2125 0 9
8.5011 11.0279 2.7391 0.6090 0 9
8.3932 11.0941 2.7366 0.6095 0 9
8.0087 10.7874 2.6430 0.7933 0 9
7.8927 10.8347 2.6369 0.7925 0 9
7.6846 10.7522 2.5998 0.3230 0 9
7.5335 10.7450 2.5815 0.3598 0 9
8.0520 11.7085 2.7954 0.6965 0 9
7.7617 11.5081 2.7306 0.5466 0 9
7.2761 11.0016 2.5947 0.3084 0 9
7.0999 10.9493 2.5671 0.8338 0 9
6.9812 10.9827 2.5600 0.8361 0 9
6.8630 11.0156 2.5531 0.8383 0 9
7.0725 11.5842 2.6700 0.8830 0 9
7.0841 11.8430 2.7147 0.6584 0 9
7.5621 12.9058 2.9425 0.8126 0 9
6.9462 12.1045 2.7454 0.4566 0 9
6.7801 12.0666 2.7228 0.4604 0 9
6.6678 12.1223 2.7216 0.4867 0 9
6.6076 12.2746 2.7423 0.4830 0 9
6.3734 12.1008 2.6905 0.0728 0 9
6.1493 11.9361 2.6413 0.4418 0 9
6.4459 12.7948 2.8183 0.7004 0 9
5.9281 12.0371 2.6395 0.6223 0 9
5.7545 11.9562 2.6102 0.7308 0 9
5.7008 12.1242 2.6356 0.6648 0 9
5.6004 12.1962 2.6401 0.6637 0 9
5.9769 13.3331 2.8743 0.4120 0 9
5.9923 13.6981 2.9412 0.2706 0 9
5.8761 13.7706 2.9453 0.6332 0 9
5.8559 14.0748 2.9988 0.1158 0 9
2.6350 6.4986 1.3795 0.9498 0 5
5.7915 14.6627 3.1013 0.2573 0 9
6.5232 16.9629 3.5751 0.2221 0 9
6.4210 17.1592 3.6041 0.8616 0 9
8.5706 23.5509 4.9301 0.8500 0 9
1.0659 7.5168 1.4935 0.1378 0 9
0.9845 7.4252 1.4735 0.7006 0 9
0.9094 7.3700 1.4608 0.9516 0 9
0.8418 7.3708 1.4594 0.9525 0 9
0.7744 7.3716 1.4581 0.9533 0 9
0.7069 7.3712 1.4567 0.9441 0 9
0.6449 7.4312 1.4673 0.7075 0 9
0.5826 7.5008 1.4800 0.7015 0 9
-9.8690 14.3869 3.4320 0.7343 0 1
-9.9197 14.1838 3.4049 0.7402 0 1
-10.0493 14.0958 3.4054 0.6540 0 1
-10.5332 14.4952 3.5248 0.1930 0 1
-10.6640 14.3992 3.5248 0.1930 0 1
-10.7938 14.3022 3.5248 0.1930 0 1
-10.9595 14.2516 3.5367 0.6298 0 1
-9.0570 9.7993 2.6250 0.6612 0 9
-9.0614 9.6277 2.6009 0.9714 0 9
-9.1462 9.5432 2.6003 0.9713 0 9
-9.2541 9.4826 2.6065 0.8208 0 9
-9.4518 9.5114 2.6378 0.4722 0 9
-14.1663 12.7862 3.7540 0.2631 0 9
-14.0491 12.4516 3.6930 0.4707 0 9
-14.0419 12.2201 3.6618 0.4747 0 9
-20.1107 17.1842 5.2037 0.4366 0 9
-12.1876 10.2247 3.1296 0.9789 0 5
-19.5191 16.0767 4.9745 0.6107 0 9
-11.2315 9.0814 2.8413 0.4772 0 9
-11.2732 8.9476 2.8313 0.5045 0 9
-11.1360 8.6755 2.7770 0.4445 0 9
-11.1188 8.5016 2.7534 0.4478 0 9
-11.1345 8.3550 2.7384 0.6472 0 9
-11.1834 8.2346 2.7320 0.6485 0 9
-11.2335 8.1157 2.7262 0.6499 0 9
-12.1930 8.6420 2.9400 0.3068 0 9
-12.3643 8.5964 2.9624 0.1817 0 9
-11.7028 7.9803 2.7865 0.5280 0 9
-11.8104 7.8981 2.7950 0.6684 0 9
-13.1823 8.6439 3.1010 0.4069 0 9
-13.0205 8.3703 3.0450 0.0683 0 9
-12.0422 7.5883 2.8000 0.6065 0 9
-19.3410 11.9444 4.4718 0.6779 0 9
-19.2495 11.6485 4.4261 0.8072 0 9
-19.3189 11.4530 4.4180 0.8145 0 9
-12.6469 7.3437 2.8769 0.3440 0 9
-19.5666 11.1262 4.4279 0.8460 0 9
-19.4788 10.8442 4.3856 0.3664 0 9
-19.5010 10.6265 4.3688 0.6596 0 9
-20.5507 10.9585 4.5816 0.6894 0 9
-19.6918 10.2727 4.3692 0.6464 0 9
-20.7708 10.5975 4.5871 0.5908 0 9
-20.9690 10.4606 4.6098 0.4713 0 9
-20.8194 10.1517 4.5565 0.9172 0 9
-20.8676 9.9424 4.5472 0.9217 0 9
-20.4738 9.5285 4.4424 0.6684 0 9
-20.9140 9.5040 4.5190 0.7082 0 9
-20.8433 9.2452 4.4855 0.3455 0 9
-20.9136 9.0508 4.4828 0.7156 0 9
-20.9406 8.8383 4.4713 0.5746 0 9
-27.3043 11.2342 5.8081 0.7600 0 9
-22.7930 9.1377 4.8307 0.5461 0 9
-22.5252 8.7946 4.7569 0.3946 0 9
-22.9270 8.7132 4.8249 0.2945 0 9
-24.9296 9.2170 5.2286 0.6459 0 9
-27.4617 9.8715 5.7407 0.7235 0 9
-32.9561 11.5108 6.8672 0.7168 0 9
-32.8931 11.1558 6.8327 0.6839 0 9
-32.8982 10.8266 6.8131 0.8466 0 9
-35.9804 11.4811 7.4296 0.6077 0 9
-34.3594 10.6222 7.0748 0.6559 0 9
-35.7544 10.6999 7.3417 0.3319 0 9
-36.3616 7.3814 7.2989 0.7114 0 9
-35.0055 6.7768 7.0141 0.3857 0 9
-36.3124 6.6895 7.2635 0.7950 0 9
-33.6542 5.8854 6.7209 0.8019 0 9
-33.6745 5.5754 6.7146 0.8268 0 9
-33.7610 5.2762 6.7220 0.6971 0 9
-37.1649 5.1209 7.3801 0.6491 0 9
-33.0904 4.2547 6.5631 0.9314 0 9
-32.8276 3.9193 6.5037 0.5959 0 9
-32.8070 3.6160 6.4928 0.7539 0 9
-31.3492 3.1684 6.1984 0.3672 0 9
-31.4602 2.8923 6.2149 0.3745 0 9
-25.5693 2.1175 5.0472 0.7410 0 9
-25.4763 1.8779 5.0253 0.6327 0 9
-25.4862 1.6468 5.0241 0.8848 0 9
-25.5045 1.4164 5.0249 0.3367 0 9
-25.3332 1.1770 4.9889 0.5555 0 9
-25.1855 0.9418 4.9579 0.9791 0 9
-25.4221 0.7203 5.0030 0.8422 0 9
-24.7529 0.4772 4.8703 0.2741 0 9
-25.1844 0.2575 4.9545 0.9797 0 9
-24.3221 0.0286 4.7846 0.7758 0 9
-24.1791 -0.1904 4.7566 0.8729 0 9
-24.0894 -0.4078 4.7395 0.7707 0 9
-23.2680 -0.6045 4.5788 0.7453 0 9
-24.6123 -0.8624 4.8447 0.8835 0 9
-24.4002 -1.0762 4.8046 0.5956 0 9
-24.1043 -1.2818 4.7485 0.9176 0 9
-23.6696 -1.4736 4.6653 0.8798 0 9
-23.6704 -1.6888 4.6682 0.9508 0 9
-23.5174 -1.8920 4.6413 0.9785 0 9
-23.8941 -2.1401 4.7192 0.9262 0 9
-23.8537 -2.3542 4.7153 0.9246 0 9
-23.7923 -2.5658 4.7075 0.4282 0 9
-23.4628 -2.7453 4.6471 0.3824 0 9
-23.3180 -2.9425 4.6235 0.7340 0 9
-13.6294 -1.8454 2.7056 0.8874 0 9
-13.3029 -1.9239 2.6441 0.6131 0 9
-12.4532 -1.9162 2.4786 0.5375 0 9
-12.4184 -2.0261 2.4752 0.6850 0 9
-11.6907 -2.0162 2.3337 0.4108 0 9
-11.5254 -2.0952 2.3044 0.4203 0 9
-12.4461 -2.3792 2.4927 0.9091 0 9
-11.0881 -2.2238 2.2247 0.4564 0 9
-11.1963 -2.3511 2.2505 0.6776 0 9
-11.1202 -2.4404 2.2396 0.6809 0 9
-14.6744 -3.3598 2.9614 0.2959 0 9
-11.3960 -2.7180 2.3047 0.6303 0 9
-11.2937 -2.8018 2.2890 0.6356 0 9
-11.2001 -2.8865 2.2753 0.6567 0 9
-11.1225 -2.9741 2.2649 0.6676 0 9
-11.1339 -3.0854 2.2728 0.8008 0 9
-11.1168 -3.1892 2.2751 0.9012 0 9
-11.1032 -3.2944 2.2783 0.7312 0 9
-11.0931 -3.4009 2.2825 0.6800 0 9
-11.1439 -3.5271 2.2994 0.6205 0 9
-10.4283 -3.4048 2.1580 0.7624 0 9
-10.4196 -3.5066 2.1627 0.7607 0 9
-10.0888 -3.4972 2.1005 0.1720 0 9
-10.0455 -3.5844 2.0982 0.4551 0 9
-10.0787 -3.6994 2.1120 0.5992 0 9
-10.0033 -3.7748 2.1033 0.6017 0 9
-10.3518 -4.0137 2.1841 0.6296 0 9
-10.7801 -4.2924 2.2826 0.5417 0 9
-10.6757 -4.3632 2.2687 0.5564 0 9
-10.6386 -4.4608 2.2693 0.7128 0 9
-10.6539 -4.5810 2.2814 0.7013 0 9
-10.7556 -4.7405 2.3122 0.8207 0 9
-10.6198 -4.7959 2.2923 0.8336 0 9
-10.4957 -4.8547 2.2749 0.9366 0 9
-10.6769 -5.0563 2.3240 0.0629 0 9
-10.5744 -5.1254 2.3117 0.6094 0 9
-10.4654 -5.1901 2.2980 0.5416 0 9
-10.4480 -5.2998 2.3046 0.9045 0 9
-10.3120 -5.3487 2.2852 0.3918 0 9
-10.2787 -5.4500 2.2887 0.4276 0 9
-10.4203 -5.6465 2.3315 0.9144 0 9
-10.3846 -5.7494 2.3350 0.9130 0 9
-10.4317 -5.8994 2.3575 0.6544 0 9
-10.2997 -5.9484 2.3398 0.3889 0 9
-10.2754 -6.0590 2.3466 0.5860 0 9
-11.7566 -7.0766 2.6994 0.6328 0 9
-11.7112 -7.1945 2.7038 0.3314 0 9
-10.3057 -6.4603 2.3927 0.9252 0 9
-10.3937 -6.6472 2.4270 0.1456 0 9
-11.6106 -7.5744 2.7271 0.5683 0 9
-11.5767 -7.7025 2.7354 0.5666 0 9
-11.3921 -7.7293 2.7082 0.5150 0 9
-11.2464 -7.7801 2.6902 0.5226 0 9
-11.1251 -7.8459 2.6780 0.7383 0 9
-11.0447 -7.9398 2.6758 0.2449 0 9
-11.1607 -8.1775 2.7218 0.6630 0 9
-10.9885 -8.2052 2.6978 0.5898 0 9
-10.8425 -8.2501 2.6802 0.5944 0 9
-10.7222 -8.3128 2.6689 0.7473 0 9
-10.6149 -8.3845 2.6610 0.7495 0 9
-10.5081 -8.4557 2.6533 0.7521 0 9
-10.5726 -8.8276 2.7095 0.4442 0 9
-10.5965 -9.0115 2.7364 0.4387 0 9
-6.5926 -6.1415 1.7724 0.7442 0 9
-6.5248 -6.1896 1.7692 0.7455 0 9
-6.0235 -6.3699 1.7246 0.5031 0 9
-5.9496 -6.4070 1.7200 0.5045 0 9
-5.8760 -6.4436 1.7155 0.5058 0 9
-5.8025 -6.4799 1.7111 0.5071 0 9
-4.4293 -7.5389 1.7201 0.2173 0 9
-4.2798 -7.4377 1.6881 0.7003 0 9
-4.1957 -7.4467 1.6814 0.9374 0 9
-4.1300 -7.4876 1.6822 0.8130 0 9
-4.0869 -7.5708 1.6925 0.8080 0 9
-2.5538 -6.9919 1.4643 0.8221 0 9
-2.4770 -6.9770 1.4564 0.8923 0 9
-2.4037 -6.9699 1.4503 0.8960 0 9
-2.2600 -6.9596 1.4395 0.8824 0 9
-2.1906 -6.9597 1.4353 0.9504 0 9
-2.1324 -6.9950 1.4386 0.2638 0 9
-2.8624 -10.0376 2.0533 0.7719 0 9
-5.4174 -27.2363 5.4628 0.5105 0 9
-5.1314 -27.0770 5.4214 0.2457 0 9
-4.6285 -25.6924 5.1355 0.3752 0 9
-4.7630 -27.8825 5.5645 0.4830 0 9
-4.1907 -25.9452 5.1700 0.9287 0 9
-3.9660 -26.0492 5.1834 0.8636 0 9
-2.8819 -20.1527 4.0047 0.0841 0 9
-2.6608 -19.8896 3.9475 0.7510 0 9
-3.1254 -25.0877 4.9734 0.6494 0 9
-2.3038 -19.9641 3.9534 0.2995 0 9
-2.6843 -25.2674 4.9985 0.7977 0 9
-2.0276 -20.8834 4.1275 0.8147 0 9
-1.6409 -18.6540 3.6838 0.7422 0 9
-1.4512 -18.4042 3.6317 0.8005 0 9
-1.2786 -18.3314 3.6149 0.2019 0 9
-1.1033 -18.1870 3.5843 0.5083 0 9
-0.9150 -17.7383 3.4941 0.6596 0 9
-0.7530 -17.7125 3.4875 0.9255 0 9
-0.5822 -17.4041 3.4256 0.2358 0 9
-0.4183 -17.1474 3.3742 0.6540 0 9
-0.1175 -7.6594 1.5069 0.9676 0 5
-0.1074 -17.0853 3.3610 0.6933 0 9
0.0455 -16.4822 3.2424 0.6196 0 9
0.1933 -16.3598 3.2185 0.6241 0 9
0.3389 -16.2415 3.1957 0.6362 0 9
0.4858 -16.2370 3.1955 0.3145 0 9
0.6305 -16.1736 3.1841 0.8229 0 9
0.9361 -19.4804 3.8366 0.2629 0 9
0.9268 -16.2230 3.1966 0.8401 0 9
1.1280 -17.0360 3.3586 0.5341 0 9
1.2683 -16.8417 3.3225 0.5702 0 9
1.4123 -16.7311 3.3030 0.8296 0 9
1.5603 -16.6813 3.2958 0.8563 0 9
1.7061 -16.6170 3.2861 0.8593 0 9
1.8553 -16.5903 3.2840 0.8624 0 9
1.9976 -16.5089 3.2713 0.8352 0 9
1.9384 -14.8887 2.9536 0.6290 0 9
2.0685 -14.8380 2.9471 0.6311 0 9
2.4665 -16.5932 3.3001 0.5556 0 9
2.5846 -16.3677 3.2597 0.6852 0 9
2.5912 -15.4976 3.0910 0.6286 0 9
2.7151 -15.3815 3.0726 0.9791 0 9
2.7967 -15.0470 3.0107 0.7702 0 9
2.9373 -15.0444 3.0154 0.7597 0 9
3.0660 -14.9815 3.0082 0.7668 0 9
3.2340 -15.1047 3.0387 0.6808 0 9
3.3797 -15.1160 3.0470 0.5911 0 9
3.5027 -15.0263 3.0352 0.2109 0 9
3.7398 -15.4111 3.1196 0.8322 0 9
3.7575 -14.8945 3.0218 0.8289 0 9
3.8968 -14.8776 3.0254 0.8249 0 9
4.0673 -14.9743 3.0525 0.4320 0 9
4.1361 -14.7006 3.0042 0.7680 0 9
4.2717 -14.6716 3.0060 0.6240 0 9
4.6126 -15.3244 3.1482 0.9549 0 9
5.4320 -17.4724 3.5994 0.6076 0 9
6.4588 -20.1307 4.1589 0.2260 0 9
6.6341 -20.0513 4.1547 0.7648 0 9
6.8280 -20.0278 4.1625 0.7336 0 9
7.1182 -20.2762 4.2274 0.2833 0 9
6.7022 -18.5523 3.8804 0.3387 0 9
12.1312 11.4810 3.2857 0.1127 0 9
11.9488 11.5152 3.2644 0.4211 0 9
11.7363 11.5170 3.2347 0.8009 0 9
11.5179 11.5092 3.2031 0.4980 0 9
11.4420 11.6422 3.2111 0.5086 0 9
12.6862 13.1440 3.5936 0.5804 0 9
10.0603 10.6138 2.8768 0.2520 0 9
10.2512 11.0132 2.9598 0.4711 0 9
10.0799 11.0276 2.9390 0.5112 0 9
9.8715 10.9979 2.9072 0.1108 0 9
9.6489 10.9477 2.8707 0.3221 0 9
9.5909 11.0824 2.8831 0.3349 0 9
10.2165 12.0235 3.1038 0.4533 0 9
9.9415 11.9168 3.0529 0.6382 0 9
8.9994 10.9882 2.7940 0.2590 0 9
8.7487 10.8815 2.7467 0.2126 0 9
8.6535 10.9648 2.7478 0.2125 0 9
8.5576 11.0474 2.7490 0.2124 0 9
8.4212 11.0769 2.7372 0.6094 0 9
8.0389 10.7751 2.6446 0.7928 0 9
7.9228 10.8225 2.6385 0.7920 0 9
7.7559 10.7982 2.6154 0.3210 0 9
7.8002 11.0700 2.6640 0.7001 0 9
8.0071 11.5850 2.7703 0.6748 0 9
7.8162 11.5304 2.7403 0.5447 0 9
7.3489 11.0552 2.6114 0.3064 0 9
7.1308 10.9405 2.5690 0.8332 0 9
7.0120 10.9741 2.5619 0.8355 0 9
6.8936 11.0071 2.5549 0.8378 0 9
7.0963 11.5620 2.6687 0.8834 0 9
7.1053 11.8153 2.7122 0.6590 0 9
7.2661 12.3340 2.8160 0.6500 0 9
6.9898 12.1144 2.7513 0.4556 0 9
6.8229 12.0764 2.7286 0.4595 0 9
6.6832 12.0832 2.7163 0.4877 0 9
6.6233 12.2349 2.7369 0.4839 0 9
6.6862 12.6227 2.8100 0.7468 0 9
6.1587 11.8856 2.6334 0.4432 0 9
6.1660 12.1681 2.6835 0.2167 0 9
5.9590 12.0283 2.6406 0.6220 0 9
5.8404 12.0622 2.6364 0.6177 0 9
5.7267 12.1056 2.6344 0.6651 0 9
5.6265 12.1775 2.6389 0.6640 0 9
5.9867 13.2712 2.8640 0.4135 0 9
6.2632 14.2263 3.0578 0.8726 0 9
5.9050 13.7488 2.9435 0.6336 0 9
5.7934 13.8329 2.9502 0.6321 0 9
2.6527 6.4982 1.3807 0.8432 0 5
2.6030 6.5453 1.3857 0.4929 0 5
6.5327 16.8694 3.5587 0.3559 0 9
9.3576 24.8290 5.2197 0.5492 0 9
8.6151 23.5013 4.9240 0.8511 0 9
11.9912 12.0385 2.9468 0.9099 0 9
11.8196 12.0830 2.9314 0.0859 0 9
11.5568 12.0302 2.8931 0.4666 0 9
11.6772 12.3779 2.9511 0.2640 0 9
12.3398 13.3196 3.1489 0.2389 0 9
12.2507 13.7132 3.1890 0.6310 0 9
12.0891 13.7814 3.1793 0.6329 0 9
11.1010 12.8884 2.9500 0.8541 0 9
10.6769 12.6254 2.8675 0.3561 0 9
10.4472 12.5829 2.8363 0.6234 0 9
10.1110 12.4047 2.7754 0.5780 0 9
12.2917 15.3619 3.4120 0.5852 0 9
9.3054 11.8480 2.6127 0.3309 0 9
8.7396 11.3374 2.4826 0.5348 0 9
8.7900 11.6187 2.5267 0.6769 0 9
9.5563 12.8720 2.7803 0.7205 0 9
9.1339 12.5386 2.6903 0.3944 0 9
8.1820 11.4482 2.4404 0.1248 0 9
7.8881 11.2508 2.3830 0.6646 0 9
7.7925 11.3312 2.3850 0.6640 0 9
7.6652 11.3650 2.3774 0.7393 0 9
7.5291 11.3841 2.3670 0.7432 0 9
7.4591 11.5033 2.3777 0.6714 0 9
7.1442 11.2392 2.3096 0.6619 0 9
7.0264 11.2780 2.3044 0.6634 0 9
6.9100 11.3181 2.2998 0.6646 0 9
6.8562 11.4619 2.3163 0.5603 0 9
6.7356 11.4952 2.3106 0.5571 0 9
6.6656 11.6156 2.3226 0.5000 0 9
6.5181 11.6004 2.3076 0.3263 0 9
6.4325 11.6947 2.3147 0.4570 0 9
6.8951 12.8088 2.5228 0.8169 0 9
6.7730 12.8595 2.5206 0.8917 0 9
6.6751 12.9566 2.5277 0.3513 0 9
6.7027 13.3046 2.5836 0.7395 0 9
6.6399 13.4823 2.6064 0.1518 0 9
6.5392 13.5867 2.6150 0.3082 0 9
6.6299 14.1003 2.7022 0.6777 0 9
6.5064 14.1692 2.7040 0.8515 0 9
6.4045 14.2868 2.7153 0.8447 0 9
6.4886 14.8328 2.8078 0.7920 0 9
6.3872 14.9684 2.8224 0.7879 0 9
7.1649 17.2210 3.2347 0.3613 0 9
2.6349 6.4982 1.2161 0.9538 0 5
6.7979 17.2108 3.2092 0.7348 0 9
6.6348 17.2532 3.2058 0.7719 0 9
6.4876 17.3372 3.2103 0.7708 0 9
6.4616 17.7557 3.2769 0.3276 0 9
8.7816 24.8278 4.5672 0.9630 0 9
1.0574 7.4567 1.3061 0.6997 0 9
0.9814 7.4021 1.2950 0.7057 0 9
0.9072 7.3526 1.2848 0.9578 0 9
0.8398 7.3534 1.2836 0.9587 0 9
0.7725 7.3533 1.2823 0.9495 0 9
0.7050 7.3507 1.2807 0.9507 0 9
0.6436 7.4163 1.2910 0.7119 0 9
0.5812 7.4828 1.3016 0.7463 0 9
-9.8176 14.5933 3.0503 0.7314 0 1
-9.1660 13.3621 2.8102 0.7374 0 1
-9.2131 13.1735 2.7879 0.7432 0 1
-9.2594 12.9878 2.7662 0.7491 0 1
-9.3062 12.8066 2.7455 0.1709 0 1
-9.5092 12.8400 2.7710 0.6264 0 1
-9.7323 12.8956 2.8019 0.6195 0 1
-9.0547 9.7968 2.3136 0.6203 0 9
-9.0521 9.6179 2.2906 0.9765 0 9
-9.1367 9.5333 2.2900 0.9767 0 9
-9.2416 9.4698 2.2948 0.8254 0 9
-9.4342 9.4937 2.3212 0.4376 0 9
-12.1869 10.2241 2.7589 0.9831 0 5
-18.2198 15.0065 4.0936 0.7912 0 9
-18.5244 14.9781 4.1314 0.9331 0 9
-18.2064 14.4504 4.0311 0.6407 0 9
-18.2514 14.2188 4.0124 0.6437 0 9
-18.5689 14.1980 4.0538 0.6285 0 9
-21.3151 15.9942 4.6215 0.4133 0 9
-18.3653 13.5227 3.9553 0.8434 0 9
-18.4766 13.3485 3.9531 0.8124 0 9
-18.5888 13.1752 3.9514 0.8167 0 9
-18.7546 13.0393 3.9614 0.8487 0 9
-21.1387 14.4149 4.4372 0.7103 0 9
-18.9235 12.6549 3.9480 0.6721 0 9
-19.0951 12.5210 3.9600 0.7753 0 9
-19.1875 12.3348 3.9559 0.7559 0 9
-20.1893 12.7221 4.1385 0.5568 0 9
-19.9069 12.2939 4.0577 0.4745 0 9
-19.7594 11.9571 4.0054 0.4336 0 9
-20.1001 11.9161 4.0524 0.8373 0 9
-20.3173 11.7977 4.0745 0.5199 0 9
-21.3042 12.1143 4.2503 0.6598 0 9
-20.6060 11.4717 4.0901 0.5536 0 9
-20.6606 11.2584 4.0805 0.5549 0 9
-20.7285 11.0533 4.0740 0.5008 0 9
-20.2869 10.5831 3.9682 0.3150 0 9
-20.7731 10.5987 4.0444 0.6574 0 9
-20.8649 10.4086 4.0438 0.6575 0 9
-22.3046 10.8759 4.3035 0.5771 0 9
-22.2931 10.6216 4.2826 0.5799 0 9
-21.3769 9.9488 4.0891 0.7300 0 9
-21.4386 9.7424 4.0839 0.7344 0 9
-21.4853 9.5300 4.0762 0.5806 0 9
-21.6180 9.3556 4.0851 0.5692 0 9
-21.8510 9.2226 4.1132 0.5268 0 9
-23.5644 9.6954 4.4191 0.7221 0 9
-25.6948 10.3011 4.8009 0.1857 0 9
-25.7680 10.0607 4.7974 0.6750 0 9
-28.5477 10.8493 5.2964 0.6994 0 9
-32.0415 11.8463 5.9244 0.9973 0 9
-32.5496 11.7004 5.9986 0.9992 0 9
-32.8703 11.4808 6.0383 0.6493 0 9
-34.3808 10.9707 6.2587 0.5208 0 9
-34.6910 10.3817 6.2799 0.4237 0 9
-36.3088 6.3496 6.3925 0.6046 0 9
-36.5876 6.0577 6.4316 0.8704 0 9
-33.4175 5.2225 5.8658 0.6567 0 9
-33.4195 4.9134 5.8581 0.6576 0 9
-33.6787 4.6406 5.8960 0.1568 0 9
-25.7459 3.3104 4.5018 0.8224 0 9
-33.4913 3.9985 5.8495 0.4238 0 9
-25.5902 2.8206 4.4649 0.6660 0 9
-25.7520 2.6027 4.4888 0.3461 0 9
-25.8223 2.3740 4.4971 0.7061 0 9
-25.8115 2.1376 4.4917 0.7183 0 9
-25.8991 1.9090 4.5038 0.5288 0 9
-25.9317 1.6756 4.5066 0.7920 0 9
-26.4315 1.4678 4.5910 0.8368 0 9
-25.1871 1.1702 4.3728 0.6704 0 9
-25.2112 0.9427 4.3753 0.7744 0 9
-25.3800 0.7191 4.4033 0.6416 0 9
-25.3061 0.4879 4.3895 0.7808 0 9
-25.3095 0.2588 4.3896 0.8903 0 9
-25.0907 0.0295 4.3514 0.7316 0 9
-24.9211 -0.1963 4.3221 0.6131 0 9
-24.7501 -0.4189 4.2929 0.8553 0 9
-24.2349 -0.6297 4.2044 0.7111 0 9
-24.0981 -0.8444 4.1818 0.2281 0 9
-24.7699 -1.0925 4.2999 0.9660 0 9
-29.1419 -1.5497 5.0611 0.5518 0 9
-24.4481 -1.5220 4.2481 0.7944 0 9
-24.1248 -1.7212 4.1945 0.8562 0 9
-23.9388 -1.9259 4.1650 0.6644 0 9
-23.8787 -2.1387 4.1578 0.9242 0 9
-23.8803 -2.3569 4.1616 0.9407 0 9
-24.5535 -2.6479 4.2829 0.3059 0 9
-23.8363 -2.7890 4.1620 0.9371 0 9
-23.9357 -3.0205 4.1840 0.7648 0 9
-21.9537 -2.9724 3.8421 0.8177 0 9
-22.0860 -3.1941 3.8701 0.4171 0 9
-13.7448 -2.1150 2.4118 0.5347 0 9
-22.9638 -3.7466 4.0352 0.6491 0 9
-23.6454 -4.0778 4.1613 0.5023 0 9
-24.7306 -4.4958 4.3592 0.8747 0 9
-17.5409 -3.3531 3.0971 0.9841 0 5
-15.5783 -3.1243 2.7555 0.2913 0 9
-11.7338 -2.4639 2.0793 0.4955 0 9
-12.1631 -2.6692 2.1596 0.3841 0 9
-12.1778 -2.7882 2.1666 0.7678 0 9
-11.3740 -2.7127 2.0279 0.4281 0 9
-11.1855 -2.7750 1.9987 0.4321 0 9
-12.2584 -3.1592 2.1954 0.3055 0 9
-12.3206 -3.2944 2.2118 0.7066 0 9
-11.6181 -3.2195 2.0908 0.5311 0 9
-11.8143 -3.3893 2.1316 0.5663 0 9
-11.9932 -3.5584 2.1696 0.6696 0 9
-11.4726 -3.5173 2.0810 0.6844 0 9
-11.4318 -3.6183 2.0795 0.5572 0 9
-11.4141 -3.7266 2.0823 0.5598 0 9
-11.3976 -3.8357 2.0856 0.5590 0 9
-11.5707 -4.0109 2.1238 0.8812 0 9
-11.4338 -4.0798 2.1054 0.6676 0 9
-11.4166 -4.1905 2.1091 0.6952 0 9
-11.4110 -4.3060 2.1152 0.8683 0 9
-11.4207 -4.4281 2.1243 0.4720 0 9
-10.9958 -4.3783 2.0526 0.7478 0 9
-10.8950 -4.4528 2.0412 0.7520 0 9
-10.8766 -4.5605 2.0454 0.6526 0 9
-13.5485 -5.8256 2.5577 0.8992 0 9
-10.9104 -4.8087 2.0678 0.6221 0 9
-10.8781 -4.9126 2.0700 0.7730 0 9
-10.8308 -5.0097 2.0695 0.4656 0 9
-10.8116 -5.1201 2.0746 0.4645 0 9
-11.0229 -5.3428 2.1244 0.6281 0 9
-10.9542 -5.4325 2.1205 0.8179 0 9
-10.9005 -5.5293 2.1197 0.8182 0 9
-10.7150 -5.5577 2.0934 0.6394 0 9
-10.7280 -5.6883 2.1059 0.3236 0 9
-10.7454 -5.8227 2.1195 0.5070 0 9
-10.7913 -5.9745 2.1392 0.5024 0 9
-10.6696 -6.0340 2.1258 0.7385 0 9
-10.6117 -6.1286 2.1252 0.9336 0 9
-10.6914 -6.3043 2.1525 0.7288 0 9
-10.6328 -6.4002 2.1523 0.6982 0 9
-10.6707 -6.5553 2.1719 0.7023 0 9
-10.4670 -6.5614 2.1424 0.8165 0 9
-10.9484 -7.0019 2.2538 0.5289 0 9
-11.2012 -7.3073 2.3194 0.5902 0 9
-12.2713 -12.0703 2.9851 0.9708 0 1
-12.1036 -12.1228 2.9709 0.8450 0 1
-11.9291 -12.1663 2.9550 0.8495 0 1
-11.7565 -12.2094 2.9395 0.8540 0 1
-11.5857 -12.2520 2.9244 0.8584 0 1
-11.4038 -12.2804 2.9064 0.8627 0 1
-11.4801 -12.5891 2.9548 0.4681 0 1
-4.4114 -7.5083 1.5103 0.2098 0 9
-4.2727 -7.4254 1.4857 0.7053 0 9
-4.1921 -7.4403 1.4811 0.9421 0 9
-4.1279 -7.4839 1.4822 0.8209 0 9
-4.0848 -7.5668 1.4913 0.8119 0 9
-5.4056 -28.5240 5.0348 0.7206 0 9
-5.1307 -28.4795 5.0186 0.7055 0 9
-4.6935 -27.4759 4.8341 0.7174 0 9
-4.0998 -25.3819 4.4589 0.3021 0 9
-3.8422 -25.2359 4.4270 0.7699 0 9
-3.7691 -26.3566 4.6174 0.7732 0 9
-3.5866 -26.8098 4.6909 0.9717 0 9
-3.3627 -26.9927 4.7174 0.8580 0 9
-3.2171 -27.8788 4.8670 0.3198 0 9
-2.0509 -19.3055 3.3669 0.2369 0 9
-2.6030 -26.8097 4.6714 0.7533 0 9
-2.3135 -26.3010 4.5789 0.7612 0 9
-2.0174 -25.5848 4.4508 0.6292 0 9
-1.7803 -25.5235 4.4372 0.3868 0 9
-1.5080 -24.8596 4.3192 0.6569 0 9
-1.2289 -23.8228 4.1370 0.2305 0 9
-1.0616 -24.9707 4.3345 0.9179 0 9
-0.6786 -20.2874 3.5203 0.5638 0 9
-0.4496 -18.4340 3.1979 0.4868 0 9
-0.1175 -7.6590 1.3284 0.9717 0 5
-0.1140 -18.1316 3.1445 0.3715 0 9
0.0475 -17.2060 2.9840 0.8821 0 9
0.2012 -17.0314 2.9539 0.4233 0 9
0.3497 -16.7572 2.9068 0.6465 0 9
0.4984 -16.6574 2.8901 0.6714 0 9
0.6506 -16.6885 2.8964 0.3258 0 9
0.8602 -17.9029 3.1084 0.7238 0 9
1.0242 -17.9295 3.1145 0.7120 0 9
1.2690 -19.1660 3.3312 0.9245 0 9
1.4845 -19.7122 3.4283 0.3154 0 9
1.4546 -17.2312 2.9990 0.4942 0 9
1.6035 -17.1426 2.9859 0.8606 0 9
1.7499 -17.0432 2.9713 0.8449 0 9
1.8960 -16.9545 2.9587 0.8410 0 9
2.0437 -16.8903 2.9506 0.9301 0 9
2.0722 -15.9163 2.7836 0.6356 0 9
2.1857 -15.6782 2.7453 0.3799 0 9
2.2901 -15.4061 2.7012 0.5526 0 9
2.4150 -15.2936 2.6852 0.1152 0 9
2.7489 -16.4407 2.8908 0.6134 0 9
2.8848 -16.3433 2.8782 0.8445 0 9
2.9377 -15.8059 2.7881 0.4764 0 9
3.1361 -16.0628 2.8383 0.7382 0 9
3.1971 -15.6217 2.7654 0.7642 0 9
3.3610 -15.6982 2.7842 0.8793 0 9
3.4898 -15.6082 2.7737 0.8672 0 9
3.6723 -15.7536 2.8053 0.7031 0 9
3.7257 -15.3528 2.7399 0.6824 0 9
3.8846 -15.3984 2.7541 0.6788 0 9
4.0779 -15.5690 2.7911 0.7271 0 9
4.2685 -15.7152 2.8242 0.7893 0 9
4.4139 -15.6876 2.8263 0.8830 0 9
4.5920 -15.7720 2.8488 0.9993 0 9
4.6408 -15.4182 2.7924 0.9238 0 9
4.7196 -15.1810 2.7571 0.7743 0 9
4.8332 -15.0639 2.7436 0.8807 0 9
4.9942 -15.0946 2.7574 0.7432 0 9
5.5325 -16.2278 2.9734 0.3543 0 9
5.3457 -15.2273 2.7988 0.8499 0 9
5.4638 -15.1244 2.7889 0.6794 0 9
5.9240 -15.9451 2.9500 0.8322 0 9
21.1537 -19.1381 4.9472 0.7949 0 5
21.3821 -18.9956 4.9602 0.6175 0 5
14.0352 14.0245 3.4410 0.5970 0 9
12.1398 12.3522 3.0036 0.6323 0 9
11.5592 11.9763 2.8866 0.4575 0 9
11.5895 12.2272 2.9217 0.2238 0 9
12.1309 13.7637 3.1818 0.6324 0 9
11.1449 12.8780 2.9536 0.8530 0 9
10.7596 12.6626 2.8817 0.3401 0 9
10.5013 12.5878 2.8430 0.6219 0 9
10.1717 12.4195 2.7841 0.5288 0 9
9.9515 12.3774 2.7543 0.4495 0 9
9.4375 11.9582 2.6419 0.2514 0 9
9.4874 12.2477 2.6868 0.4174 0 9
8.8326 11.6181 2.5310 0.6757 0 9
9.5933 12.8586 2.7823 0.7200 0 9
9.1972 12.5633 2.7002 0.4421 0 9
8.9619 12.4772 2.6642 0.3982 0 9
7.9009 11.2129 2.3789 0.7022 0 9
7.8173 11.3103 2.3844 0.6642 0 9
7.7007 11.3600 2.3801 0.7385 0 9
7.5643 11.3792 2.3697 0.7417 0 9
7.4999 11.5068 2.3820 0.6701 0 9
7.1749 11.2290 2.3110 0.6615 0 9
7.0569 11.2679 2.3058 0.6630 0 9
6.9402 11.3077 2.3010 0.6642 0 9
6.8984 11.4711 2.3214 0.4901 0 9
6.7550 11.4665 2.3080 0.5578 0 9
6.6834 11.5833 2.3193 0.5007 0 9
6.5451 11.5847 2.3076 0.3263 0 9
6.4510 11.6634 2.3115 0.4577 0 9
6.9277 12.7972 2.5237 0.8166 0 9
6.8033 12.8437 2.5206 0.8158 0 9
6.6914 12.9137 2.5224 0.8911 0 9
6.7329 13.2869 2.5832 0.7396 0 9
6.6361 13.3950 2.5925 0.3565 0 9
6.5564 13.5409 2.6091 0.3089 0 9
6.5467 13.8389 2.6550 0.1559 0 9
6.5327 14.1389 2.7011 0.8524 0 9
6.4308 14.2558 2.7122 0.8489 0 9
6.3028 14.3163 2.7128 0.6424 0 9
6.4136 14.9331 2.8185 0.7889 0 9
7.1783 17.1396 3.2226 0.3626 0 9
2.6525 6.4978 1.2172 0.8468 0 5
2.6027 6.5446 1.2215 0.4950 0 5
6.6758 17.2388 3.2060 0.7355 0 9
6.5259 17.3154 3.2091 0.7711 0 9
6.4866 17.6950 3.2685 0.3408 0 9
11.6781 12.6055 2.5829 0.6627 0 9
11.7569 13.1605 2.6526 0.5286 0 9
11.2794 12.8584 2.5710 0.2489 0 9
11.0909 12.8767 2.5545 0.7224 0 9
10.9436 12.9407 2.5475 0.7244 0 9
10.9686 13.2108 2.5810 0.6126 0 9
10.7458 13.1835 2.5566 0.5929 0 9
10.5501 13.1853 2.5383 0.5921 0 9
11.7002 14.8970 2.8473 0.3093 0 9
11.3520 14.7261 2.7949 0.1393 0 9
9.2015 12.1626 2.2925 0.5295 0 9
9.0212 12.1513 2.2748 0.5336 0 9
8.6956 11.9368 2.2199 0.6322 0 9
8.6137 12.0522 2.2267 0.6507 0 9
8.4427 12.0417 2.2106 0.6554 0 9
8.3450 12.1346 2.2137 0.2087 0 9
8.0674 11.9613 2.1687 0.5013 0 9
7.7679 11.7452 2.1167 0.8336 0 9
7.5581 11.6559 2.0882 0.4034 0 9
7.5109 11.8161 2.1046 0.8374 0 9
7.3993 11.8764 2.1033 0.6567 0 9
7.2970 11.9519 2.1049 0.6397 0 9
7.1937 12.0261 2.1064 0.6392 0 9
7.6649 13.0812 2.2790 0.6336 0 9
7.5841 13.2161 2.2904 0.6278 0 9
8.0088 14.2535 2.4575 0.7044 0 9
7.9029 14.3679 2.4649 0.7023 0 9
7.4059 13.7577 2.3486 0.4850 0 9
7.2787 13.8197 2.3478 0.4464 0 9
7.1649 13.9075 2.3516 0.4457 0 9
7.0617 14.0172 2.3593 0.3607 0 9
6.9601 14.1325 2.3680 0.6406 0 9
6.8832 14.3014 2.3857 0.6559 0 9
6.8110 14.4853 2.4060 0.5597 0 9
6.8007 14.8101 2.4497 0.6050 0 9
6.6219 14.7719 2.4333 0.8087 0 9
6.5010 14.8610 2.4382 0.5426 0 9
9.9730 23.3717 3.8196 0.4872 0 9
9.8079 23.5734 3.8379 0.9865 0 9
2.6347 6.4979 1.0540 0.9574 0 5
9.8706 24.9901 4.0388 0.2402 0 9
4.1242 10.7248 1.7272 0.8852 0 5
3.8229 10.8083 1.7233 0.5195 0 5
1.0541 7.4336 1.1286 0.7044 0 9
0.9780 7.3761 1.1184 0.6793 0 9
0.9051 7.3355 1.1110 0.9636 0 9
0.8378 7.3355 1.1098 0.9543 0 9
0.7703 7.3330 1.1083 0.9556 0 9
0.7034 7.3337 1.1074 0.7219 0 9
0.6423 7.4012 1.1167 0.7567 0 9
0.5796 7.4617 1.1250 0.7511 0 9
0.5308 7.7412 1.1663 0.1180 0 9
-0.5861 11.9050 1.7917 0.7978 0 5
-0.9170 11.9889 1.8074 0.5042 0 5
-1.1409 12.0447 1.8186 0.7891 0 5
-8.3520 16.6271 2.7969 0.6445 0 1
-8.4139 16.3789 2.7678 0.6512 0 1
-8.4926 16.1704 2.7455 0.1486 0 1
-8.6007 16.0223 2.7334 0.7323 0 1
-8.9456 14.3961 2.5477 0.6887 0 1
-9.7653 14.8030 2.6657 0.7281 0 1
-9.8176 14.5933 2.6438 0.7341 0 1
-9.9342 14.4819 2.6398 0.6498 0 1
-10.7023 15.0117 2.7712 0.7518 0 1
-9.3195 12.8249 2.3830 0.7576 0 1
-10.8543 14.6562 2.7414 0.6257 0 1
-9.0636 9.8065 2.0072 0.6302 0 9
-9.0572 9.6233 1.9864 0.9941 0 9
-9.1422 9.5391 1.9860 0.9943 0 9
-9.2454 9.4737 1.9898 0.8035 0 9
-9.4316 9.4911 2.0113 0.4469 0 9
-19.4226 16.5963 3.8402 0.6058 0 9
-12.1863 10.2236 2.3911 0.9867 0 5
-18.9041 15.5701 3.6813 0.5817 0 9
-19.9175 16.1045 3.8501 0.7702 0 9
-19.0462 15.1170 3.6551 0.3014 0 9
-19.2603 15.0049 3.6700 0.2634 0 9
-18.9977 14.5259 3.5947 0.4757 0 9
-19.1530 14.3718 3.5993 0.5227 0 9
-19.2900 14.2036 3.6008 0.4255 0 9
-19.0908 13.7923 3.5402 0.1377 0 9
-19.1885 13.6003 3.5353 0.8531 0 9
-19.2772 13.4026 3.5292 0.5594 0 9
-19.2354 13.1169 3.4996 0.6025 0 9
-19.5593 13.0801 3.5369 0.1463 0 9
-19.6298 12.8717 3.5284 0.8126 0 9
-19.2102 12.3494 3.4328 0.4832 0 9
-19.2944 12.1581 3.4280 0.9216 0 9
-19.5099 12.0487 3.4468 0.9927 0 9
-19.9652 12.0816 3.5078 0.8871 0 9
-19.8588 11.7730 3.4702 0.9431 0 9
-22.3548 12.9808 3.8857 0.7316 0 9
-20.1889 11.4800 3.4910 0.6642 0 9
-22.0153 12.2563 3.7875 0.5585 0 9
-28.5505 15.5577 4.8874 0.9262 0 9
-24.4321 13.0282 4.1620 0.6745 0 9
-19.8004 10.3293 3.3569 0.6382 0 9
-19.8301 10.1176 3.3463 0.9469 0 9
-20.0084 9.9814 3.3610 0.4615 0 9
-20.5111 10.0014 3.4301 0.9874 0 9
-20.1241 9.5882 3.3507 0.9406 0 9
-20.2402 9.4197 3.3557 0.6051 0 9
-21.1277 9.6011 3.4883 0.8511 0 9
-20.8679 9.2561 3.4315 0.8674 0 9
-20.8740 9.0336 3.4189 0.8634 0 9
-22.3238 9.4221 3.6422 0.4220 0 9
-23.1862 9.5398 3.7687 0.5333 0 9
-21.4536 8.6008 3.4743 0.6676 0 9
-30.5632 11.9329 4.9318 0.3258 0 9
-23.3335 8.8677 3.7521 0.6734 0 9
-22.9980 8.5028 3.6856 0.7919 0 9
-24.3057 8.7370 3.8824 0.4315 0 9
-23.7960 8.3114 3.7888 0.8682 0 9
-32.1216 10.8942 5.0985 0.5450 0 9
-23.9850 7.8933 3.7955 0.4267 0 9
-24.8851 7.6933 3.9153 0.3171 0 9
-33.4553 10.0119 5.2492 0.4052 0 9
-37.3728 5.4947 5.6781 0.7193 0 9
-36.0815 4.9716 5.4748 0.3701 0 9
-33.3280 4.2853 5.0509 0.3651 0 9
-26.4057 3.1526 3.9974 0.6669 0 9
-25.7638 2.8397 3.8961 0.4153 0 9
-25.8142 2.6090 3.9000 0.2996 0 9
-26.1793 2.4068 3.9517 0.1330 0 9
-25.2621 2.0921 3.8103 0.5959 0 9
-25.3846 1.8711 3.8260 0.6140 0 9
-24.5268 1.5848 3.6944 0.5730 0 9
-24.5885 1.3655 3.7017 0.8461 0 9
-24.0067 1.1153 3.6124 0.5861 0 9
-24.7106 0.9240 3.7170 0.5449 0 9
-23.4717 0.6650 3.5295 0.6263 0 9
-24.3265 0.4690 3.6573 0.7366 0 9
-23.6801 0.2421 3.5596 0.5850 0 9
-24.0478 0.0283 3.6147 0.5830 0 9
-25.3587 -0.1997 3.8119 0.7183 0 9
-33.2095 -0.5622 4.9926 0.7915 0 9
-24.3843 -0.6335 3.6665 0.4437 0 9
-24.5070 -0.8587 3.6860 0.6955 0 9
-25.0903 -1.1066 3.7751 0.7954 0 9
-23.2129 -1.2344 3.4942 0.3066 0 9
-22.7827 -1.4184 3.4312 0.8097 0 9
-22.8489 -1.6302 3.4433 0.8743 0 9
-23.1829 -1.8650 3.4960 0.7769 0 9
-22.8802 -2.0493 3.4530 0.8074 0 9
-22.7552 -2.2458 3.4370 0.8503 0 9
-22.7413 -2.4525 3.4382 0.8499 0 9
-22.4949 -2.6321 3.4044 0.6945 0 9
-22.6888 -2.8631 3.4375 0.0869 0 9
-23.2096 -3.1425 3.5206 0.6488 0 9
-24.7599 -3.5809 3.7605 0.6756 0 9
-23.6925 -3.6457 3.6032 0.8793 0 9
-24.2866 -3.9624 3.6989 0.5522 0 9
-23.4788 -4.0491 3.5813 0.8008 0 9
-22.2103 -4.0376 3.3932 0.8337 0 9
-17.5400 -3.3529 2.6842 0.9877 0 5
-23.4258 -4.6981 3.5914 0.8602 0 9
-23.5467 -4.9445 3.6166 0.5057 0 9
-23.8526 -5.2345 3.6707 0.2423 0 9
-23.8467 -5.4599 3.6773 0.5615 0 9
-15.2745 -3.6430 2.3604 0.6403 0 9
-12.0647 -2.9931 1.8685 0.9834 0 9
-11.8727 -3.0598 1.8430 0.4986 0 9
-11.3607 -3.0378 1.7677 0.3806 0 9
-11.2080 -3.1059 1.7482 0.3926 0 9
-11.2743 -3.2344 1.7631 0.6500 0 9
-11.1641 -3.3125 1.7504 0.3962 0 9
-11.1642 -3.4227 1.7552 0.3951 0 9
-11.1256 -3.5213 1.7541 0.6363 0 9
-11.0700 -3.6143 1.7504 0.6376 0 9
-12.2652 -4.1277 1.9452 0.5174 0 9
-12.1608 -4.2155 1.9347 0.7133 0 9
-12.1250 -4.3264 1.9351 0.7131 0 9
-11.6942 -4.2924 1.8725 0.1464 0 9
-11.6684 -4.4031 1.8746 0.5402 0 9
-11.4956 -4.4572 1.8533 0.6867 0 9
-11.3950 -4.5372 1.8436 0.6796 0 9
-11.3064 -4.6209 1.8360 0.7818 0 9
-11.2425 -4.7140 1.8324 0.7833 0 9
-11.1786 -4.8066 1.8291 0.7809 0 9
-11.5734 -5.1010 1.9011 0.5819 0 9
-11.5787 -5.2290 1.9097 0.0380 0 9
-13.6279 -6.3035 2.2570 0.3165 0 9
-11.4325 -5.4141 1.9014 0.5698 0 9
-11.2475 -5.4517 1.8788 0.8509 0 9
-11.1826 -5.5458 1.8763 0.4046 0 9
-11.1122 -5.6367 1.8729 0.8517 0 9
-11.0682 -5.7410 1.8742 0.8558 0 9
-11.0265 -5.8465 1.8760 0.8915 0 9
-11.0011 -5.9613 1.8808 0.8892 0 9
-11.0649 -6.1260 1.9011 0.7216 0 9
-10.8667 -6.1454 1.8765 0.7403 0 9
-10.7706 -6.2204 1.8696 0.7978 0 9
-10.7372 -6.3314 1.8737 0.7898 0 9
-10.8309 -6.5194 1.9002 0.7735 0 9
-10.8086 -6.6400 1.9068 0.7033 0 9
-10.8485 -6.8005 1.9246 0.9490 0 9
-12.8850 -8.2405 2.2990 0.5253 0 9
-12.8445 -8.3793 2.3052 0.5236 0 9
-10.9709 -7.4435 1.9928 0.9888 0 9
-10.9019 -7.5417 1.9926 0.9889 0 9
-10.8324 -7.6395 1.9925 0.9899 0 9
-11.4393 -8.2235 2.1177 0.9401 0 9
-10.5735 -7.7472 1.9703 0.3518 0 9
-10.9730 -8.1936 2.0585 0.8830 0 9
-11.8093 -8.9857 2.2305 0.7868 0 9
-11.2232 -8.7012 2.1346 0.6192 0 9
-12.2713 -12.0703 2.5873 0.9744 0 1
-12.1036 -12.1228 2.5750 0.8480 0 1
-11.9291 -12.1663 2.5612 0.8526 0 1
-11.7565 -12.2094 2.5477 0.8571 0 1
-11.5857 -12.2520 2.5347 0.8615 0 1
-11.4038 -12.2804 2.5191 0.8659 0 1
-11.4801 -12.5891 2.5610 0.4698 0 1
-4.3897 -7.4715 1.3026 0.2116 0 9
-4.2657 -7.4132 1.2856 0.7090 0 9
-4.1883 -7.4336 1.2825 0.9552 0 9
-4.1259 -7.4803 1.2841 0.8243 0 9
-4.0826 -7.5628 1.2919 0.8152 0 9
-4.7529 -29.4256 4.4804 0.6376 0 9
-4.3432 -28.5266 4.3374 0.3951 0 9
-4.0727 -28.4799 4.3245 0.6578 0 9
-3.8259 -28.5990 4.3371 0.8942 0 9
-3.4380 -27.5975 4.1804 0.6225 0 9
-3.0867 -26.7487 4.0474 0.5958 0 9
-2.8343 -26.6795 4.0329 0.5979 0 9
-2.6036 -26.8156 4.0497 0.5104 0 9
-2.3466 -26.6762 4.0253 0.5951 0 9
-2.1142 -26.8126 4.0428 0.5890 0 9
-1.7812 -25.5363 3.8478 0.6832 0 9
-1.5510 -25.5683 3.8503 0.8708 0 9
-1.3130 -25.4533 3.8311 0.5028 0 9
-1.1058 -26.0112 3.9134 0.7531 0 9
-0.8674 -25.9318 3.9001 0.7130 0 9
-0.6365 -26.0945 3.9235 0.4495 0 9
-0.1175 -7.6586 1.1513 0.9753 0 5
-0.1237 -19.6720 2.9570 0.1191 0 9
0.0499 -18.0498 2.7131 0.4703 0 9
0.2108 -17.8451 2.6826 0.5854 0 9
0.3933 -18.8490 2.8339 0.6407 0 9
0.5178 -17.3063 2.6026 0.4583 0 9
0.6818 -17.4880 2.6307 0.7023 0 9
0.8360 -17.3983 2.6182 0.7057 0 9
1.0073 -17.6322 2.6547 0.7589 0 9
1.1605 -17.5274 2.6404 0.7630 0 9
1.3402 -17.7965 2.6826 0.9336 0 9
1.5046 -17.8234 2.6886 0.8809 0 9
1.6447 -17.5839 2.6547 0.7971 0 9
1.7968 -17.4998 2.6443 0.8008 0 9
1.9533 -17.4673 2.6419 0.8988 0 9
2.0986 -17.3439 2.6261 0.5925 0 9
2.2683 -17.4228 2.6410 0.4511 0 9
2.4180 -17.3444 2.6323 0.8730 0 9
2.5532 -17.1765 2.6102 0.9154 0 9
2.6579 -16.8321 2.5615 0.5856 0 9
2.8018 -16.7572 2.5538 0.4873 0 9
2.9449 -16.6833 2.5465 0.6535 0 9
3.0893 -16.6213 2.5412 0.6525 0 9
3.2049 -16.4149 2.5140 0.4328 0 9
3.3645 -16.4400 2.5224 0.8820 0 9
3.5219 -16.4496 2.5286 0.8798 0 9
3.6441 -16.2984 2.5104 0.8672 0 9
3.7717 -16.1801 2.4973 0.9085 0 9
3.9405 -16.2382 2.5117 0.0252 0 9
4.0735 -16.1471 2.5032 0.9783 0 9
4.1545 -15.8614 2.4646 0.6586 0 9
4.2676 -15.7119 2.4473 0.6787 0 9
4.4327 -15.7544 2.4601 0.6744 0 9
4.5669 -15.6858 2.4557 0.8586 0 9
4.6924 -15.5895 2.4472 0.8659 0 9
4.8557 -15.6187 2.4586 0.7754 0 9
5.0697 -15.8011 2.4944 0.8670 0 9
5.1541 -15.5781 2.4665 0.5141 0 9
5.3369 -15.6541 2.4860 0.4041 0 9
6.1211 -17.4360 2.7777 0.9125 0 9
6.8052 -18.8374 3.0106 0.4683 0 9
6.5139 -17.5327 2.8114 0.2295 0 9
6.5945 -17.2693 2.7786 0.7303 0 9
11.5239 12.8389 2.5932 0.6996 0 9
11.3960 12.9299 2.5907 0.2490 0 9
11.1292 12.8600 2.5564 0.7219 0 9
10.9817 12.9241 2.5493 0.7239 0 9
11.0232 13.2134 2.5866 0.6113 0 9
10.7968 13.1828 2.5613 0.5918 0 9
10.6006 13.1849 2.5430 0.5910 0 9
11.7412 14.8773 2.8488 0.3091 0 9
11.5830 14.9531 2.8431 0.3097 0 9
9.2487 12.1655 2.2971 0.5285 0 9
9.0678 12.1542 2.2794 0.5326 0 9
8.7344 11.9312 2.2226 0.6315 0 9
8.6585 12.0549 2.2310 0.6494 0 9
8.4868 12.0445 2.2148 0.6542 0 9
8.3844 12.1308 2.2166 0.4408 0 9
7.9200 11.6835 2.1217 0.5578 0 9
7.8063 11.7432 2.1196 0.4772 0 9
7.6020 11.6634 2.0927 0.4796 0 9
7.5441 11.8069 2.1061 0.8368 0 9
7.4257 11.8567 2.1029 0.6568 0 9
7.3237 11.9326 2.1045 0.6563 0 9
7.2205 12.0069 2.1060 0.6393 0 9
7.6857 13.0463 2.2760 0.6344 0 9
7.6052 13.1810 2.2874 0.6286 0 9
8.0021 14.1635 2.4453 0.3964 0 9
7.9305 14.3382 2.4629 0.7028 0 9
7.8240 14.4530 2.4704 0.7007 0 9
7.3082 13.7969 2.3469 0.4466 0 9
7.1945 13.8847 2.3506 0.4459 0 9
7.0884 13.9883 2.3572 0.3610 0 9
7.0002 14.1300 2.3703 0.7608 0 9
6.9036 14.2581 2.3812 0.6370 0 9
6.8248 14.4267 2.3989 0.5590 0 9
6.8260 14.7737 2.4463 0.6058 0 9
6.6579 14.7591 2.4338 0.8086 0 9
6.5199 14.8095 2.4323 0.5440 0 9
6.5329 15.2107 2.4883 0.6582 0 9
6.4373 15.3702 2.5048 0.6614 0 9
2.6524 6.4974 1.0549 0.8499 0 5
2.6025 6.5439 1.0586 0.4969 0 5
3.5482 10.8830 1.7206 0.6519 0 5
32.9978 19.1091 4.8564 0.4616 0 5
12.7796 15.1118 2.5206 0.6742 0 9
12.6347 15.2175 2.5190 0.6746 0 9
11.8977 15.1485 2.4532 0.3928 0 9
11.6055 15.0551 2.4210 0.3980 0 9
