ply
format ascii 1.0
element vertex 1410
property float32 x
property float32 y
property float32 z
property float32 CosAngle
property uint32 ObjIdx
property uint32 ObjTag
end_header
-7.8857 -1.7158 -2.7078 0.3181 0 7
-7.8698 -1.7871 -2.7078 0.3181 0 7
-7.8533 -1.8582 -2.7078 0.3181 0 7
-7.8362 -1.9292 -2.7078 0.3181 0 7
-7.8184 -2.0000 -2.7078 0.3181 0 7
-7.8000 -2.0706 -2.7078 0.3181 0 7
-7.7810 -2.1411 -2.7078 0.3181 0 7
-7.7613 -2.2114 -2.7078 0.3181 0 7
-7.7410 -2.2815 -2.7078 0.3181 0 7
-7.7200 -2.3514 -2.7078 0.3181 0 7
-7.6984 -2.4212 -2.7078 0.3181 0 7
-7.6762 -2.4907 -2.7078 0.3181 0 7
-7.6534 -2.5600 -2.7078 0.3181 0 7
-7.6299 -2.6292 -2.7078 0.3181 0 7
-7.6058 -2.6981 -2.7078 0.3181 0 7
-7.5811 -2.7667 -2.7078 0.3181 0 7
-7.5558 -2.8352 -2.7078 0.3181 0 7
-7.5298 -2.9034 -2.7078 0.3181 0 7
-7.5032 -2.9714 -2.7078 0.3181 0 7
-7.4761 -3.0392 -2.7078 0.3181 0 7
-7.4483 -3.1067 -2.7078 0.3181 0 7
-7.4198 -3.1739 -2.7078 0.3181 0 7
-7.3908 -3.2409 -2.7078 0.3181 0 7
-7.3612 -3.3076 -2.7078 0.3181 0 7
-7.3310 -3.3741 -2.7078 0.3181 0 7
-7.3002 -3.4402 -2.7078 0.3181 0 7
-7.2688 -3.5061 -2.7078 0.3181 0 7
-7.2367 -3.5717 -2.7078 0.3181 0 6
-7.2042 -3.6370 -2.7078 0.3181 0 6
-7.1709 -3.7021 -2.7078 0.3181 0 7
-7.1372 -3.7668 -2.7078 0.3181 0 7
-7.1028 -3.8312 -2.7078 0.3181 0 6
-7.0679 -3.8953 -2.7078 0.3181 0 7
-7.0324 -3.9590 -2.7078 0.3181 0 7
-6.9962 -4.0225 -2.7078 0.3181 0 7
-6.9596 -4.0856 -2.7078 0.3181 0 7
-6.9223 -4.1484 -2.7078 0.3181 0 7
-6.8846 -4.2108 -2.7078 0.3181 0 7
-6.8462 -4.2729 -2.7078 0.3181 0 7
-6.8072 -4.3347 -2.7078 0.3181 0 7
-6.7678 -4.3961 -2.7078 0.3181 0 7
-6.7277 -4.4571 -2.7078 0.3181 0 7
-6.6871 -4.5178 -2.7078 0.3181 0 7
-6.6460 -4.5781 -2.7078 0.3181 0 7
-6.6043 -4.6380 -2.7078 0.3181 0 7
-6.5621 -4.6976 -2.7078 0.3181 0 7
-6.5193 -4.7567 -2.7078 0.3181 0 7
-6.4760 -4.8155 -2.7078 0.3181 0 7
-6.4322 -4.8739 -2.7078 0.3181 0 7
-6.3879 -4.9319 -2.7078 0.3181 0 7
-6.3430 -4.9894 -2.7078 0.3181 0 7
-6.2976 -5.0466 -2.7078 0.3181 0 7
-6.2517 -5.1034 -2.7078 0.3181 0 7
-6.2053 -5.1597 -2.7078 0.3181 0 7
-6.1583 -5.2156 -2.7078 0.3181 0 7
-6.1109 -5.2711 -2.7078 0.3181 0 7
-6.0630 -5.3262 -2.7078 0.3181 0 7
-6.0146 -5.3808 -2.7078 0.3181 0 7
-5.9657 -5.4350 -2.7078 0.3181 0 7
-5.9162 -5.4887 -2.7078 0.3181 0 7
-5.8663 -5.5420 -2.7078 0.3181 0 7
-5.8160 -5.5948 -2.7078 0.3181 0 7
-5.7652 -5.6472 -2.7078 0.3181 0 7
-5.7138 -5.6991 -2.7078 0.3181 0 7
-5.6620 -5.7506 -2.7078 0.3181 0 7
-5.6098 -5.8016 -2.7078 0.3181 0 7
-5.5571 -5.8521 -2.7078 0.3181 0 7
-5.5039 -5.9021 -2.7078 0.3181 0 7
-5.4503 -5.9516 -2.7078 0.3181 0 7
-5.3962 -6.0007 -2.7078 0.3181 0 7
-5.3418 -6.0493 -2.7078 0.3181 0 7
-5.2868 -6.0973 -2.7078 0.3181 0 7
-5.2314 -6.1449 -2.7078 0.3181 0 7
-5.1757 -6.1920 -2.7078 0.3181 0 7
-5.1194 -6.2385 -2.7078 0.3181 0 7
-5.0628 -6.2846 -2.7078 0.3181 0 7
-5.0057 -6.3301 -2.7078 0.3181 0 7
-4.9483 -6.3751 -2.7078 0.3181 0 7
-4.8904 -6.4196 -2.7078 0.3181 0 7
-4.8321 -6.4636 -2.7078 0.3181 0 7
-4.7735 -6.5070 -2.7078 0.3181 0 7
-4.7144 -6.5500 -2.7078 0.3181 0 7
-4.6550 -6.5923 -2.7078 0.3181 0 7
-4.5952 -6.6342 -2.7078 0.3181 0 7
-4.5350 -6.6755 -2.7078 0.3181 0 7
-4.4744 -6.7162 -2.7078 0.3181 0 7
-4.4135 -6.7564 -2.7078 0.3181 0 7
-4.3522 -6.7961 -2.7078 0.3181 0 7
-4.2905 -6.8351 -2.7078 0.3181 0 7
-4.2285 -6.8737 -2.7078 0.3181 0 7
-4.1662 -6.9116 -2.7078 0.3181 0 7
-4.1035 -6.9490 -2.7078 0.3181 0 7
-4.0405 -6.9859 -2.7078 0.3181 0 7
-3.9771 -7.0221 -2.7078 0.3181 0 7
-3.9135 -7.0578 -2.7078 0.3181 0 7
-3.8494 -7.0929 -2.7078 0.3181 0 7
-3.7851 -7.1275 -2.7078 0.3181 0 7
-3.7205 -7.1614 -2.7078 0.3181 0 7
-3.6556 -7.1948 -2.7078 0.3181 0 7
-3.5903 -7.2275 -2.7078 0.3181 0 7
-3.5248 -7.2597 -2.7078 0.3181 0 7
-3.4590 -7.2913 -2.7078 0.3181 0 7
-3.3929 -7.3223 -2.7078 0.3181 0 7
-3.3265 -7.3527 -2.7078 0.3181 0 7
-3.2599 -7.3825 -2.7078 0.3181 0 7
-3.1930 -7.4117 -2.7078 0.3181 0 7
-3.1258 -7.4402 -2.7078 0.3181 0 7
-3.0584 -7.4682 -2.7078 0.3181 0 7
-2.9907 -7.4956 -2.7078 0.3181 0 7
-2.9228 -7.5223 -2.7078 0.3181 0 7
-2.8546 -7.5484 -2.7078 0.3181 0 7
-2.7862 -7.5740 -2.7078 0.3181 0 7
-2.7176 -7.5988 -2.7078 0.3181 0 7
-2.6488 -7.6231 -2.7078 0.3181 0 7
-2.5797 -7.6468 -2.7078 0.3181 0 7
-2.5104 -7.6698 -2.7078 0.3181 0 7
-2.4410 -7.6922 -2.7078 0.3181 0 7
-2.3713 -7.7139 -2.7078 0.3181 0 7
-2.3014 -7.7351 -2.7078 0.3181 0 7
-2.2313 -7.7556 -2.7078 0.3181 0 7
-2.1611 -7.7754 -2.7078 0.3181 0 7
-2.0907 -7.7947 -2.7078 0.3181 0 7
-2.0201 -7.8133 -2.7078 0.3181 0 7
-1.9493 -7.8312 -2.7078 0.3181 0 7
-1.8784 -7.8485 -2.7078 0.3181 0 7
-1.8073 -7.8652 -2.7078 0.3181 0 7
-1.7361 -7.8812 -2.7078 0.3181 0 7
-1.6648 -7.8966 -2.7078 0.3181 0 7
-1.5933 -7.9113 -2.7078 0.3181 0 7
-1.5217 -7.9254 -2.7078 0.3181 0 7
-1.4499 -7.9389 -2.7078 0.3181 0 7
-1.3780 -7.9517 -2.7078 0.3181 0 7
-1.3061 -7.9638 -2.7078 0.3181 0 7
-1.2340 -7.9753 -2.7078 0.3181 0 7
-1.1618 -7.9861 -2.7078 0.3181 0 7
-1.0895 -7.9963 -2.7078 0.3181 0 7
-1.0171 -8.0058 -2.7078 0.3181 0 7
-0.9447 -8.0147 -2.7078 0.3181 0 7
-0.8721 -8.0229 -2.7078 0.3181 0 7
-0.7995 -8.0305 -2.7078 0.3181 0 7
-0.7269 -8.0374 -2.7078 0.3181 0 7
-0.6541 -8.0436 -2.7078 0.3181 0 7
-0.5813 -8.0492 -2.7078 0.3181 0 7
-0.5085 -8.0541 -2.7078 0.3181 0 7
-0.4356 -8.0584 -2.7078 0.3181 0 7
-0.3627 -8.0620 -2.7078 0.3181 0 7
-0.2898 -8.0650 -2.7078 0.3181 0 7
-0.2168 -8.0673 -2.7078 0.3181 0 7
-0.1439 -8.0689 -2.7078 0.3181 0 7
-0.0709 -8.0699 -2.7078 0.3181 0 7
0.0021 -8.0702 -2.7078 0.3181 0 7
0.0752 -8.0698 -2.7078 0.3181 0 7
0.1481 -8.0688 -2.7078 0.3181 0 7
0.2211 -8.0672 -2.7078 0.3181 0 7
0.2941 -8.0648 -2.7078 0.3181 0 7
0.3670 -8.0618 -2.7078 0.3181 0 7
0.4399 -8.0582 -2.7078 0.3181 0 7
0.5128 -8.0539 -2.7078 0.3181 0 7
0.5856 -8.0489 -2.7078 0.3181 0 7
0.6584 -8.0433 -2.7078 0.3181 0 7
0.7311 -8.0370 -2.7078 0.3181 0 7
0.8038 -8.0300 -2.7078 0.3181 0 7
0.8764 -8.0225 -2.7078 0.3181 0 7
0.9489 -8.0142 -2.7078 0.3181 0 7
1.0214 -8.0053 -2.7078 0.3181 0 7
1.0937 -7.9957 -2.7078 0.3181 0 7
1.1660 -7.9855 -2.7078 0.3181 0 7
1.2382 -7.9746 -2.7078 0.3181 0 7
1.3103 -7.9631 -2.7078 0.3181 0 7
1.3823 -7.9509 -2.7078 0.3181 0 7
1.4541 -7.9381 -2.7078 0.3181 0 7
1.5259 -7.9246 -2.7078 0.3181 0 7
1.5975 -7.9105 -2.7078 0.3181 0 7
1.6690 -7.8957 -2.7078 0.3181 0 7
1.7403 -7.8803 -2.7078 0.3181 0 7
1.8115 -7.8643 -2.7078 0.3181 0 7
1.8826 -7.8475 -2.7078 0.3181 0 7
1.9535 -7.8302 -2.7078 0.3181 0 7
2.0242 -7.8122 -2.7078 0.3181 0 7
2.0948 -7.7935 -2.7078 0.3181 0 7
2.1652 -7.7743 -2.7078 0.3181 0 7
2.2355 -7.7544 -2.7078 0.3181 0 7
2.3055 -7.7338 -2.7078 0.3181 0 7
2.3754 -7.7127 -2.7078 0.3181 0 7
2.4450 -7.6909 -2.7078 0.3181 0 7
2.5145 -7.6684 -2.7078 0.3181 0 7
2.5838 -7.6454 -2.7078 0.3181 0 7
2.6528 -7.6217 -2.7078 0.3181 0 7
2.7216 -7.5974 -2.7078 0.3181 0 7
2.7902 -7.5725 -2.7078 0.3181 0 7
2.8586 -7.5469 -2.7078 0.3181 0 7
2.9268 -7.5208 -2.7078 0.3181 0 7
2.9947 -7.4940 -2.7078 0.3181 0 7
3.0623 -7.4666 -2.7078 0.3181 0 7
3.1298 -7.4386 -2.7078 0.3181 0 7
3.1969 -7.4100 -2.7078 0.3181 0 7
3.2638 -7.3807 -2.7078 0.3181 0 7
3.3304 -7.3509 -2.7078 0.3181 0 7
3.3968 -7.3205 -2.7078 0.3181 0 7
3.4629 -7.2895 -2.7078 0.3181 0 7
3.5287 -7.2578 -2.7078 0.3181 0 7
3.5942 -7.2256 -2.7078 0.3181 0 7
3.6594 -7.1928 -2.7078 0.3181 0 7
3.7243 -7.1594 -2.7078 0.3181 0 7
3.7889 -7.1254 -2.7078 0.3181 0 7
3.8532 -7.0909 -2.7078 0.3181 0 7
3.9172 -7.0557 -2.7078 0.3181 0 7
3.9808 -7.0200 -2.7078 0.3181 0 7
4.0442 -6.9837 -2.7078 0.3181 0 7
4.1072 -6.9469 -2.7078 0.3181 0 7
4.1698 -6.9094 -2.7078 0.3181 0 7
4.2322 -6.8714 -2.7078 0.3181 0 7
4.2941 -6.8329 -2.7078 0.3181 0 7
4.3558 -6.7937 -2.7078 0.3181 0 7
4.4171 -6.7541 -2.7078 0.3181 0 7
4.4780 -6.7138 -2.7078 0.3181 0 7
4.5385 -6.6731 -2.7078 0.3181 0 7
4.5987 -6.6317 -2.7078 0.3181 0 7
4.6585 -6.5899 -2.7078 0.3181 0 7
4.7179 -6.5475 -2.7078 0.3181 0 7
4.7769 -6.5045 -2.7078 0.3181 0 7
4.8356 -6.4610 -2.7078 0.3181 0 7
4.8938 -6.4170 -2.7078 0.3181 0 7
4.9517 -6.3725 -2.7078 0.3181 0 7
5.0091 -6.3275 -2.7078 0.3181 0 7
5.0661 -6.2819 -2.7078 0.3181 0 7
5.1227 -6.2358 -2.7078 0.3181 0 7
5.1789 -6.1892 -2.7078 0.3181 0 7
5.2347 -6.1421 -2.7078 0.3181 0 7
5.2901 -6.0945 -2.7078 0.3181 0 7
5.3450 -6.0464 -2.7078 0.3181 0 7
5.3994 -5.9978 -2.7078 0.3181 0 7
5.4535 -5.9487 -2.7078 0.3181 0 7
5.5071 -5.8992 -2.7078 0.3181 0 7
5.5602 -5.8491 -2.7078 0.3181 0 7
5.6129 -5.7986 -2.7078 0.3181 0 7
5.6651 -5.7476 -2.7078 0.3181 0 7
5.7169 -5.6961 -2.7078 0.3181 0 7
5.7681 -5.6442 -2.7078 0.3181 0 7
5.8189 -5.5917 -2.7078 0.3181 0 7
5.8693 -5.5389 -2.7078 0.3181 0 7
5.9191 -5.4856 -2.7078 0.3181 0 7
5.9685 -5.4318 -2.7078 0.3181 0 7
6.0174 -5.3776 -2.7078 0.3181 0 7
6.0658 -5.3229 -2.7078 0.3181 0 7
6.1137 -5.2679 -2.7078 0.3181 0 7
6.1611 -5.2123 -2.7078 0.3181 0 7
6.2080 -5.1564 -2.7078 0.3181 0 7
6.2544 -5.1000 -2.7078 0.3181 0 7
6.3003 -5.0433 -2.7078 0.3181 0 7
6.3456 -4.9861 -2.7078 0.3181 0 7
6.3904 -4.9285 -2.7078 0.3181 0 7
6.4348 -4.8704 -2.7078 0.3181 0 7
6.4786 -4.8120 -2.7078 0.3181 0 7
6.5219 -4.7532 -2.7078 0.3181 0 7
6.5646 -4.6941 -2.7078 0.3181 0 7
6.6068 -4.6345 -2.7078 0.3181 0 7
6.6484 -4.5745 -2.7078 0.3181 0 7
6.6895 -4.5142 -2.7078 0.3181 0 7
6.7301 -4.4535 -2.7078 0.3181 0 7
6.7701 -4.3925 -2.7078 0.3181 0 7
6.8095 -4.3311 -2.7078 0.3181 0 7
6.8484 -4.2693 -2.7078 0.3181 0 7
6.8868 -4.2072 -2.7078 0.3181 0 7
6.9245 -4.1447 -2.7078 0.3181 0 7
6.9617 -4.0819 -2.7078 0.3181 0 7
6.9984 -4.0188 -2.7078 0.3181 0 7
7.0344 -3.9553 -2.7078 0.3181 0 7
7.0699 -3.8915 -2.7078 0.3181 0 7
7.1049 -3.8274 -2.7078 0.3181 0 7
7.1392 -3.7630 -2.7078 0.3181 0 7
7.1729 -3.6982 -2.7078 0.3181 0 7
7.2061 -3.6332 -2.7078 0.3181 0 7
7.2387 -3.5679 -2.7078 0.3181 0 7
7.2706 -3.5023 -2.7078 0.3181 0 7
7.3020 -3.4363 -2.7078 0.3181 0 7
7.3328 -3.3702 -2.7078 0.3181 0 7
7.3630 -3.3037 -2.7078 0.3181 0 7
7.3926 -3.2370 -2.7078 0.3181 0 7
7.4215 -3.1700 -2.7078 0.3181 0 7
7.4499 -3.1027 -2.7078 0.3181 0 7
7.4777 -3.0352 -2.7078 0.3181 0 6
7.5048 -2.9674 -2.7078 0.3181 0 6
7.5313 -2.8994 -2.7078 0.3181 0 7
7.5573 -2.8312 -2.7078 0.3181 0 7
7.5826 -2.7627 -2.7078 0.3181 0 6
7.6072 -2.6940 -2.7078 0.3181 0 6
7.6313 -2.6251 -2.7078 0.3181 0 7
7.6547 -2.5559 -2.7078 0.3181 0 7
7.6775 -2.4866 -2.7078 0.3181 0 7
7.6997 -2.4171 -2.7078 0.3181 0 7
7.7213 -2.3473 -2.7078 0.3181 0 7
7.7422 -2.2774 -2.7078 0.3181 0 7
7.7625 -2.2073 -2.7078 0.3181 0 7
7.7821 -2.1369 -2.7078 0.3181 0 7
7.8011 -2.0665 -2.7078 0.3181 0 7
7.8195 -1.9958 -2.7078 0.3181 0 7
7.8372 -1.9250 -2.7078 0.3181 0 7
7.8543 -1.8540 -2.7078 0.3181 0 7
7.8708 -1.7829 -2.7078 0.3181 0 7
7.8866 -1.7117 -2.7078 0.3181 0 7
7.9017 -1.6403 -2.7078 0.3181 0 7
7.9162 -1.5687 -2.7078 0.3181 0 7
7.9301 -1.4970 -2.7078 0.3181 0 7
7.9433 -1.4252 -2.7078 0.3181 0 7
7.9559 -1.3533 -2.7078 0.3181 0 7
7.9678 -1.2813 -2.7078 0.3181 0 7
7.9791 -1.2092 -2.7078 0.3181 0 7
7.9897 -1.1370 -2.7078 0.3181 0 7
7.9996 -1.0647 -2.7078 0.3181 0 7
8.0089 -0.9923 -2.7078 0.3181 0 7
8.0176 -0.9198 -2.7078 0.3181 0 7
8.0256 -0.8472 -2.7078 0.3181 0 7
8.0329 -0.7746 -2.7078 0.3181 0 7
8.0396 -0.7019 -2.7078 0.3181 0 7
8.0456 -0.6291 -2.7078 0.3181 0 7
8.0510 -0.5563 -2.7078 0.3181 0 7
8.0557 -0.4835 -2.7078 0.3181 0 7
8.0597 -0.4106 -2.7078 0.3181 0 7
8.0631 -0.3377 -2.7078 0.3181 0 7
8.0658 -0.2647 -2.7078 0.3181 0 7
8.0679 -0.1918 -2.7078 0.3181 0 7
8.0693 -0.1188 -2.7078 0.3181 0 7
8.0700 -0.0458 -2.7078 0.3181 0 7
8.0701 0.0272 -2.7078 0.3181 0 7
8.0696 0.1002 -2.7078 0.3181 0 7
8.0683 0.1732 -2.7078 0.3181 0 7
8.0664 0.2462 -2.7078 0.3181 0 7
8.0639 0.3191 -2.7078 0.3181 0 7
8.0607 0.3920 -2.7078 0.3181 0 7
8.0568 0.4649 -2.7078 0.3181 0 7
8.0522 0.5378 -2.7078 0.3181 0 7
8.0471 0.6106 -2.7078 0.3181 0 6
8.0412 0.6834 -2.7078 0.3181 0 6
8.0347 0.7561 -2.7078 0.3181 0 7
8.0275 0.8287 -2.7078 0.3181 0 7
8.0197 0.9013 -2.7078 0.3181 0 7
8.0112 0.9738 -2.7078 0.3181 0 7
8.0021 1.0462 -2.7078 0.3181 0 7
7.9923 1.1186 -2.7078 0.3181 0 7
7.9818 1.1908 -2.7078 0.3181 0 7
7.9707 1.2630 -2.7078 0.3181 0 7
7.9590 1.3350 -2.7078 0.3181 0 7
7.9466 1.4069 -2.7078 0.3181 0 7
7.9335 1.4788 -2.7078 0.3181 0 7
7.9198 1.5505 -2.7078 0.3181 0 7
7.9055 1.6220 -2.7078 0.3181 0 7
7.8905 1.6935 -2.7078 0.3181 0 7
7.8749 1.7648 -2.7078 0.3181 0 7
7.8586 1.8359 -2.7078 0.3181 0 7
7.8416 1.9069 -2.7078 0.3181 0 7
7.8241 1.9778 -2.7078 0.3181 0 7
7.8059 2.0485 -2.7078 0.3181 0 7
7.7870 2.1190 -2.7078 0.3181 0 7
7.7675 2.1894 -2.7078 0.3181 0 7
7.7474 2.2595 -2.7078 0.3181 0 7
7.7267 2.3295 -2.7078 0.3181 0 7
7.7053 2.3993 -2.7078 0.3181 0 7
7.6832 2.4689 -2.7078 0.3181 0 7
7.6606 2.5383 -2.7078 0.3181 0 7
7.6373 2.6075 -2.7078 0.3181 0 7
7.6134 2.6765 -2.7078 0.3181 0 7
7.5889 2.7452 -2.7078 0.3181 0 7
7.5638 2.8138 -2.7078 0.3181 0 7
7.5380 2.8821 -2.7078 0.3181 0 7
7.5116 2.9501 -2.7078 0.3181 0 7
7.4846 3.0179 -2.7078 0.3181 0 7
7.4570 3.0855 -2.7078 0.3181 0 7
7.4288 3.1528 -2.7078 0.3181 0 7
7.4000 3.2199 -2.7078 0.3181 0 7
7.3706 3.2867 -2.7078 0.3181 0 7
7.3405 3.3533 -2.7078 0.3181 0 7
7.3099 3.4195 -2.7078 0.3181 0 7
7.2787 3.4855 -2.7078 0.3181 0 7
7.2469 3.5512 -2.7078 0.3181 0 7
7.2144 3.6166 -2.7078 0.3181 0 7
7.1814 3.6817 -2.7078 0.3181 0 7
7.1478 3.7465 -2.7078 0.3181 0 7
7.1137 3.8110 -2.7078 0.3181 0 7
7.0789 3.8752 -2.7078 0.3181 0 7
7.0436 3.9391 -2.7078 0.3181 0 7
7.0076 4.0026 -2.7078 0.3181 0 7
6.9711 4.0658 -2.7078 0.3181 0 6
6.9341 4.1287 -2.7078 0.3181 0 6
6.8964 4.1913 -2.7078 0.3181 0 7
6.8582 4.2535 -2.7078 0.3181 0 7
6.8195 4.3154 -2.7078 0.3181 0 7
6.7802 4.3769 -2.7078 0.3181 0 7
6.7403 4.4380 -2.7078 0.3181 0 7
6.6999 4.4988 -2.7078 0.3181 0 7
6.6589 4.5592 -2.7078 0.3181 0 7
6.6174 4.6193 -2.7078 0.3181 0 7
6.5754 4.6789 -2.7078 0.3181 0 7
6.5328 4.7382 -2.7078 0.3181 0 7
6.4896 4.7971 -2.7078 0.3181 0 7
6.4460 4.8556 -2.7078 0.3181 0 7
6.4018 4.9137 -2.7078 0.3181 0 7
6.3571 4.9714 -2.7078 0.3181 0 7
6.3119 5.0287 -2.7078 0.3181 0 7
6.2661 5.0856 -2.7078 0.3181 0 7
6.2199 5.1421 -2.7078 0.3181 0 7
6.1731 5.1981 -2.7078 0.3181 0 7
6.1258 5.2538 -2.7078 0.3181 0 7
6.0781 5.3090 -2.7078 0.3181 0 7
6.0298 5.3637 -2.7078 0.3181 0 7
5.9810 5.4180 -2.7078 0.3181 0 7
5.9318 5.4719 -2.7078 0.3181 0 7
5.8820 5.5253 -2.7078 0.3181 0 7
5.8318 5.5783 -2.7078 0.3181 0 7
5.7811 5.6308 -2.7078 0.3181 0 7
5.7300 5.6829 -2.7078 0.3181 0 7
5.6783 5.7345 -2.7078 0.3181 0 7
5.6262 5.7856 -2.7078 0.3181 0 7
5.5737 5.8363 -2.7078 0.3181 0 7
5.5206 5.8865 -2.7078 0.3181 0 7
5.4672 5.9362 -2.7078 0.3181 0 7
5.4133 5.9854 -2.7078 0.3181 0 7
5.3586 6.0337 -2.7077 0.3294 0 8
5.3021 6.0801 -2.7068 0.3295 0 8
5.2453 6.1259 -2.7060 0.3296 0 8
5.1881 6.1712 -2.7052 0.3297 0 8
5.1305 6.2160 -2.7044 0.3298 0 8
5.0726 6.2603 -2.7036 0.3299 0 8
5.0143 6.3041 -2.7028 0.3300 0 8
4.9556 6.3473 -2.7020 0.3301 0 8
4.8966 6.3900 -2.7012 0.3302 0 8
4.8372 6.4322 -2.7004 0.3303 0 8
4.7544 6.4427 -2.6866 0.7751 0 8
4.6637 6.4409 -2.6682 0.7805 0 8
4.5742 6.4391 -2.6502 0.7858 0 8
4.4859 6.4373 -2.6326 0.7910 0 8
4.3987 6.4355 -2.6155 0.7962 0 8
4.3126 6.4336 -2.5988 0.8013 0 8
4.2275 6.4318 -2.5825 0.8064 0 8
4.1435 6.4299 -2.5666 0.8114 0 8
4.0673 6.4390 -2.5554 0.3181 0 8
4.0089 6.4755 -2.5554 0.3181 0 8
3.9502 6.5115 -2.5554 0.3181 0 8
3.8912 6.5469 -2.5554 0.3181 0 8
3.8317 6.5819 -2.5554 0.3181 0 8
3.7721 6.6163 -2.5554 0.3181 0 8
3.7121 6.6501 -2.5554 0.3181 0 8
3.6518 6.6834 -2.5554 0.3181 0 8
3.5912 6.7162 -2.5554 0.3181 0 8
3.5303 6.7484 -2.5554 0.3181 0 8
3.4691 6.7800 -2.5554 0.3181 0 8
3.4076 6.8111 -2.5554 0.3181 0 8
3.3459 6.8417 -2.5554 0.3181 0 8
3.2838 6.8717 -2.5554 0.3181 0 8
3.2215 6.9011 -2.5554 0.3181 0 8
3.1590 6.9299 -2.5554 0.3181 0 8
3.0962 6.9582 -2.5554 0.3181 0 8
3.0331 6.9860 -2.5554 0.3181 0 8
2.9698 7.0131 -2.5554 0.3181 0 8
2.9062 7.0397 -2.5554 0.3181 0 8
2.8424 7.0657 -2.5554 0.3181 0 8
2.7784 7.0911 -2.5554 0.3181 0 8
2.7142 7.1159 -2.5554 0.3181 0 8
2.6497 7.1402 -2.5554 0.3181 0 8
2.5850 7.1639 -2.5554 0.3181 0 8
2.5201 7.1870 -2.5554 0.3181 0 8
2.4550 7.2095 -2.5554 0.3181 0 8
2.3897 7.2314 -2.5554 0.3181 0 8
2.3241 7.2527 -2.5554 0.3181 0 8
2.2584 7.2734 -2.5554 0.3181 0 8
2.1926 7.2935 -2.5554 0.3181 0 8
2.1265 7.3131 -2.5554 0.3181 0 8
2.0603 7.3320 -2.5554 0.3181 0 8
1.9939 7.3503 -2.5554 0.3181 0 8
1.9273 7.3681 -2.5554 0.3181 0 8
1.8606 7.3852 -2.5554 0.3181 0 8
1.7937 7.4017 -2.5554 0.3181 0 8
1.7267 7.4177 -2.5554 0.3181 0 8
1.6595 7.4330 -2.5554 0.3181 0 8
1.5922 7.4477 -2.5554 0.3181 0 8
1.5248 7.4618 -2.5554 0.3181 0 8
1.4572 7.4753 -2.5554 0.3181 0 8
1.3896 7.4882 -2.5554 0.3181 0 8
1.3218 7.5004 -2.5554 0.3181 0 8
1.2539 7.5121 -2.5554 0.3181 0 8
1.1859 7.5231 -2.5554 0.3181 0 8
1.1178 7.5335 -2.5554 0.3181 0 8
1.0496 7.5433 -2.5554 0.3181 0 8
0.9813 7.5525 -2.5554 0.3181 0 8
0.9129 7.5611 -2.5554 0.3181 0 8
0.8445 7.5690 -2.5554 0.3181 0 8
0.7760 7.5763 -2.5554 0.3181 0 8
0.7075 7.5831 -2.5554 0.3181 0 8
0.6388 7.5891 -2.5554 0.3181 0 8
0.5119 6.8191 -2.2945 0.9521 0 5
0.4497 6.8155 -2.2918 0.9532 0 5
0.3876 6.8118 -2.2893 0.9542 0 5
0.3257 6.8082 -2.2870 0.9552 0 5
0.2638 6.8046 -2.2849 0.9561 0 5
0.2262 7.6126 -2.5554 0.3181 0 8
0.1573 7.6144 -2.5554 0.3181 0 8
0.0885 7.6155 -2.5554 0.3181 0 8
0.0196 7.6160 -2.5554 0.3181 0 8
-0.0493 7.6158 -2.5554 0.3181 0 8
-0.1182 7.6151 -2.5554 0.3181 0 8
-0.1871 7.6137 -2.5554 0.3181 0 8
-0.2559 7.6117 -2.5554 0.3181 0 8
-0.3248 7.6091 -2.5554 0.3181 0 8
-0.3936 7.6058 -2.5554 0.3181 0 8
-0.4624 7.6019 -2.5554 0.3181 0 8
-0.5311 7.5974 -2.5554 0.3181 0 8
-0.5998 7.5923 -2.5554 0.3181 0 8
-0.6684 7.5866 -2.5554 0.3181 0 8
-0.7371 7.5802 -2.5554 0.3181 0 8
-0.8056 7.5733 -2.5554 0.3181 0 8
-0.8741 7.5657 -2.5554 0.3181 0 8
-0.9424 7.5574 -2.5554 0.3181 0 8
-1.0108 7.5486 -2.5554 0.3181 0 8
-1.0790 7.5392 -2.5554 0.3181 0 8
-1.1472 7.5291 -2.5554 0.3181 0 8
-1.2152 7.5184 -2.5554 0.3181 0 8
-1.2832 7.5071 -2.5554 0.3181 0 8
-1.3510 7.4952 -2.5554 0.3181 0 8
-1.4188 7.4827 -2.5554 0.3181 0 8
-1.4864 7.4695 -2.5554 0.3181 0 8
-1.5539 7.4558 -2.5554 0.3181 0 8
-1.6213 7.4414 -2.5554 0.3181 0 8
-1.6885 7.4265 -2.5554 0.3181 0 8
-1.7556 7.4109 -2.5554 0.3181 0 8
-1.8226 7.3947 -2.5554 0.3181 0 8
-1.8894 7.3779 -2.5554 0.3181 0 8
-1.9561 7.3605 -2.5554 0.3181 0 8
-2.0225 7.3425 -2.5554 0.3181 0 8
-2.0889 7.3239 -2.5554 0.3181 0 8
-2.1550 7.3047 -2.5554 0.3181 0 8
-2.2210 7.2849 -2.5554 0.3181 0 8
-2.2868 7.2646 -2.5554 0.3181 0 8
-2.3525 7.2436 -2.5554 0.3181 0 8
-2.4179 7.2220 -2.5554 0.3181 0 8
-2.4831 7.1998 -2.5554 0.3181 0 8
-2.5481 7.1771 -2.5554 0.3181 0 8
-2.6129 7.1537 -2.5554 0.3181 0 8
-2.6775 7.1298 -2.5554 0.3181 0 8
-2.7419 7.1053 -2.5554 0.3181 0 8
-2.8061 7.0802 -2.5554 0.3181 0 8
-2.8700 7.0545 -2.5554 0.3181 0 8
-2.9337 7.0283 -2.5554 0.3181 0 8
-2.9971 7.0015 -2.5554 0.3181 0 8
-3.0604 6.9741 -2.5554 0.3181 0 8
-3.1233 6.9461 -2.5554 0.3181 0 8
-3.1860 6.9176 -2.5554 0.3181 0 8
-3.2485 6.8885 -2.5554 0.3181 0 8
-3.3106 6.8588 -2.5554 0.3181 0 8
-3.3725 6.8286 -2.5554 0.3181 0 8
-3.4341 6.7978 -2.5554 0.3181 0 8
-3.4955 6.7664 -2.5554 0.3181 0 8
-3.5566 6.7345 -2.5554 0.3181 0 8
-3.6173 6.7021 -2.5554 0.3181 0 8
-3.6778 6.6691 -2.5554 0.3181 0 8
-3.7380 6.6356 -2.5554 0.3181 0 8
-3.7979 6.6015 -2.5554 0.3181 0 8
-3.8574 6.5669 -2.5554 0.3181 0 8
-3.9167 6.5317 -2.5554 0.3181 0 8
-3.9756 6.4960 -2.5554 0.3181 0 8
-4.0342 6.4598 -2.5554 0.3181 0 8
-4.0924 6.4230 -2.5554 0.3181 0 8
-4.1504 6.3858 -2.5554 0.3181 0 8
-4.2080 6.3479 -2.5554 0.3181 0 8
-4.2652 6.3096 -2.5554 0.3181 0 8
-4.3221 6.2708 -2.5554 0.3181 0 8
-4.3787 6.2314 -2.5554 0.3181 0 8
-4.4348 6.1916 -2.5554 0.3181 0 8
-4.4907 6.1512 -2.5554 0.3181 0 8
-4.5461 6.1103 -2.5554 0.3181 0 8
-4.6012 6.0690 -2.5554 0.3181 0 8
-4.6559 6.0271 -2.5554 0.3181 0 8
-4.7102 5.9847 -2.5554 0.3181 0 8
-4.7642 5.9419 -2.5554 0.3181 0 8
-4.8325 5.9166 -2.5633 0.8124 0 8
-4.9160 5.9089 -2.5791 0.8075 0 8
-5.0004 5.9011 -2.5953 0.8024 0 8
-5.0860 5.8931 -2.6119 0.7973 0 8
-5.1726 5.8850 -2.6289 0.7921 0 8
-5.2603 5.8767 -2.6464 0.7869 0 8
-5.3492 5.8683 -2.6643 0.7816 0 8
-5.4392 5.8597 -2.6826 0.7763 0 8
-5.5281 5.8485 -2.7003 0.3303 0 8
-5.5824 5.7999 -2.7010 0.3303 0 8
-5.6362 5.7508 -2.7018 0.3302 0 8
-5.6896 5.7013 -2.7026 0.3301 0 8
-5.7427 5.6512 -2.7034 0.3300 0 8
-5.7953 5.6007 -2.7042 0.3299 0 8
-5.8475 5.5497 -2.7050 0.3298 0 8
-5.8992 5.4983 -2.7058 0.3297 0 8
-5.9505 5.4464 -2.7067 0.3296 0 8
-6.0014 5.3940 -2.7075 0.3295 0 8
-6.0507 5.3401 -2.7078 0.3181 0 7
-6.0987 5.2852 -2.7078 0.3181 0 7
-6.1463 5.2298 -2.7078 0.3181 0 7
-6.1933 5.1740 -2.7078 0.3181 0 7
-6.2399 5.1178 -2.7078 0.3181 0 7
-6.2859 5.0611 -2.7078 0.3181 0 7
-6.3315 5.0041 -2.7078 0.3181 0 7
-6.3765 4.9466 -2.7078 0.3181 0 7
-6.4209 4.8887 -2.7078 0.3181 0 7
-6.4649 4.8304 -2.7078 0.3181 0 7
-6.5083 4.7717 -2.7078 0.3181 0 7
-6.5512 4.7127 -2.7078 0.3181 0 7
-6.5936 4.6532 -2.7078 0.3181 0 7
-6.6354 4.5934 -2.7078 0.3181 0 7
-6.6767 4.5332 -2.7078 0.3181 0 7
-6.7174 4.4726 -2.7078 0.3181 0 7
-6.7576 4.4117 -2.7078 0.3181 0 7
-6.7972 4.3504 -2.7078 0.3181 0 7
-6.8363 4.2887 -2.7078 0.3181 0 7
-6.8748 4.2267 -2.7078 0.3181 0 7
-6.9128 4.1643 -2.7078 0.3181 0 7
-6.9502 4.1016 -2.7078 0.3181 0 7
-6.9870 4.0386 -2.7078 0.3181 0 7
7.5054 -0.0000 -2.7078 0.3394 0 7
7.5051 0.0679 -2.7078 0.3394 0 7
7.5041 0.1358 -2.7078 0.3394 0 7
7.5026 0.2036 -2.7078 0.3394 0 7
7.5004 0.2715 -2.7078 0.3394 0 7
7.4977 0.3393 -2.7078 0.3394 0 7
7.4943 0.4071 -2.7078 0.3394 0 7
7.4903 0.4749 -2.7078 0.3394 0 7
7.4857 0.5426 -2.7078 0.3394 0 7
7.4805 0.6103 -2.7078 0.3394 0 7
7.4747 0.6780 -2.7078 0.3394 0 7
7.4682 0.7455 -2.7078 0.3394 0 7
7.4612 0.8131 -2.7078 0.3394 0 7
7.4535 0.8805 -2.7078 0.3394 0 7
7.4453 0.9479 -2.7078 0.3394 0 7
7.4364 1.0152 -2.7078 0.3394 0 7
7.4269 1.0824 -2.7078 0.3394 0 7
7.4168 1.1496 -2.7078 0.3394 0 7
7.4061 1.2166 -2.7078 0.3394 0 7
7.3948 1.2836 -2.7078 0.3394 0 7
7.3829 1.3504 -2.7078 0.3394 0 7
7.3704 1.4171 -2.7078 0.3394 0 7
7.3572 1.4837 -2.7078 0.3394 0 7
7.3435 1.5502 -2.7078 0.3394 0 7
7.3292 1.6166 -2.7078 0.3394 0 7
7.3143 1.6828 -2.7078 0.3394 0 7
7.2988 1.7489 -2.7078 0.3394 0 7
7.2826 1.8148 -2.7078 0.3394 0 7
7.2659 1.8806 -2.7078 0.3394 0 7
7.2486 1.9463 -2.7078 0.3394 0 7
7.2307 2.0118 -2.7078 0.3394 0 7
7.2122 2.0771 -2.7078 0.3394 0 7
7.1932 2.1423 -2.7078 0.3394 0 7
7.1735 2.2072 -2.7078 0.3394 0 7
7.1532 2.2720 -2.7078 0.3394 0 7
7.1324 2.3366 -2.7078 0.3394 0 7
7.1109 2.4010 -2.7078 0.3394 0 7
7.0889 2.4653 -2.7078 0.3394 0 7
7.0663 2.5293 -2.7078 0.3394 0 7
7.0432 2.5931 -2.7078 0.3394 0 7
7.0194 2.6567 -2.7078 0.3394 0 7
6.9951 2.7201 -2.7078 0.3394 0 7
6.9702 2.7832 -2.7078 0.3394 0 7
6.9448 2.8462 -2.7078 0.3394 0 7
6.9187 2.9089 -2.7078 0.3394 0 7
6.8921 2.9713 -2.7078 0.3394 0 7
6.8650 3.0336 -2.7078 0.3394 0 7
6.8373 3.0955 -2.7078 0.3394 0 7
6.8090 3.1572 -2.7078 0.3394 0 7
6.7802 3.2187 -2.7078 0.3394 0 7
6.7508 3.2799 -2.7078 0.3394 0 7
6.7208 3.3408 -2.7078 0.3394 0 7
6.6903 3.4015 -2.7078 0.3394 0 7
6.6593 3.4619 -2.7078 0.3394 0 7
6.6277 3.5220 -2.7078 0.3394 0 7
6.5956 3.5818 -2.7078 0.3394 0 7
6.5629 3.6413 -2.7078 0.3394 0 7
6.5297 3.7005 -2.7078 0.3394 0 7
6.4959 3.7594 -2.7078 0.3394 0 7
6.4617 3.8180 -2.7078 0.3394 0 7
6.4269 3.8763 -2.7078 0.3394 0 7
6.3915 3.9343 -2.7078 0.3394 0 7
6.3557 3.9919 -2.7078 0.3394 0 7
6.3193 4.0493 -2.7078 0.3394 0 6
6.2825 4.1062 -2.7078 0.3394 0 6
6.2451 4.1629 -2.7078 0.3394 0 7
6.2071 4.2192 -2.7078 0.3394 0 7
6.1687 4.2752 -2.7078 0.3394 0 7
6.1298 4.3308 -2.7078 0.3394 0 7
6.0904 4.3861 -2.7078 0.3394 0 7
6.0505 4.4410 -2.7078 0.3394 0 7
6.0100 4.4956 -2.7078 0.3394 0 7
5.9691 4.5497 -2.7078 0.3394 0 7
5.9277 4.6035 -2.7078 0.3394 0 7
5.8858 4.6570 -2.7078 0.3394 0 7
5.8435 4.7100 -2.7078 0.3394 0 7
5.8006 4.7627 -2.7078 0.3394 0 7
5.7573 4.8150 -2.7078 0.3394 0 7
5.7135 4.8668 -2.7078 0.3394 0 7
5.6693 4.9183 -2.7078 0.3394 0 7
5.6246 4.9694 -2.7078 0.3394 0 7
5.5794 5.0201 -2.7078 0.3394 0 7
5.5338 5.0703 -2.7078 0.3394 0 7
5.4877 5.1202 -2.7078 0.3394 0 7
5.4411 5.1696 -2.7078 0.3394 0 7
5.3941 5.2186 -2.7078 0.3394 0 7
5.3467 5.2672 -2.7078 0.3394 0 7
5.2988 5.3153 -2.7078 0.3394 0 7
5.2506 5.3630 -2.7078 0.3394 0 7
5.2018 5.4103 -2.7078 0.3394 0 7
5.1527 5.4571 -2.7078 0.3394 0 7
5.1031 5.5035 -2.7078 0.3394 0 7
5.0531 5.5495 -2.7078 0.3394 0 7
5.0027 5.5949 -2.7078 0.3394 0 7
4.9519 5.6400 -2.7078 0.3394 0 7
4.9007 5.6845 -2.7078 0.3394 0 7
4.8491 5.7286 -2.7078 0.3394 0 7
4.7971 5.7722 -2.7078 0.3394 0 7
4.7446 5.8154 -2.7078 0.3394 0 7
4.6918 5.8581 -2.7078 0.3394 0 7
4.6387 5.9003 -2.7078 0.3394 0 7
4.5851 5.9420 -2.7078 0.3394 0 7
4.5310 5.9830 -2.7077 0.3515 0 8
4.4755 6.0221 -2.7070 0.3516 0 8
4.4197 6.0608 -2.7063 0.3516 0 8
4.3636 6.0989 -2.7056 0.3517 0 8
4.3071 6.1366 -2.7049 0.3518 0 8
4.2504 6.1737 -2.7042 0.3519 0 8
4.1933 6.2104 -2.7036 0.3520 0 8
4.1359 6.2465 -2.7029 0.3521 0 8
4.0783 6.2822 -2.7022 0.3522 0 8
4.0203 6.3173 -2.7016 0.3523 0 8
3.9621 6.3519 -2.7009 0.3523 0 8
3.9035 6.3859 -2.7003 0.3524 0 8
3.8267 6.3895 -2.6870 0.8268 0 8
3.7476 6.3877 -2.6719 0.8315 0 8
3.6694 6.3860 -2.6572 0.8361 0 8
3.5919 6.3842 -2.6429 0.8406 0 8
3.5153 6.3824 -2.6288 0.8451 0 8
3.4394 6.3806 -2.6152 0.8495 0 8
3.3644 6.3788 -2.6019 0.8539 0 8
3.2900 6.3769 -2.5889 0.8582 0 8
3.2164 6.3751 -2.5762 0.8624 0 8
3.1434 6.3732 -2.5638 0.8666 0 8
3.0755 6.3804 -2.5554 0.3394 0 8
3.0177 6.4080 -2.5554 0.3394 0 8
2.9596 6.4350 -2.5554 0.3394 0 8
2.9013 6.4615 -2.5554 0.3394 0 8
2.8427 6.4875 -2.5554 0.3394 0 8
2.7839 6.5129 -2.5554 0.3394 0 8
2.7249 6.5378 -2.5554 0.3394 0 8
2.6656 6.5622 -2.5554 0.3394 0 8
2.6062 6.5860 -2.5554 0.3394 0 8
2.5465 6.6094 -2.5554 0.3394 0 8
2.4866 6.6321 -2.5554 0.3394 0 8
2.4265 6.6543 -2.5554 0.3394 0 8
2.3662 6.6760 -2.5554 0.3394 0 8
2.3057 6.6972 -2.5554 0.3394 0 8
2.2451 6.7177 -2.5554 0.3394 0 8
2.1842 6.7378 -2.5554 0.3394 0 8
2.1232 6.7573 -2.5554 0.3394 0 8
2.0620 6.7762 -2.5554 0.3394 0 8
2.0006 6.7946 -2.5554 0.3394 0 8
1.9390 6.8124 -2.5554 0.3394 0 8
1.8773 6.8296 -2.5554 0.3394 0 8
1.8155 6.8463 -2.5554 0.3394 0 8
1.7535 6.8625 -2.5554 0.3394 0 8
1.6914 6.8781 -2.5554 0.3394 0 8
1.6291 6.8931 -2.5554 0.3394 0 8
1.5667 6.9075 -2.5554 0.3394 0 8
1.5041 6.9214 -2.5554 0.3394 0 8
1.4414 6.9347 -2.5554 0.3394 0 8
1.3787 6.9475 -2.5554 0.3394 0 8
1.3158 6.9597 -2.5554 0.3394 0 8
1.2528 6.9713 -2.5554 0.3394 0 8
1.1897 6.9823 -2.5554 0.3394 0 8
1.1264 6.9928 -2.5554 0.3394 0 8
1.0631 7.0027 -2.5554 0.3394 0 8
0.9998 7.0120 -2.5554 0.3394 0 8
0.9363 7.0208 -2.5554 0.3394 0 8
0.8728 7.0290 -2.5554 0.3394 0 8
0.8091 7.0366 -2.5554 0.3394 0 8
0.7454 7.0436 -2.5554 0.3394 0 8
0.6817 7.0501 -2.5554 0.3394 0 8
0.6179 7.0560 -2.5554 0.3394 0 8
0.5346 6.8132 -2.4656 0.9452 0 5
0.4724 6.8095 -2.4627 0.9464 0 5
0.4103 6.8059 -2.4599 0.9474 0 5
0.3484 6.8023 -2.4574 0.9484 0 5
0.2865 6.7987 -2.4551 0.9493 0 5
0.2342 7.0791 -2.5554 0.3394 0 8
0.1702 7.0809 -2.5554 0.3394 0 8
0.1061 7.0822 -2.5554 0.3394 0 8
0.0421 7.0828 -2.5554 0.3394 0 8
-0.0220 7.0829 -2.5554 0.3394 0 8
-0.0860 7.0824 -2.5554 0.3394 0 8
-0.1501 7.0814 -2.5554 0.3394 0 8
-0.2142 7.0797 -2.5554 0.3394 0 8
-0.2782 7.0775 -2.5554 0.3394 0 8
-0.3422 7.0747 -2.5554 0.3394 0 8
-0.4062 7.0713 -2.5554 0.3394 0 8
-0.4701 7.0673 -2.5554 0.3394 0 8
-0.5340 7.0628 -2.5554 0.3394 0 8
-0.5979 7.0577 -2.5554 0.3394 0 8
-0.6617 7.0520 -2.5554 0.3394 0 8
-0.7255 7.0457 -2.5554 0.3394 0 8
-0.7892 7.0389 -2.5554 0.3394 0 8
-0.8528 7.0314 -2.5554 0.3394 0 8
-0.9164 7.0234 -2.5554 0.3394 0 8
-0.9799 7.0148 -2.5554 0.3394 0 8
-1.0433 7.0057 -2.5554 0.3394 0 8
-1.1066 6.9960 -2.5554 0.3394 0 8
-1.1698 6.9857 -2.5554 0.3394 0 8
-1.2330 6.9748 -2.5554 0.3394 0 8
-1.2960 6.9634 -2.5554 0.3394 0 8
-1.3589 6.9514 -2.5554 0.3394 0 8
-1.4218 6.9388 -2.5554 0.3394 0 8
-1.4845 6.9256 -2.5554 0.3394 0 8
-1.5471 6.9119 -2.5554 0.3394 0 8
-1.6095 6.8977 -2.5554 0.3394 0 8
-1.6718 6.8828 -2.5554 0.3394 0 8
-1.7340 6.8674 -2.5554 0.3394 0 8
-1.7961 6.8515 -2.5554 0.3394 0 8
-1.8580 6.8349 -2.5554 0.3394 0 8
-1.9197 6.8178 -2.5554 0.3394 0 8
-1.9813 6.8002 -2.5554 0.3394 0 8
-2.0427 6.7820 -2.5554 0.3394 0 8
-2.1040 6.7632 -2.5554 0.3394 0 8
-2.1651 6.7439 -2.5554 0.3394 0 8
-2.2260 6.7241 -2.5554 0.3394 0 8
-2.2867 6.7037 -2.5554 0.3394 0 8
-2.3473 6.6827 -2.5554 0.3394 0 8
-2.4076 6.6612 -2.5554 0.3394 0 8
-2.4678 6.6392 -2.5554 0.3394 0 8
-2.5277 6.6166 -2.5554 0.3394 0 8
-2.5875 6.5934 -2.5554 0.3394 0 8
-2.6470 6.5698 -2.5554 0.3394 0 8
-2.7063 6.5455 -2.5554 0.3394 0 8
-2.7654 6.5208 -2.5554 0.3394 0 8
-2.8243 6.4955 -2.5554 0.3394 0 8
-2.8829 6.4697 -2.5554 0.3394 0 8
-2.9413 6.4434 -2.5554 0.3394 0 8
-2.9995 6.4165 -2.5554 0.3394 0 8
-3.0574 6.3891 -2.5554 0.3394 0 8
-3.1151 6.3612 -2.5554 0.3394 0 8
-3.1725 6.3327 -2.5554 0.3394 0 8
-3.2296 6.3038 -2.5554 0.3394 0 8
-3.2865 6.2743 -2.5554 0.3394 0 8
-3.3431 6.2443 -2.5554 0.3394 0 8
-3.3995 6.2138 -2.5554 0.3394 0 8
-3.4555 6.1828 -2.5554 0.3394 0 8
-3.5113 6.1513 -2.5554 0.3394 0 8
-3.5668 6.1193 -2.5554 0.3394 0 8
-3.6220 6.0868 -2.5554 0.3394 0 8
-3.6769 6.0538 -2.5554 0.3394 0 8
-3.7316 6.0203 -2.5554 0.3394 0 8
-3.7859 5.9863 -2.5554 0.3394 0 8
-3.8532 5.9725 -2.5643 0.8664 0 8
-3.9259 5.9660 -2.5767 0.8622 0 8
-3.9993 5.9595 -2.5894 0.8580 0 8
-4.0734 5.9528 -2.6024 0.8537 0 8
-4.1483 5.9461 -2.6157 0.8494 0 8
-4.2239 5.9392 -2.6294 0.8450 0 8
-4.3002 5.9322 -2.6434 0.8405 0 8
-4.3774 5.9251 -2.6578 0.8359 0 8
-4.4554 5.9179 -2.6725 0.8313 0 8
-4.5342 5.9106 -2.6877 0.8266 0 8
-4.6091 5.8970 -2.7003 0.3524 0 8
-4.6634 5.8565 -2.7010 0.3523 0 8
-4.7173 5.8154 -2.7016 0.3523 0 8
-4.7708 5.7739 -2.7023 0.3522 0 8
-4.8240 5.7319 -2.7029 0.3521 0 8
-4.8769 5.6895 -2.7036 0.3520 0 8
-4.9294 5.6465 -2.7043 0.3519 0 8
-4.9815 5.6031 -2.7049 0.3518 0 8
-5.0333 5.5593 -2.7056 0.3517 0 8
-5.0847 5.5149 -2.7063 0.3516 0 8
-5.1357 5.4701 -2.7070 0.3516 0 8
-5.1863 5.4249 -2.7078 0.3515 0 8
-5.2353 5.3779 -2.7078 0.3394 0 7
-5.2837 5.3303 -2.7078 0.3394 0 7
-5.3318 5.2823 -2.7078 0.3394 0 7
-5.3793 5.2339 -2.7078 0.3394 0 7
-5.4264 5.1850 -2.7078 0.3394 0 7
-5.4731 5.1357 -2.7078 0.3394 0 7
-5.5194 5.0860 -2.7078 0.3394 0 7
-5.5651 5.0359 -2.7078 0.3394 0 7
-5.6104 4.9853 -2.7078 0.3394 0 7
-5.6553 4.9344 -2.7078 0.3394 0 7
-5.6997 4.8830 -2.7078 0.3394 0 7
-5.7437 4.8313 -2.7078 0.3394 0 7
-5.7871 4.7791 -2.7078 0.3394 0 7
-5.8301 4.7266 -2.7078 0.3394 0 7
-5.8726 4.6736 -2.7078 0.3394 0 7
-5.9146 4.6203 -2.7078 0.3394 0 7
-5.9562 4.5666 -2.7078 0.3394 0 7
-5.9973 4.5126 -2.7078 0.3394 0 7
-6.0378 4.4581 -2.7078 0.3394 0 7
-6.0779 4.4034 -2.7078 0.3394 0 7
-6.1175 4.3482 -2.7078 0.3394 0 7
-6.1566 4.2927 -2.7078 0.3394 0 7
-6.1952 4.2368 -2.7078 0.3394 0 7
-6.2332 4.1806 -2.7078 0.3394 0 7
-6.2708 4.1241 -2.7078 0.3394 0 7
-6.3078 4.0672 -2.7078 0.3394 0 7
-6.3444 4.0099 -2.7078 0.3394 0 7
-6.3804 3.9524 -2.7078 0.3394 0 7
-6.4159 3.8945 -2.7078 0.3394 0 7
-6.4508 3.8363 -2.7078 0.3394 0 7
-6.4853 3.7778 -2.7078 0.3394 0 7
-6.5192 3.7190 -2.7078 0.3394 0 7
-6.5525 3.6599 -2.7078 0.3394 0 7
-6.5854 3.6005 -2.7078 0.3394 0 7
-6.6177 3.5408 -2.7078 0.3394 0 7
-6.6494 3.4808 -2.7078 0.3394 0 7
-6.6806 3.4205 -2.7078 0.3394 0 7
-6.7113 3.3599 -2.7078 0.3394 0 6
-6.7414 3.2991 -2.7078 0.3394 0 6
-6.7710 3.2379 -2.7078 0.3394 0 7
-6.8000 3.1766 -2.7078 0.3394 0 7
-6.8285 3.1149 -2.7078 0.3394 0 7
-6.8563 3.0530 -2.7078 0.3394 0 7
-6.8837 2.9909 -2.7078 0.3394 0 7
-6.9104 2.9285 -2.7078 0.3394 0 7
-6.9367 2.8659 -2.7078 0.3394 0 7
-6.9623 2.8030 -2.7078 0.3394 0 7
-6.9874 2.7399 -2.7078 0.3394 0 7
-7.0119 2.6766 -2.7078 0.3394 0 7
-7.0358 2.6131 -2.7078 0.3394 0 7
-7.0591 2.5493 -2.7078 0.3394 0 7
-7.0819 2.4854 -2.7078 0.3394 0 7
-7.1041 2.4212 -2.7078 0.3394 0 7
-7.1257 2.3569 -2.7078 0.3394 0 7
-7.1467 2.2923 -2.7078 0.3394 0 7
-7.1672 2.2276 -2.7078 0.3394 0 7
-7.1870 2.1626 -2.7078 0.3394 0 7
-7.2063 2.0975 -2.7078 0.3394 0 7
-7.2250 2.0323 -2.7078 0.3394 0 7
-7.2431 1.9668 -2.7078 0.3394 0 7
-7.2606 1.9013 -2.7078 0.3394 0 7
-7.2775 1.8355 -2.7078 0.3394 0 7
-7.2938 1.7696 -2.7078 0.3394 0 7
-7.3095 1.7035 -2.7078 0.3394 0 7
-7.3246 1.6374 -2.7078 0.3394 0 7
-7.3391 1.5710 -2.7078 0.3394 0 7
-7.3530 1.5046 -2.7078 0.3394 0 7
-7.3663 1.4380 -2.7078 0.3394 0 7
-7.3790 1.3713 -2.7078 0.3394 0 7
-7.3911 1.3045 -2.7078 0.3394 0 7
-7.4026 1.2376 -2.7078 0.3394 0 7
-7.4135 1.1706 -2.7078 0.3394 0 7
-7.4238 1.1035 -2.7078 0.3394 0 7
-7.4335 1.0363 -2.7078 0.3394 0 7
-7.4425 0.9690 -2.7078 0.3394 0 7
-7.4510 0.9017 -2.7078 0.3394 0 7
-7.4588 0.8343 -2.7078 0.3394 0 7
-7.4661 0.7667 -2.7078 0.3394 0 7
-7.4727 0.6992 -2.7078 0.3394 0 7
-7.4787 0.6316 -2.7078 0.3394 0 7
-7.4842 0.5639 -2.7078 0.3394 0 7
-7.4889 0.4962 -2.7078 0.3394 0 7
-7.4931 0.4284 -2.7078 0.3394 0 7
-7.4967 0.3606 -2.7078 0.3394 0 7
-7.4997 0.2928 -2.7078 0.3394 0 7
-7.5020 0.2249 -2.7078 0.3394 0 7
-7.5037 0.1571 -2.7078 0.3394 0 7
-7.5048 0.0892 -2.7078 0.3394 0 7
-7.5053 0.0213 -2.7078 0.3394 0 7
-7.5052 -0.0466 -2.7078 0.3394 0 7
-7.5045 -0.1145 -2.7078 0.3394 0 7
-7.5032 -0.1823 -2.7078 0.3394 0 7
-7.5012 -0.2502 -2.7078 0.3394 0 7
-7.4986 -0.3181 -2.7078 0.3394 0 7
-7.4954 -0.3859 -2.7078 0.3394 0 7
-7.4916 -0.4536 -2.7078 0.3394 0 7
-7.4872 -0.5214 -2.7078 0.3394 0 7
-7.4822 -0.5891 -2.7078 0.3394 0 7
-7.4766 -0.6568 -2.7078 0.3394 0 7
-7.4703 -0.7244 -2.7078 0.3394 0 7
-7.4635 -0.7919 -2.7078 0.3394 0 7
-7.4560 -0.8594 -2.7078 0.3394 0 7
-7.4479 -0.9268 -2.7078 0.3394 0 7
-7.4392 -0.9941 -2.7078 0.3394 0 7
-7.4299 -1.0613 -2.7078 0.3394 0 7
-7.4200 -1.1285 -2.7078 0.3394 0 7
-7.4095 -1.1956 -2.7078 0.3394 0 7
-7.3984 -1.2626 -2.7078 0.3394 0 7
-7.3867 -1.3294 -2.7078 0.3394 0 7
-7.3744 -1.3962 -2.7078 0.3394 0 7
-7.3614 -1.4628 -2.7078 0.3394 0 7
-7.3479 -1.5294 -2.7078 0.3394 0 7
-7.3338 -1.5958 -2.7078 0.3394 0 7
-7.3190 -1.6620 -2.7078 0.3394 0 7
-7.3037 -1.7282 -2.7078 0.3394 0 7
-7.2878 -1.7942 -2.7078 0.3394 0 7
-7.2712 -1.8600 -2.7078 0.3394 0 7
-7.2541 -1.9257 -2.7078 0.3394 0 7
-7.2364 -1.9912 -2.7078 0.3394 0 7
-7.2181 -2.0566 -2.7078 0.3394 0 7
-7.1992 -2.1218 -2.7078 0.3394 0 7
-7.1797 -2.1869 -2.7078 0.3394 0 7
-7.1596 -2.2517 -2.7078 0.3394 0 7
-7.1390 -2.3164 -2.7078 0.3394 0 7
-7.1177 -2.3809 -2.7078 0.3394 0 7
-7.0959 -2.4451 -2.7078 0.3394 0 7
-7.0735 -2.5092 -2.7078 0.3394 0 7
-7.0505 -2.5731 -2.7078 0.3394 0 7
-7.0270 -2.6368 -2.7078 0.3394 0 7
-7.0028 -2.7002 -2.7078 0.3394 0 7
-6.9781 -2.7634 -2.7078 0.3394 0 7
-6.9528 -2.8265 -2.7078 0.3394 0 7
-6.9270 -2.8892 -2.7078 0.3394 0 7
-6.9005 -2.9518 -2.7078 0.3394 0 7
-6.8736 -3.0141 -2.7078 0.3394 0 7
-6.8460 -3.0761 -2.7078 0.3394 0 7
-6.8179 -3.1379 -2.7078 0.3394 0 7
-6.7893 -3.1995 -2.7078 0.3394 0 7
-6.7600 -3.2607 -2.7078 0.3394 0 7
-6.7303 -3.3217 -2.7078 0.3394 0 7
-6.7000 -3.3825 -2.7078 0.3394 0 7
-6.6691 -3.4430 -2.7078 0.3394 0 7
-6.6377 -3.5031 -2.7078 0.3394 0 6
-6.6057 -3.5630 -2.7078 0.3394 0 6
-6.5732 -3.6226 -2.7078 0.3394 0 7
-6.5402 -3.6819 -2.7078 0.3394 0 7
-6.5066 -3.7410 -2.7078 0.3394 0 6
-6.4725 -3.7997 -2.7078 0.3394 0 6
-6.4379 -3.8580 -2.7078 0.3394 0 7
-6.4027 -3.9161 -2.7078 0.3394 0 7
-6.3670 -3.9739 -2.7078 0.3394 0 7
-6.3308 -4.0313 -2.7078 0.3394 0 7
-6.2941 -4.0884 -2.7078 0.3394 0 7
-6.2568 -4.1452 -2.7078 0.3394 0 7
-6.2191 -4.2016 -2.7078 0.3394 0 7
-6.1808 -4.2577 -2.7078 0.3394 0 7
-6.1421 -4.3134 -2.7078 0.3394 0 7
-6.1028 -4.3688 -2.7078 0.3394 0 7
-6.0630 -4.4238 -2.7078 0.3394 0 7
-6.0228 -4.4785 -2.7078 0.3394 0 7
-5.9820 -4.5328 -2.7078 0.3394 0 7
-5.9408 -4.5867 -2.7078 0.3394 0 7
-5.8991 -4.6402 -2.7078 0.3394 0 7
-5.8568 -4.6934 -2.7078 0.3394 0 7
-5.8141 -4.7462 -2.7078 0.3394 0 7
-5.7710 -4.7986 -2.7078 0.3394 0 7
-5.7273 -4.8506 -2.7078 0.3394 0 7
-5.6832 -4.9022 -2.7078 0.3394 0 7
-5.6386 -4.9534 -2.7078 0.3394 0 7
-5.5936 -5.0042 -2.7078 0.3394 0 7
-5.5481 -5.0546 -2.7078 0.3394 0 7
-5.5022 -5.1046 -2.7078 0.3394 0 7
-5.4558 -5.1541 -2.7078 0.3394 0 7
-5.4089 -5.2033 -2.7078 0.3394 0 7
-5.3616 -5.2520 -2.7078 0.3394 0 7
-5.3139 -5.3003 -2.7078 0.3394 0 7
-5.2658 -5.3481 -2.7078 0.3394 0 7
-5.2172 -5.3955 -2.7078 0.3394 0 7
-5.1681 -5.4425 -2.7078 0.3394 0 7
-5.1187 -5.4890 -2.7078 0.3394 0 7
-5.0689 -5.5351 -2.7078 0.3394 0 7
-5.0186 -5.5807 -2.7078 0.3394 0 7
-4.9679 -5.6259 -2.7078 0.3394 0 7
-4.9168 -5.6706 -2.7078 0.3394 0 7
-4.8653 -5.7148 -2.7078 0.3394 0 7
-4.8134 -5.7586 -2.7078 0.3394 0 7
-4.7611 -5.8019 -2.7078 0.3394 0 7
-4.7085 -5.8447 -2.7078 0.3394 0 7
-4.6554 -5.8871 -2.7078 0.3394 0 7
-4.6020 -5.9290 -2.7078 0.3394 0 7
-4.5481 -5.9703 -2.7078 0.3394 0 7
-4.4939 -6.0112 -2.7078 0.3394 0 7
-4.4394 -6.0516 -2.7078 0.3394 0 7
-4.3845 -6.0915 -2.7078 0.3394 0 7
-4.3292 -6.1310 -2.7078 0.3394 0 7
-4.2736 -6.1699 -2.7078 0.3394 0 7
-4.2176 -6.2083 -2.7078 0.3394 0 7
-4.1613 -6.2462 -2.7078 0.3394 0 7
-4.1046 -6.2835 -2.7078 0.3394 0 7
-4.0476 -6.3204 -2.7078 0.3394 0 7
-3.9902 -6.3568 -2.7078 0.3394 0 7
-3.9326 -6.3926 -2.7078 0.3394 0 7
-3.8746 -6.4279 -2.7078 0.3394 0 7
-3.8163 -6.4627 -2.7078 0.3394 0 7
-3.7577 -6.4969 -2.7078 0.3394 0 7
-3.6988 -6.5307 -2.7078 0.3394 0 7
-3.6395 -6.5639 -2.7078 0.3394 0 7
-3.5800 -6.5965 -2.7078 0.3394 0 7
-3.5202 -6.6286 -2.7078 0.3394 0 7
-3.4601 -6.6602 -2.7078 0.3394 0 7
-3.3997 -6.6912 -2.7078 0.3394 0 7
-3.3391 -6.7217 -2.7078 0.3394 0 7
-3.2781 -6.7516 -2.7078 0.3394 0 7
-3.2169 -6.7810 -2.7078 0.3394 0 7
-3.1555 -6.8098 -2.7078 0.3394 0 7
-3.0937 -6.8381 -2.7078 0.3394 0 7
-3.0317 -6.8658 -2.7078 0.3394 0 7
-2.9695 -6.8929 -2.7078 0.3394 0 7
-2.9071 -6.9195 -2.7078 0.3394 0 7
-2.8443 -6.9455 -2.7078 0.3394 0 7
-2.7814 -6.9710 -2.7078 0.3394 0 7
-2.7182 -6.9958 -2.7078 0.3394 0 7
-2.6548 -7.0201 -2.7078 0.3394 0 7
-2.5912 -7.0439 -2.7078 0.3394 0 7
-2.5274 -7.0670 -2.7078 0.3394 0 7
-2.4634 -7.0896 -2.7078 0.3394 0 7
-2.3991 -7.1116 -2.7078 0.3394 0 7
-2.3347 -7.1330 -2.7078 0.3394 0 7
-2.2701 -7.1538 -2.7078 0.3394 0 7
-2.2053 -7.1741 -2.7078 0.3394 0 7
-2.1403 -7.1937 -2.7078 0.3394 0 7
-2.0752 -7.2128 -2.7078 0.3394 0 7
-2.0099 -7.2313 -2.7078 0.3394 0 7
-1.9443 -7.2491 -2.7078 0.3394 0 7
-1.8787 -7.2664 -2.7078 0.3394 0 7
-1.8129 -7.2831 -2.7078 0.3394 0 7
-1.7470 -7.2992 -2.7078 0.3394 0 7
-1.6809 -7.3147 -2.7078 0.3394 0 7
-1.6146 -7.3296 -2.7078 0.3394 0 7
-1.5483 -7.3439 -2.7078 0.3394 0 7
-1.4818 -7.3576 -2.7078 0.3394 0 7
-1.4152 -7.3708 -2.7078 0.3394 0 7
-1.3484 -7.3832 -2.7078 0.3394 0 7
-1.2816 -7.3951 -2.7078 0.3394 0 7
-1.2146 -7.4064 -2.7078 0.3394 0 7
-1.1476 -7.4171 -2.7078 0.3394 0 7
-1.0804 -7.4272 -2.7078 0.3394 0 7
-1.0132 -7.4367 -2.7078 0.3394 0 7
-0.9459 -7.4455 -2.7078 0.3394 0 7
-0.8785 -7.4538 -2.7078 0.3394 0 7
-0.8111 -7.4614 -2.7078 0.3394 0 7
-0.7436 -7.4684 -2.7078 0.3394 0 7
-0.6760 -7.4749 -2.7078 0.3394 0 7
-0.6083 -7.4807 -2.7078 0.3394 0 7
-0.5407 -7.4859 -2.7078 0.3394 0 7
-0.4729 -7.4905 -2.7078 0.3394 0 7
-0.4052 -7.4944 -2.7078 0.3394 0 7
-0.3373 -7.4978 -2.7078 0.3394 0 7
-0.2695 -7.5005 -2.7078 0.3394 0 7
-0.2017 -7.5027 -2.7078 0.3394 0 7
-0.1338 -7.5042 -2.7078 0.3394 0 7
-0.0659 -7.5051 -2.7078 0.3394 0 7
0.0020 -7.5054 -2.7078 0.3394 0 7
0.0699 -7.5050 -2.7078 0.3394 0 7
0.1378 -7.5041 -2.7078 0.3394 0 7
0.2056 -7.5025 -2.7078 0.3394 0 7
0.2735 -7.5004 -2.7078 0.3394 0 7
0.3413 -7.4976 -2.7078 0.3394 0 7
0.4091 -7.4942 -2.7078 0.3394 0 7
0.4769 -7.4902 -2.7078 0.3394 0 7
0.5446 -7.4856 -2.7078 0.3394 0 7
0.6123 -7.4803 -2.7078 0.3394 0 7
0.6799 -7.4745 -2.7078 0.3394 0 7
0.7475 -7.4680 -2.7078 0.3394 0 7
0.8150 -7.4610 -2.7078 0.3394 0 7
0.8825 -7.4533 -2.7078 0.3394 0 7
0.9499 -7.4450 -2.7078 0.3394 0 7
1.0172 -7.4361 -2.7078 0.3394 0 7
1.0844 -7.4266 -2.7078 0.3394 0 7
1.1515 -7.4165 -2.7078 0.3394 0 7
1.2186 -7.4058 -2.7078 0.3394 0 7
1.2855 -7.3944 -2.7078 0.3394 0 7
1.3523 -7.3825 -2.7078 0.3394 0 7
1.4191 -7.3700 -2.7078 0.3394 0 7
1.4857 -7.3569 -2.7078 0.3394 0 7
1.5522 -7.3431 -2.7078 0.3394 0 7
1.6185 -7.3288 -2.7078 0.3394 0 7
1.6847 -7.3138 -2.7078 0.3394 0 7
1.7508 -7.2983 -2.7078 0.3394 0 7
1.8168 -7.2822 -2.7078 0.3394 0 7
1.8826 -7.2654 -2.7078 0.3394 0 7
1.9482 -7.2481 -2.7078 0.3394 0 7
2.0137 -7.2302 -2.7078 0.3394 0 7
2.0790 -7.2117 -2.7078 0.3394 0 7
2.1442 -7.1926 -2.7078 0.3394 0 7
2.2091 -7.1729 -2.7078 0.3394 0 7
2.2739 -7.1526 -2.7078 0.3394 0 7
2.3385 -7.1318 -2.7078 0.3394 0 7
2.4029 -7.1103 -2.7078 0.3394 0 7
2.4671 -7.0883 -2.7078 0.3394 0 7
2.5312 -7.0657 -2.7078 0.3394 0 7
2.5950 -7.0425 -2.7078 0.3394 0 7
2.6586 -7.0187 -2.7078 0.3394 0 7
2.7219 -6.9944 -2.7078 0.3394 0 7
2.7851 -6.9695 -2.7078 0.3394 0 7
2.8480 -6.9440 -2.7078 0.3394 0 7
2.9107 -6.9180 -2.7078 0.3394 0 7
2.9732 -6.8913 -2.7078 0.3394 0 7
3.0354 -6.8642 -2.7078 0.3394 0 7
3.0974 -6.8364 -2.7078 0.3394 0 7
3.1591 -6.8081 -2.7078 0.3394 0 7
3.2205 -6.7793 -2.7078 0.3394 0 7
3.2817 -6.7499 -2.7078 0.3394 0 7
3.3426 -6.7199 -2.7078 0.3394 0 7
3.4033 -6.6894 -2.7078 0.3394 0 7
3.4636 -6.6584 -2.7078 0.3394 0 7
3.5237 -6.6267 -2.7078 0.3394 0 7
3.5835 -6.5946 -2.7078 0.3394 0 7
3.6430 -6.5619 -2.7078 0.3394 0 7
3.7022 -6.5287 -2.7078 0.3394 0 7
3.7611 -6.4949 -2.7078 0.3394 0 7
3.8197 -6.4607 -2.7078 0.3394 0 7
3.8780 -6.4258 -2.7078 0.3394 0 7
3.9360 -6.3905 -2.7078 0.3394 0 7
3.9936 -6.3546 -2.7078 0.3394 0 7
4.0509 -6.3183 -2.7078 0.3394 0 7
4.1079 -6.2814 -2.7078 0.3394 0 7
4.1646 -6.2439 -2.7078 0.3394 0 7
4.2209 -6.2060 -2.7078 0.3394 0 7
4.2768 -6.1676 -2.7078 0.3394 0 7
4.3325 -6.1287 -2.7078 0.3394 0 7
4.3877 -6.0892 -2.7078 0.3394 0 7
4.4426 -6.0493 -2.7078 0.3394 0 7
4.4971 -6.0088 -2.7078 0.3394 0 7
4.5513 -5.9679 -2.7078 0.3394 0 7
4.6051 -5.9265 -2.7078 0.3394 0 7
4.6585 -5.8846 -2.7078 0.3394 0 7
4.7116 -5.8422 -2.7078 0.3394 0 7
4.7642 -5.7994 -2.7078 0.3394 0 7
4.8165 -5.7560 -2.7078 0.3394 0 7
4.8683 -5.7122 -2.7078 0.3394 0 7
4.9198 -5.6680 -2.7078 0.3394 0 7
4.9709 -5.6232 -2.7078 0.3394 0 7
5.0215 -5.5780 -2.7078 0.3394 0 7
5.0718 -5.5324 -2.7078 0.3394 0 7
5.1216 -5.4863 -2.7078 0.3394 0 7
5.1710 -5.4397 -2.7078 0.3394 0 7
5.2200 -5.3928 -2.7078 0.3394 0 7
5.2686 -5.3453 -2.7078 0.3394 0 7
5.3167 -5.2974 -2.7078 0.3394 0 7
5.3644 -5.2491 -2.7078 0.3394 0 7
5.4117 -5.2004 -2.7078 0.3394 0 7
5.4585 -5.1512 -2.7078 0.3394 0 7
5.5049 -5.1016 -2.7078 0.3394 0 7
5.5508 -5.0516 -2.7078 0.3394 0 7
5.5963 -5.0012 -2.7078 0.3394 0 7
5.6413 -4.9504 -2.7078 0.3394 0 7
5.6858 -4.8992 -2.7078 0.3394 0 7
5.7299 -4.8475 -2.7078 0.3394 0 7
5.7735 -4.7955 -2.7078 0.3394 0 7
5.8167 -4.7431 -2.7078 0.3394 0 7
5.8593 -4.6903 -2.7078 0.3394 0 7
5.9015 -4.6371 -2.7078 0.3394 0 7
5.9432 -4.5835 -2.7078 0.3394 0 7
5.9844 -4.5296 -2.7078 0.3394 0 7
6.0252 -4.4753 -2.7078 0.3394 0 7
6.0654 -4.4206 -2.7078 0.3394 0 7
6.1051 -4.3655 -2.7078 0.3394 0 7
6.1444 -4.3101 -2.7078 0.3394 0 7
6.1831 -4.2544 -2.7078 0.3394 0 7
6.2213 -4.1983 -2.7078 0.3394 0 7
6.2591 -4.1418 -2.7078 0.3394 0 7
6.2962 -4.0850 -2.7078 0.3394 0 7
6.3329 -4.0279 -2.7078 0.3394 0 7
6.3691 -3.9705 -2.7078 0.3394 0 7
6.4048 -3.9127 -2.7078 0.3394 0 7
6.4399 -3.8546 -2.7078 0.3394 0 7
6.4745 -3.7962 -2.7078 0.3394 0 7
6.5086 -3.7375 -2.7078 0.3394 0 7
6.5421 -3.6785 -2.7078 0.3394 0 7
6.5751 -3.6191 -2.7078 0.3394 0 7
6.6076 -3.5595 -2.7078 0.3394 0 7
6.6395 -3.4996 -2.7078 0.3394 0 7
6.6709 -3.4394 -2.7078 0.3394 0 7
6.7017 -3.3789 -2.7078 0.3394 0 7
6.7320 -3.3182 -2.7078 0.3394 0 7
6.7618 -3.2571 -2.7078 0.3394 0 7
6.7910 -3.1958 -2.7078 0.3394 0 7
6.8196 -3.1343 -2.7078 0.3394 0 7
6.8477 -3.0725 -2.7078 0.3394 0 6
6.8752 -3.0104 -2.7078 0.3394 0 6
6.9021 -2.9481 -2.7078 0.3394 0 7
6.9285 -2.8855 -2.7078 0.3394 0 7
6.9543 -2.8228 -2.7078 0.3394 0 6
6.9796 -2.7597 -2.7078 0.3394 0 6
7.0042 -2.6965 -2.7078 0.3394 0 7
7.0283 -2.6330 -2.7078 0.3394 0 7
7.0519 -2.5693 -2.7078 0.3394 0 7
7.0748 -2.5055 -2.7078 0.3394 0 7
7.0972 -2.4414 -2.7078 0.3394 0 7
7.1190 -2.3771 -2.7078 0.3394 0 7
7.1402 -2.3126 -2.7078 0.3394 0 7
7.1608 -2.2479 -2.7078 0.3394 0 7
7.1809 -2.1830 -2.7078 0.3394 0 7
7.2003 -2.1180 -2.7078 0.3394 0 7
7.2192 -2.0528 -2.7078 0.3394 0 7
7.2375 -1.9874 -2.7078 0.3394 0 7
7.2551 -1.9218 -2.7078 0.3394 0 7
7.2722 -1.8561 -2.7078 0.3394 0 7
7.2887 -1.7903 -2.7078 0.3394 0 7
7.3046 -1.7243 -2.7078 0.3394 0 7
7.3199 -1.6581 -2.7078 0.3394 0 7
7.3346 -1.5919 -2.7078 0.3394 0 7
7.3487 -1.5255 -2.7078 0.3394 0 7
7.3622 -1.4589 -2.7078 0.3394 0 7
7.3751 -1.3923 -2.7078 0.3394 0 7
7.3874 -1.3255 -2.7078 0.3394 0 7
7.3991 -1.2586 -2.7078 0.3394 0 7
7.4102 -1.1916 -2.7078 0.3394 0 7
7.4206 -1.1246 -2.7078 0.3394 0 7
7.4305 -1.0574 -2.7078 0.3394 0 7
7.4397 -0.9901 -2.7078 0.3394 0 7
7.4484 -0.9228 -2.7078 0.3394 0 7
7.4565 -0.8554 -2.7078 0.3394 0 7
7.4639 -0.7879 -2.7078 0.3394 0 7
7.4707 -0.7204 -2.7078 0.3394 0 7
7.4769 -0.6528 -2.7078 0.3394 0 7
7.4825 -0.5851 -2.7078 0.3394 0 7
7.4875 -0.5174 -2.7078 0.3394 0 7
7.4919 -0.4497 -2.7078 0.3394 0 7
7.4956 -0.3819 -2.7078 0.3394 0 7
7.4988 -0.3141 -2.7078 0.3394 0 7
7.5013 -0.2462 -2.7078 0.3394 0 7
7.5033 -0.1784 -2.7078 0.3394 0 7
7.5046 -0.1105 -2.7078 0.3394 0 7
7.5052 -0.0426 -2.7078 0.3394 0 7
7.5053 0.0253 -2.7078 0.3394 0 7
7.5048 0.0932 -2.7078 0.3394 0 7
7.5036 0.1611 -2.7078 0.3394 0 7
7.5019 0.2289 -2.7078 0.3394 0 7
7.4995 0.2968 -2.7078 0.3394 0 7
7.4965 0.3646 -2.7078 0.3394 0 7
7.4929 0.4324 -2.7078 0.3394 0 7
7.4887 0.5002 -2.7078 0.3394 0 7
7.4838 0.5679 -2.7078 0.3394 0 7
7.4784 0.6355 -2.7078 0.3394 0 7
7.4724 0.7032 -2.7078 0.3394 0 7
7.4657 0.7707 -2.7078 0.3394 0 7
7.4584 0.8382 -2.7078 0.3394 0 7
7.4505 0.9056 -2.7078 0.3394 0 7
7.4420 0.9730 -2.7078 0.3394 0 7
7.4329 1.0403 -2.7078 0.3394 0 7
7.4232 1.1075 -2.7078 0.3394 0 7
7.4129 1.1746 -2.7078 0.3394 0 7
7.4020 1.2416 -2.7078 0.3394 0 7
7.3904 1.3085 -2.7078 0.3394 0 7
7.3783 1.3753 -2.7078 0.3394 0 7
7.3655 1.4419 -2.7078 0.3394 0 7
7.3522 1.5085 -2.7078 0.3394 0 7
7.3383 1.5750 -2.7078 0.3394 0 7
7.3237 1.6413 -2.7078 0.3394 0 7
7.3086 1.7074 -2.7078 0.3394 0 7
7.2928 1.7735 -2.7078 0.3394 0 7
7.2765 1.8394 -2.7078 0.3394 0 7
7.2596 1.9051 -2.7078 0.3394 0 7
7.2420 1.9707 -2.7078 0.3394 0 7
7.2239 2.0361 -2.7078 0.3394 0 7
7.2052 2.1014 -2.7078 0.3394 0 7
7.1859 2.1665 -2.7078 0.3394 0 7
7.1660 2.2314 -2.7078 0.3394 0 7
7.1455 2.2961 -2.7078 0.3394 0 7
7.1245 2.3607 -2.7078 0.3394 0 7
7.1028 2.4250 -2.7078 0.3394 0 7
7.0806 2.4891 -2.7078 0.3394 0 7
7.0578 2.5531 -2.7078 0.3394 0 7
7.0344 2.6168 -2.7078 0.3394 0 7
7.0104 2.6803 -2.7078 0.3394 0 7
6.9859 2.7436 -2.7078 0.3394 0 7
6.9608 2.8067 -2.7078 0.3394 0 7
6.9351 2.8696 -2.7078 0.3394 0 7
6.9089 2.9322 -2.7078 0.3394 0 7
6.8821 2.9946 -2.7078 0.3394 0 7
6.8547 3.0567 -2.7078 0.3394 0 7
6.8268 3.1186 -2.7078 0.3394 0 7
6.7983 3.1802 -2.7078 0.3394 0 7
6.7693 3.2415 -2.7078 0.3394 0 7
6.7397 3.3026 -2.7078 0.3394 0 7
6.7095 3.3635 -2.7078 0.3394 0 7
6.6788 3.4240 -2.7078 0.3394 0 7
6.6476 3.4843 -2.7078 0.3394 0 7
6.6158 3.5443 -2.7078 0.3394 0 7
6.5835 3.6040 -2.7078 0.3394 0 7
6.5506 3.6634 -2.7078 0.3394 0 7
6.5172 3.7225 -2.7078 0.3394 0 7
6.4832 3.7813 -2.7078 0.3394 0 7
6.4488 3.8398 -2.7078 0.3394 0 7
6.4138 3.8979 -2.7078 0.3394 0 7
6.3782 3.9558 -2.7078 0.3394 0 7
6.3422 4.0133 -2.7078 0.3394 0 7
6.3057 4.0705 -2.7078 0.3394 0 6
6.2686 4.1274 -2.7078 0.3394 0 6
6.2310 4.1839 -2.7078 0.3394 0 7
6.1929 4.2401 -2.7078 0.3394 0 7
6.1543 4.2960 -2.7078 0.3394 0 7
6.1152 4.3515 -2.7078 0.3394 0 7
6.0756 4.4066 -2.7078 0.3394 0 7
6.0354 4.4614 -2.7078 0.3394 0 7
5.9949 4.5158 -2.7078 0.3394 0 7
5.9538 4.5698 -2.7078 0.3394 0 7
5.9122 4.6235 -2.7078 0.3394 0 7
5.8701 4.6768 -2.7078 0.3394 0 7
5.8276 4.7297 -2.7078 0.3394 0 7
5.7846 4.7822 -2.7078 0.3394 0 7
5.7411 4.8343 -2.7078 0.3394 0 7
5.6971 4.8861 -2.7078 0.3394 0 7
5.6527 4.9374 -2.7078 0.3394 0 7
5.6078 4.9883 -2.7078 0.3394 0 7
5.5624 5.0388 -2.7078 0.3394 0 7
5.5166 5.0889 -2.7078 0.3394 0 7
5.4704 5.1386 -2.7078 0.3394 0 7
5.4237 5.1879 -2.7078 0.3394 0 7
5.3765 5.2367 -2.7078 0.3394 0 7
5.3289 5.2852 -2.7078 0.3394 0 7
5.2809 5.3332 -2.7078 0.3394 0 7
5.2324 5.3807 -2.7078 0.3394 0 7
5.1836 5.4278 -2.7078 0.3394 0 7
5.1343 5.4745 -2.7078 0.3394 0 7
5.0845 5.5207 -2.7078 0.3394 0 7
5.0344 5.5665 -2.7078 0.3394 0 7
4.9838 5.6118 -2.7078 0.3394 0 7
4.9329 5.6566 -2.7078 0.3394 0 7
4.8815 5.7010 -2.7078 0.3394 0 7
4.8297 5.7449 -2.7078 0.3394 0 7
4.7776 5.7884 -2.7078 0.3394 0 7
4.7250 5.8314 -2.7078 0.3394 0 7
4.6721 5.8739 -2.7078 0.3394 0 7
4.6188 5.9159 -2.7078 0.3394 0 7
