ply
format ascii 1.0
element vertex 1385
property float32 x
property float32 y
property float32 z
property float32 CosAngle
property uint32 ObjIdx
property uint32 ObjTag
end_header
8.8728 11.3837 -2.7550 0.1875 0 7
8.7694 11.4635 -2.7550 0.1875 0 7
8.6654 11.5424 -2.7550 0.1875 0 7
8.5606 11.6203 -2.7550 0.1875 0 7
8.4551 11.6973 -2.7550 0.1875 0 7
8.3490 11.7733 -2.7550 0.1875 0 7
8.2421 11.8483 -2.7550 0.1875 0 7
8.1346 11.9224 -2.7550 0.1875 0 7
8.0264 11.9955 -2.7550 0.1875 0 7
7.9176 12.0676 -2.7550 0.1875 0 7
7.8081 12.1388 -2.7550 0.1875 0 7
7.6980 12.2089 -2.7550 0.1875 0 7
7.5872 12.2780 -2.7550 0.1875 0 7
7.4758 12.3462 -2.7550 0.1875 0 7
7.3638 12.4133 -2.7550 0.1875 0 7
7.2512 12.4794 -2.7550 0.1875 0 7
7.1381 12.5445 -2.7550 0.1875 0 7
7.0243 12.6085 -2.7550 0.1875 0 7
6.9099 12.6716 -2.7550 0.1875 0 7
6.7950 12.7336 -2.7550 0.1875 0 7
6.6795 12.7945 -2.7550 0.1875 0 7
6.5635 12.8544 -2.7550 0.1875 0 7
6.4470 12.9133 -2.7550 0.1875 0 7
6.3299 12.9711 -2.7550 0.1875 0 7
6.2123 13.0278 -2.7550 0.1875 0 7
6.0942 13.0834 -2.7550 0.1875 0 7
5.9756 13.1380 -2.7550 0.1875 0 7
5.8565 13.1916 -2.7550 0.1875 0 7
5.7369 13.2440 -2.7550 0.1875 0 7
5.6169 13.2954 -2.7550 0.1875 0 7
5.4964 13.3456 -2.7550 0.1875 0 7
5.3754 13.3948 -2.7550 0.1875 0 7
5.2540 13.4429 -2.7550 0.1875 0 7
5.1322 13.4899 -2.7550 0.1875 0 7
5.0100 13.5357 -2.7550 0.1875 0 6
4.8873 13.5805 -2.7550 0.1875 0 7
4.7642 13.6242 -2.7550 0.1875 0 7
4.6408 13.6667 -2.7550 0.1875 0 7
4.5170 13.7081 -2.7550 0.1875 0 7
4.3928 13.7484 -2.7550 0.1875 0 7
4.2682 13.7876 -2.7550 0.1875 0 7
4.1433 13.8257 -2.7550 0.1875 0 7
4.0181 13.8626 -2.7550 0.1875 0 7
3.8925 13.8983 -2.7550 0.1875 0 7
3.7666 13.9330 -2.7550 0.1875 0 7
3.6404 13.9665 -2.7550 0.1875 0 7
3.5139 13.9988 -2.7550 0.1875 0 7
3.3872 14.0301 -2.7550 0.1875 0 7
3.2601 14.0601 -2.7550 0.1875 0 7
3.1328 14.0891 -2.7550 0.1875 0 7
3.0052 14.1168 -2.7550 0.1875 0 7
2.8762 14.1377 -2.7538 0.1835 0 8
2.7460 14.1519 -2.7516 0.1836 0 8
2.4760 13.4080 -2.6026 0.1875 0 8
2.3546 13.4299 -2.6026 0.1875 0 8
2.2330 13.4506 -2.6026 0.1875 0 8
2.1113 13.4703 -2.6026 0.1875 0 8
1.9893 13.4888 -2.6026 0.1875 0 8
1.8672 13.5063 -2.6026 0.1875 0 8
1.7450 13.5226 -2.6026 0.1875 0 8
1.6226 13.5378 -2.6026 0.1875 0 8
1.5000 13.5520 -2.6026 0.1875 0 8
1.3774 13.5650 -2.6026 0.1875 0 8
1.2546 13.5769 -2.6026 0.1875 0 8
1.1317 13.5877 -2.6026 0.1875 0 8
1.0088 13.5974 -2.6026 0.1875 0 8
0.8857 13.6059 -2.6026 0.1875 0 8
0.7626 13.6134 -2.6026 0.1875 0 8
0.6394 13.6197 -2.6026 0.1875 0 8
0.5162 13.6250 -2.6026 0.1875 0 8
0.3929 13.6291 -2.6026 0.1875 0 8
0.2696 13.6321 -2.6026 0.1875 0 8
0.1463 13.6339 -2.6026 0.1875 0 8
0.0229 13.6347 -2.6026 0.1875 0 8
-0.1004 13.6344 -2.6026 0.1875 0 8
-0.2237 13.6329 -2.6026 0.1875 0 8
-0.3471 13.6303 -2.6026 0.1875 0 8
-0.4704 13.6266 -2.6026 0.1875 0 8
-0.5936 13.6218 -2.6026 0.1875 0 8
-0.7168 13.6159 -2.6026 0.1875 0 8
-0.8400 13.6088 -2.6026 0.1875 0 8
-0.9630 13.6007 -2.6026 0.1875 0 8
-1.0860 13.5914 -2.6026 0.1875 0 8
-1.2089 13.5810 -2.6026 0.1875 0 8
-1.3317 13.5695 -2.6026 0.1875 0 8
-1.4544 13.5569 -2.6026 0.1875 0 8
-1.5770 13.5432 -2.6026 0.1875 0 8
-1.6995 13.5284 -2.6026 0.1875 0 8
-1.8218 13.5125 -2.6026 0.1875 0 8
-1.9440 13.4954 -2.6026 0.1875 0 8
-2.0660 13.4773 -2.6026 0.1875 0 8
-2.1878 13.4580 -2.6026 0.1875 0 8
-2.3095 13.4377 -2.6026 0.1875 0 8
-2.4309 13.4163 -2.6026 0.1875 0 8
-2.5522 13.3937 -2.6026 0.1875 0 8
-2.6732 13.3701 -2.6026 0.1875 0 8
-2.7941 13.3454 -2.6026 0.1875 0 8
-2.9147 13.3195 -2.6026 0.1875 0 8
-3.0351 13.2926 -2.6026 0.1875 0 8
-3.1552 13.2646 -2.6026 0.1875 0 8
-3.2751 13.2356 -2.6026 0.1875 0 8
-3.3947 13.2054 -2.6026 0.1875 0 8
-3.5140 13.1741 -2.6026 0.1875 0 8
-3.6330 13.1418 -2.6026 0.1875 0 8
-5.1933 18.1451 -3.6026 0.1875 0 22
-3.6978 12.4914 -2.4866 0.3148 0 9
-3.6240 11.8474 -2.3648 0.2070 0 9
-3.5624 11.2801 -2.2579 0.1997 0 9
-3.5932 11.0293 -2.2142 0.5994 0 9
-3.6868 10.9785 -2.2105 0.3475 0 9
-3.7190 10.7511 -2.1715 0.3735 0 9
-3.8903 10.9252 -2.2136 0.6606 0 9
-3.9928 10.9000 -2.2157 0.7406 0 9
-4.0758 10.8224 -2.2074 0.7434 0 9
-6.8113 17.6018 -3.6026 0.1875 0 22
-4.1510 10.4453 -2.1454 0.2135 0 9
-4.2739 10.4774 -2.1599 0.8200 0 9
-4.3609 10.4200 -2.1561 0.2395 0 9
-4.4820 10.4431 -2.1692 0.7691 0 9
-4.5425 10.3254 -2.1532 0.7408 0 9
-4.6527 10.3215 -2.1611 0.8802 0 9
-4.7928 10.3807 -2.1824 0.7997 0 9
-4.8973 10.3596 -2.1872 0.9866 0 9
-5.0004 10.3347 -2.1914 0.9516 0 9
-5.1911 10.4857 -2.2333 0.6142 0 9
-5.2092 10.2873 -2.2010 0.4253 0 9
-5.3283 10.2903 -2.2119 0.4725 0 9
-5.4765 10.3463 -2.2345 0.8450 0 9
-8.9801 16.6005 -3.6026 0.1875 0 22
-9.1299 16.5185 -3.6026 0.1875 0 22
-9.2789 16.4353 -3.6026 0.1875 0 22
-9.4272 16.3507 -3.6026 0.1875 0 22
-9.5748 16.2647 -3.6026 0.1875 0 22
-9.7215 16.1774 -3.6026 0.1875 0 22
-9.8675 16.0888 -3.6026 0.1875 0 22
-10.0126 15.9989 -3.6026 0.1875 0 22
-10.1569 15.9077 -3.6026 0.1875 0 22
-10.3004 15.8151 -3.6026 0.1875 0 22
-10.4431 15.7213 -3.6026 0.1875 0 22
-10.5849 15.6262 -3.6026 0.1875 0 22
-10.7258 15.5298 -3.6026 0.1875 0 22
-10.8658 15.4321 -3.6026 0.1875 0 22
-11.0050 15.3332 -3.6026 0.1875 0 22
-11.1433 15.2330 -3.6026 0.1875 0 22
-11.2806 15.1316 -3.6026 0.1875 0 22
-11.4170 15.0289 -3.6026 0.1875 0 22
-11.5525 14.9250 -3.6026 0.1875 0 22
-11.6871 14.8199 -3.6026 0.1875 0 22
-11.8207 14.7135 -3.6026 0.1875 0 22
-3.9147 4.7835 -1.1798 0.9505 0 5
-3.9786 4.7728 -1.1860 0.4870 0 5
-12.2156 14.3873 -3.6026 0.1875 0 22
-8.9713 10.3747 -2.6180 0.7875 0 9
-12.4738 14.1640 -3.6026 0.1875 0 22
-12.6015 14.0506 -3.6026 0.1875 0 22
-12.7281 13.9360 -3.6026 0.1875 0 22
-9.2857 9.9841 -2.6026 0.1875 0 8
-9.3756 9.8997 -2.6026 0.1875 0 8
-9.4648 9.8144 -2.6026 0.1875 0 8
-9.5532 9.7284 -2.6026 0.1875 0 8
-9.6408 9.6416 -2.6026 0.1875 0 8
-9.7276 9.5540 -2.6026 0.1875 0 8
-9.8137 9.4656 -2.6026 0.1875 0 8
-9.8989 9.3764 -2.6026 0.1875 0 8
-9.9833 9.2865 -2.6026 0.1875 0 8
-10.0669 9.1958 -2.6026 0.1875 0 8
-10.1497 9.1044 -2.6026 0.1875 0 8
-10.2316 9.0122 -2.6026 0.1875 0 8
-10.3127 8.9192 -2.6026 0.1875 0 8
-10.3930 8.8256 -2.6026 0.1875 0 8
-10.4724 8.7312 -2.6026 0.1875 0 8
-10.5510 8.6361 -2.6026 0.1875 0 8
-10.6287 8.5403 -2.6026 0.1875 0 8
-5.6974 4.4938 -1.3851 0.9273 0 9
-10.7815 8.3466 -2.6026 0.1875 0 8
-7.4707 5.6762 -1.7909 0.6698 0 9
-6.0328 4.4982 -1.4364 0.3466 0 9
-6.3360 4.6357 -1.4985 0.5307 0 9
-6.1197 4.3930 -1.4379 0.7182 0 9
-6.1322 4.3185 -1.4316 0.8124 0 9
-6.2397 4.3102 -1.4475 0.5322 0 9
-6.2913 4.2623 -1.4505 0.2608 0 9
-6.4792 4.3046 -1.4848 0.3073 0 9
-6.5861 4.2903 -1.5003 0.3286 0 9
-6.4664 4.1295 -1.4645 0.4988 0 9
-6.7619 4.2325 -1.5227 0.3285 0 9
-6.8029 4.1730 -1.5233 0.4213 0 9
-6.7900 4.0810 -1.5121 0.4508 0 9
-7.0477 4.1496 -1.5611 0.6154 0 9
-7.0876 4.0872 -1.5617 0.9012 0 9
-7.1546 4.0400 -1.5683 0.9051 0 9
-7.1646 3.9606 -1.5626 0.9084 0 9
-7.4891 4.0520 -1.6253 0.4389 0 9
-7.5310 3.9870 -1.6265 0.1918 0 9
-7.6686 3.9715 -1.6484 0.8825 0 9
-8.0172 4.0605 -1.7154 0.6516 0 9
-8.0387 3.9804 -1.7122 0.6528 0 9
-8.3821 4.0564 -1.7774 0.1309 0 9
-8.3097 3.9290 -1.7545 0.4085 0 9
-8.4824 3.9172 -1.7834 0.3230 0 9
-8.6282 3.8902 -1.8066 0.2576 0 9
-8.8168 3.8797 -1.8387 0.1876 0 9
-8.8397 3.7947 -1.8362 0.7485 0 9
-9.2682 3.8797 -1.9178 0.4518 0 9
-9.6117 3.9217 -1.9815 0.6534 0 9
-9.4223 3.7453 -1.9354 0.0219 0 9
-9.7120 3.7591 -1.9878 0.8715 0 9
-10.2180 3.8490 -2.0842 0.6587 0 9
-10.2430 3.7530 -2.0823 0.6593 0 9
-10.7953 3.8450 -2.1874 0.5030 0 9
-11.0635 3.8281 -2.2346 0.9948 0 9
-11.2865 3.7913 -2.2726 0.7665 0 9
-11.5957 3.7787 -2.3279 0.6852 0 9
-11.8373 3.7394 -2.3695 0.0883 0 9
-12.2041 3.7342 -2.4361 0.8935 0 9
-12.8895 3.8167 -2.5659 0.9627 0 9
-13.1237 3.7573 -2.6057 0.3475 0 8
-13.4838 3.7287 -2.6703 0.3247 0 8
-13.8735 3.7017 -2.7408 0.3164 0 8
-13.9492 3.5871 -2.7492 0.1922 0 8
-13.9916 3.4633 -2.7513 0.1920 0 8
-14.0330 3.3392 -2.7534 0.1919 0 8
-14.0708 3.2139 -2.7550 0.1875 0 7
-14.0993 3.0865 -2.7550 0.1875 0 7
-14.1266 2.9588 -2.7550 0.1875 0 7
-14.1528 2.8309 -2.7550 0.1875 0 7
-14.1778 2.7028 -2.7550 0.1875 0 7
-14.2017 2.5744 -2.7550 0.1875 0 7
-14.2244 2.4458 -2.7550 0.1875 0 7
-14.2459 2.3171 -2.7550 0.1875 0 7
-14.2663 2.1881 -2.7550 0.1875 0 7
12.8542 0.0000 -2.7550 0.2096 0 7
12.8537 0.1163 -2.7550 0.2096 0 7
12.8521 0.2326 -2.7550 0.2096 0 7
12.8495 0.3488 -2.7550 0.2096 0 7
12.8458 0.4650 -2.7550 0.2096 0 7
12.8411 0.5812 -2.7550 0.2096 0 7
12.8353 0.6974 -2.7550 0.2096 0 7
12.8285 0.8135 -2.7550 0.2096 0 7
12.8206 0.9295 -2.7550 0.2096 0 7
12.8117 1.0454 -2.7550 0.2096 0 7
12.8017 1.1613 -2.7550 0.2096 0 7
12.7906 1.2770 -2.7550 0.2096 0 7
12.7786 1.3927 -2.7550 0.2096 0 7
12.7654 1.5082 -2.7550 0.2096 0 7
12.7513 1.6237 -2.7550 0.2096 0 7
12.7361 1.7389 -2.7550 0.2096 0 7
12.7198 1.8541 -2.7550 0.2096 0 7
12.7025 1.9691 -2.7550 0.2096 0 7
12.6842 2.0839 -2.7550 0.2096 0 7
12.6648 2.1986 -2.7550 0.2096 0 7
12.6444 2.3130 -2.7550 0.2096 0 7
12.6230 2.4273 -2.7550 0.2096 0 7
12.6005 2.5414 -2.7550 0.2096 0 6
12.5770 2.6553 -2.7550 0.2096 0 6
12.5525 2.7690 -2.7550 0.2096 0 6
12.5269 2.8824 -2.7550 0.2096 0 6
12.5003 2.9956 -2.7550 0.2096 0 6
12.4727 3.1086 -2.7550 0.2096 0 6
12.4441 3.2213 -2.7550 0.2096 0 7
12.4144 3.3337 -2.7550 0.2096 0 7
12.3837 3.4459 -2.7550 0.2096 0 7
12.3521 3.5577 -2.7550 0.2096 0 7
12.3194 3.6694 -2.7550 0.2096 0 6
12.2857 3.7807 -2.7550 0.2096 0 6
12.2510 3.8916 -2.7550 0.2096 0 6
12.2153 4.0023 -2.7550 0.2096 0 6
12.1786 4.1127 -2.7550 0.2096 0 7
12.1409 4.2227 -2.7550 0.2096 0 7
12.1022 4.3323 -2.7550 0.2096 0 7
12.0625 4.4416 -2.7550 0.2096 0 7
12.0218 4.5506 -2.7550 0.2096 0 7
11.9802 4.6591 -2.7550 0.2096 0 7
11.9375 4.7673 -2.7550 0.2096 0 7
11.8939 4.8751 -2.7550 0.2096 0 7
11.8493 4.9825 -2.7550 0.2096 0 7
11.8038 5.0895 -2.7550 0.2096 0 7
11.7572 5.1961 -2.7550 0.2096 0 7
11.7097 5.3022 -2.7550 0.2096 0 7
11.6613 5.4079 -2.7550 0.2096 0 7
11.6119 5.5132 -2.7550 0.2096 0 7
11.5616 5.6180 -2.7550 0.2096 0 7
11.5103 5.7224 -2.7550 0.2096 0 7
11.4580 5.8263 -2.7550 0.2096 0 7
11.4049 5.9297 -2.7550 0.2096 0 7
11.3507 6.0326 -2.7550 0.2096 0 7
11.2957 6.1350 -2.7550 0.2096 0 7
11.2397 6.2370 -2.7550 0.2096 0 7
11.1829 6.3384 -2.7550 0.2096 0 7
11.1251 6.4393 -2.7550 0.2096 0 7
11.0663 6.5397 -2.7550 0.2096 0 7
11.0067 6.6395 -2.7550 0.2096 0 7
10.9462 6.7388 -2.7550 0.2096 0 7
10.8848 6.8376 -2.7550 0.2096 0 7
10.8225 6.9358 -2.7550 0.2096 0 7
10.7593 7.0334 -2.7550 0.2096 0 7
10.6953 7.1304 -2.7550 0.2096 0 7
10.6303 7.2269 -2.7550 0.2096 0 7
10.5645 7.3227 -2.7550 0.2096 0 7
10.4978 7.4180 -2.7550 0.2096 0 7
10.4303 7.5127 -2.7550 0.2096 0 7
10.3619 7.6067 -2.7550 0.2096 0 7
10.2927 7.7002 -2.7550 0.2096 0 7
10.2226 7.7929 -2.7550 0.2096 0 7
10.1517 7.8851 -2.7550 0.2096 0 7
10.0799 7.9766 -2.7550 0.2096 0 7
10.0074 8.0675 -2.7550 0.2096 0 7
9.9340 8.1577 -2.7550 0.2096 0 7
9.8598 8.2472 -2.7550 0.2096 0 7
9.7848 8.3361 -2.7550 0.2096 0 7
9.7090 8.4242 -2.7550 0.2096 0 7
9.6323 8.5117 -2.7550 0.2096 0 7
9.5550 8.5985 -2.7550 0.2096 0 7
9.4768 8.6846 -2.7550 0.2096 0 7
9.3978 8.7700 -2.7550 0.2096 0 7
9.3181 8.8546 -2.7550 0.2096 0 7
9.2376 8.9386 -2.7550 0.2096 0 7
9.1564 9.0218 -2.7550 0.2096 0 7
9.0744 9.1042 -2.7550 0.2096 0 7
8.9917 9.1860 -2.7550 0.2096 0 7
8.9082 9.2669 -2.7550 0.2096 0 7
8.8240 9.3471 -2.7550 0.2096 0 7
8.7391 9.4266 -2.7550 0.2096 0 7
8.6534 9.5052 -2.7550 0.2096 0 6
8.5671 9.5831 -2.7550 0.2096 0 7
8.4801 9.6602 -2.7550 0.2096 0 7
8.3923 9.7366 -2.7550 0.2096 0 7
8.3039 9.8121 -2.7550 0.2096 0 7
8.2148 9.8868 -2.7550 0.2096 0 7
8.1250 9.9607 -2.7550 0.2096 0 7
8.0346 10.0338 -2.7550 0.2096 0 7
7.9435 10.1061 -2.7550 0.2096 0 7
7.8517 10.1775 -2.7550 0.2096 0 7
7.7594 10.2481 -2.7550 0.2096 0 7
7.6663 10.3179 -2.7550 0.2096 0 7
7.5727 10.3868 -2.7550 0.2096 0 7
7.4784 10.4549 -2.7550 0.2096 0 7
7.3835 10.5221 -2.7550 0.2096 0 7
7.2880 10.5885 -2.7550 0.2096 0 7
7.1919 10.6540 -2.7550 0.2096 0 7
7.0953 10.7186 -2.7550 0.2096 0 7
6.9980 10.7824 -2.7550 0.2096 0 7
6.9002 10.8452 -2.7550 0.2096 0 7
6.8018 10.9072 -2.7550 0.2096 0 7
6.7029 10.9683 -2.7550 0.2096 0 7
6.6033 11.0285 -2.7550 0.2096 0 7
6.5033 11.0878 -2.7550 0.2096 0 7
6.4027 11.1461 -2.7550 0.2096 0 7
6.3017 11.2036 -2.7550 0.2096 0 7
6.2000 11.2602 -2.7550 0.2096 0 7
6.0979 11.3158 -2.7550 0.2096 0 7
5.9953 11.3705 -2.7550 0.2096 0 7
5.8922 11.4242 -2.7550 0.2096 0 7
5.7886 11.4771 -2.7550 0.2096 0 7
5.6846 11.5290 -2.7550 0.2096 0 7
5.5800 11.5799 -2.7550 0.2096 0 7
5.4750 11.6300 -2.7550 0.2096 0 7
5.3696 11.6790 -2.7550 0.2096 0 7
5.2637 11.7271 -2.7550 0.2096 0 7
5.1574 11.7742 -2.7550 0.2096 0 7
5.0507 11.8204 -2.7550 0.2096 0 6
4.9436 11.8656 -2.7550 0.2096 0 7
4.8360 11.9098 -2.7550 0.2096 0 7
4.7281 11.9531 -2.7550 0.2096 0 7
4.6198 11.9954 -2.7550 0.2096 0 7
4.5111 12.0367 -2.7550 0.2096 0 7
4.4020 12.0770 -2.7550 0.2096 0 7
4.2926 12.1163 -2.7550 0.2096 0 7
4.1828 12.1547 -2.7550 0.2096 0 7
4.0727 12.1920 -2.7550 0.2096 0 7
3.9622 12.2283 -2.7550 0.2096 0 7
3.8514 12.2637 -2.7550 0.2096 0 7
3.7403 12.2980 -2.7550 0.2096 0 7
3.6289 12.3314 -2.7550 0.2096 0 7
3.5172 12.3637 -2.7550 0.2096 0 7
3.4052 12.3950 -2.7550 0.2096 0 7
3.2929 12.4253 -2.7550 0.2096 0 7
3.1804 12.4546 -2.7550 0.2096 0 7
3.0676 12.4828 -2.7550 0.2096 0 7
2.9536 12.5060 -2.7540 0.2055 0 8
2.8383 12.5233 -2.7521 0.2056 0 8
2.7230 12.5396 -2.7501 0.2058 0 8
2.4694 11.8894 -2.6026 0.2096 0 8
2.3617 11.9113 -2.6026 0.2096 0 8
2.2539 11.9322 -2.6026 0.2096 0 8
2.1459 11.9521 -2.6026 0.2096 0 8
2.0376 11.9710 -2.6026 0.2096 0 8
1.9293 11.9889 -2.6026 0.2096 0 8
1.8207 12.0059 -2.6026 0.2096 0 8
1.7121 12.0219 -2.6026 0.2096 0 8
1.6032 12.0369 -2.6026 0.2096 0 8
1.4943 12.0509 -2.6026 0.2096 0 8
1.3852 12.0639 -2.6026 0.2096 0 8
1.2760 12.0759 -2.6026 0.2096 0 8
1.1667 12.0870 -2.6026 0.2096 0 8
1.0573 12.0971 -2.6026 0.2096 0 8
0.9478 12.1061 -2.6026 0.2096 0 8
0.8383 12.1142 -2.6026 0.2096 0 8
0.7287 12.1213 -2.6026 0.2096 0 8
0.6190 12.1274 -2.6026 0.2096 0 8
0.5093 12.1325 -2.6026 0.2096 0 8
0.3995 12.1366 -2.6026 0.2096 0 8
0.2897 12.1397 -2.6026 0.2096 0 8
0.1799 12.1418 -2.6026 0.2096 0 8
0.0700 12.1430 -2.6026 0.2096 0 8
-0.0399 12.1431 -2.6026 0.2096 0 8
-0.1497 12.1422 -2.6026 0.2096 0 8
-0.2595 12.1404 -2.6026 0.2096 0 8
-0.3694 12.1375 -2.6026 0.2096 0 8
-0.4792 12.1337 -2.6026 0.2096 0 8
-0.5889 12.1289 -2.6026 0.2096 0 8
-0.6986 12.1230 -2.6026 0.2096 0 8
-0.8082 12.1162 -2.6026 0.2096 0 8
-0.9178 12.1084 -2.6026 0.2096 0 8
-1.0273 12.0996 -2.6026 0.2096 0 8
-1.1367 12.0898 -2.6026 0.2096 0 8
-1.2460 12.0791 -2.6026 0.2096 0 8
-1.3553 12.0673 -2.6026 0.2096 0 8
-1.4644 12.0545 -2.6026 0.2096 0 8
-1.5734 12.0408 -2.6026 0.2096 0 8
-1.6822 12.0261 -2.6026 0.2096 0 8
-1.7909 12.0104 -2.6026 0.2096 0 8
-1.8995 11.9937 -2.6026 0.2096 0 8
-2.0079 11.9760 -2.6026 0.2096 0 8
-2.1162 11.9574 -2.6026 0.2096 0 8
-2.2243 11.9377 -2.6026 0.2096 0 8
-2.3322 11.9171 -2.6026 0.2096 0 8
-2.4399 11.8955 -2.6026 0.2096 0 8
-2.5474 11.8730 -2.6026 0.2096 0 8
-2.6547 11.8494 -2.6026 0.2096 0 8
-2.7618 11.8249 -2.6026 0.2096 0 8
-2.8686 11.7995 -2.6026 0.2096 0 8
-2.9753 11.7730 -2.6026 0.2096 0 8
-3.0817 11.7456 -2.6026 0.2096 0 8
-3.1878 11.7173 -2.6026 0.2096 0 8
-3.2937 11.6880 -2.6026 0.2096 0 8
-3.3992 11.6577 -2.6026 0.2096 0 8
-3.5046 11.6265 -2.6026 0.2096 0 8
-3.6096 11.5943 -2.6026 0.2096 0 8
-3.7143 11.5612 -2.6026 0.2096 0 8
-3.5660 10.7641 -2.4303 0.0555 0 9
-3.5536 10.4102 -2.3576 0.9291 0 9
-3.6528 10.3925 -2.3609 0.6400 0 9
-3.7515 10.3723 -2.3640 0.2715 0 9
-3.7997 10.2157 -2.3360 0.1619 0 9
-3.9233 10.2628 -2.3548 0.4940 0 9
-4.0221 10.2426 -2.3584 0.1639 0 9
-4.1288 10.2409 -2.3665 0.6448 0 9
-4.2769 10.3375 -2.3977 0.3670 0 9
-4.3150 10.1684 -2.3674 0.3829 0 9
-4.4694 10.2727 -2.4010 0.3277 0 9
-4.5796 10.2711 -2.4102 0.5002 0 9
-4.6768 10.2390 -2.4125 0.1163 0 9
-4.7511 10.1575 -2.4034 0.3141 0 9
-4.9336 10.3038 -2.4484 0.8376 0 9
-5.0469 10.3001 -2.4583 0.7347 0 9
-5.1103 10.1951 -2.4442 0.4220 0 9
-5.1999 10.1437 -2.4430 0.1905 0 9
-5.3638 10.2341 -2.4764 0.7997 0 9
-5.4766 10.2234 -2.4857 0.7708 0 9
-8.0710 14.7446 -3.6026 0.2096 0 22
-8.2040 14.6710 -3.6026 0.2096 0 22
-8.3364 14.5962 -3.6026 0.2096 0 22
-8.4681 14.5201 -3.6026 0.2096 0 22
-8.5992 14.4429 -3.6026 0.2096 0 22
-8.7295 14.3646 -3.6026 0.2096 0 22
-8.8590 14.2850 -3.6026 0.2096 0 22
-8.9879 14.2043 -3.6026 0.2096 0 22
-9.1160 14.1224 -3.6026 0.2096 0 22
-6.6776 10.1423 -2.6026 0.2096 0 8
-6.7691 10.0815 -2.6026 0.2096 0 8
-6.8600 10.0198 -2.6026 0.2096 0 8
-6.9504 9.9573 -2.6026 0.2096 0 8
-7.0402 9.8941 -2.6026 0.2096 0 8
-7.1294 9.8300 -2.6026 0.2096 0 8
-7.2180 9.7651 -2.6026 0.2096 0 8
-7.3061 9.6994 -2.6026 0.2096 0 8
-7.3935 9.6329 -2.6026 0.2096 0 8
-7.4803 9.5656 -2.6026 0.2096 0 8
-7.5666 9.4975 -2.6026 0.2096 0 8
-3.9027 4.8088 -1.3273 0.8442 0 5
-3.9431 4.7698 -1.3264 0.9450 0 5
-7.8215 9.2887 -2.6026 0.2096 0 8
-5.0980 5.9443 -1.6784 0.4101 0 19
-5.1096 5.8499 -1.6647 0.7747 0 19
-5.1473 5.7866 -1.6598 0.9246 0 19
-5.2001 5.7405 -1.6601 0.8180 0 19
-5.2754 5.7188 -1.6675 0.8143 0 19
-8.3139 8.8507 -2.6026 0.2096 0 8
-8.3937 8.7751 -2.6026 0.2096 0 8
-8.4727 8.6989 -2.6026 0.2096 0 8
-8.5510 8.6218 -2.6026 0.2096 0 8
-8.6287 8.5441 -2.6026 0.2096 0 8
-8.7056 8.4657 -2.6026 0.2096 0 8
-8.7818 8.3866 -2.6026 0.2096 0 8
-8.8574 8.3068 -2.6026 0.2096 0 8
-8.9321 8.2264 -2.6026 0.2096 0 8
-9.0062 8.1452 -2.6026 0.2096 0 8
-9.0795 8.0634 -2.6026 0.2096 0 8
-9.1521 7.9810 -2.6026 0.2096 0 8
-5.3056 4.5428 -1.4970 0.3187 0 9
-5.2987 4.4545 -1.4836 0.1228 0 9
-5.4902 4.5313 -1.5257 0.4321 0 9
-5.5215 4.4739 -1.5231 0.1158 0 9
-5.4084 4.3017 -1.4811 0.6369 0 9
-5.5051 4.2979 -1.4969 0.6569 0 9
-5.5990 4.2903 -1.5118 0.6505 0 9
-5.6887 4.2779 -1.5255 0.3648 0 9
-5.8151 4.2911 -1.5489 0.3593 0 9
-5.9316 4.2948 -1.5695 0.6838 0 9
-5.9240 4.2081 -1.5574 0.5547 0 9
-6.0510 4.2165 -1.5807 0.9344 0 9
-6.0556 4.1388 -1.5720 0.8024 0 9
-6.1754 4.1393 -1.5933 0.2654 0 9
-6.1872 4.0665 -1.5868 0.5427 0 9
-6.3418 4.0865 -1.6169 0.7181 0 9
-6.3138 3.9880 -1.6005 0.2110 0 9
-6.3653 3.9405 -1.6045 0.7237 0 9
-6.4834 3.9329 -1.6252 0.4808 0 9
-6.6109 3.9289 -1.6482 0.4741 0 9
-6.9151 4.0255 -1.7149 0.5238 0 9
-6.9475 3.9606 -1.7140 0.2988 0 9
-6.9967 3.9052 -1.7173 0.2982 0 9
-7.1259 3.8932 -1.7403 0.5856 0 9
-7.1447 3.8200 -1.7364 0.9579 0 9
-7.1611 3.7458 -1.7321 0.9603 0 9
-7.5589 3.8672 -1.8198 0.8424 0 9
-7.7938 3.8988 -1.8677 0.6689 0 9
-8.1258 3.9735 -1.9386 0.3983 0 9
-8.1282 3.8839 -1.9307 0.3834 0 9
-8.2463 3.8491 -1.9504 0.6165 0 9
-8.4616 3.8567 -1.9930 0.4395 0 9
-8.6092 3.8303 -2.0195 0.6819 0 9
-8.9139 3.8697 -2.0827 0.6164 0 9
-8.9859 3.8047 -2.0914 0.7670 0 9
-9.1841 3.7910 -2.1295 0.8794 0 9
-9.5825 3.8544 -2.2137 0.8727 0 9
-9.6889 3.7958 -2.2302 0.9810 0 9
-9.7386 3.7140 -2.2338 0.8806 0 9
-10.1414 3.7629 -2.3183 0.8438 0 9
-10.4329 3.7640 -2.3771 0.9724 0 9
-11.0461 3.8726 -2.5087 0.9972 0 9
-11.4952 3.9137 -2.6026 0.2096 0 8
-11.5434 3.8139 -2.6056 0.3884 0 8
-11.8278 3.7895 -2.6619 0.3641 0 8
-12.1347 3.7672 -2.7232 0.3559 0 8
-12.2812 3.6912 -2.7485 0.2149 0 8
-12.3222 3.5823 -2.7503 0.2147 0 8
-12.3624 3.4730 -2.7521 0.2146 0 8
-12.4015 3.3633 -2.7539 0.2144 0 8
-12.4360 3.2522 -2.7550 0.2096 0 7
-12.4649 3.1395 -2.7550 0.2096 0 7
-12.4928 3.0266 -2.7550 0.2096 0 7
-12.5197 2.9135 -2.7550 0.2096 0 7
-12.5456 2.8001 -2.7550 0.2096 0 7
-12.5704 2.6865 -2.7550 0.2096 0 7
-12.5942 2.5727 -2.7550 0.2096 0 7
-12.6169 2.4587 -2.7550 0.2096 0 7
-12.6386 2.3444 -2.7550 0.2096 0 7
-12.6593 2.2300 -2.7550 0.2096 0 7
-12.6790 2.1154 -2.7550 0.2096 0 7
-12.6976 2.0006 -2.7550 0.2096 0 7
-12.7152 1.8856 -2.7550 0.2096 0 7
-12.7317 1.7705 -2.7550 0.2096 0 7
-12.7472 1.6553 -2.7550 0.2096 0 7
-12.7617 1.5399 -2.7550 0.2096 0 7
-12.7751 1.4244 -2.7550 0.2096 0 7
-12.7874 1.3088 -2.7550 0.2096 0 7
-12.7988 1.1930 -2.7550 0.2096 0 7
-12.8090 1.0772 -2.7550 0.2096 0 7
-12.8182 0.9613 -2.7550 0.2096 0 7
-12.8264 0.8453 -2.7550 0.2096 0 6
-12.8335 0.7292 -2.7550 0.2096 0 6
-12.8396 0.6131 -2.7550 0.2096 0 7
-12.8446 0.4969 -2.7550 0.2096 0 7
-12.8486 0.3807 -2.7550 0.2096 0 7
-12.8515 0.2645 -2.7550 0.2096 0 7
-12.8534 0.1482 -2.7550 0.2096 0 7
-12.8542 0.0319 -2.7550 0.2096 0 7
-12.8540 -0.0844 -2.7550 0.2096 0 7
-12.8527 -0.2006 -2.7550 0.2096 0 7
-12.8503 -0.3169 -2.7550 0.2096 0 7
-12.8469 -0.4332 -2.7550 0.2096 0 7
-12.8425 -0.5494 -2.7550 0.2096 0 7
-12.8370 -0.6655 -2.7550 0.2096 0 7
-12.8304 -0.7816 -2.7550 0.2096 0 7
-12.8229 -0.8976 -2.7550 0.2096 0 7
-12.8142 -1.0136 -2.7550 0.2096 0 7
-12.8045 -1.1295 -2.7550 0.2096 0 7
-12.7938 -1.2453 -2.7550 0.2096 0 7
-12.7820 -1.3610 -2.7550 0.2096 0 7
-12.7691 -1.4765 -2.7550 0.2096 0 7
-12.7553 -1.5920 -2.7550 0.2096 0 7
-12.7403 -1.7073 -2.7550 0.2096 0 7
-12.7244 -1.8225 -2.7550 0.2096 0 7
-12.7074 -1.9375 -2.7550 0.2096 0 7
-12.6893 -2.0524 -2.7550 0.2096 0 7
-12.6702 -2.1671 -2.7550 0.2096 0 7
-12.6501 -2.2816 -2.7550 0.2096 0 7
-12.6290 -2.3960 -2.7550 0.2096 0 7
-12.6068 -2.5101 -2.7550 0.2096 0 7
-12.5835 -2.6241 -2.7550 0.2096 0 6
-12.5593 -2.7378 -2.7550 0.2096 0 7
-12.5340 -2.8513 -2.7550 0.2096 0 6
-12.5077 -2.9646 -2.7550 0.2096 0 7
-12.4804 -3.0776 -2.7550 0.2096 0 7
-12.4520 -3.1904 -2.7550 0.2096 0 7
-12.4227 -3.3029 -2.7550 0.2096 0 7
-12.3923 -3.4151 -2.7550 0.2096 0 7
-12.3609 -3.5271 -2.7550 0.2096 0 7
-12.3284 -3.6388 -2.7550 0.2096 0 7
-12.2950 -3.7502 -2.7550 0.2096 0 7
-12.2606 -3.8612 -2.7550 0.2096 0 7
-12.2252 -3.9720 -2.7550 0.2096 0 7
-12.1887 -4.0824 -2.7550 0.2096 0 7
-12.1513 -4.1925 -2.7550 0.2096 0 7
-12.1129 -4.3023 -2.7550 0.2096 0 7
-12.0735 -4.4117 -2.7550 0.2096 0 7
-12.0331 -4.5207 -2.7550 0.2096 0 7
-11.9917 -4.6294 -2.7550 0.2096 0 7
-11.9493 -4.7377 -2.7550 0.2096 0 7
-11.9060 -4.8456 -2.7550 0.2096 0 7
-11.8616 -4.9531 -2.7550 0.2096 0 7
-11.8163 -5.0602 -2.7550 0.2096 0 7
-11.7701 -5.1669 -2.7550 0.2096 0 7
-11.7229 -5.2731 -2.7550 0.2096 0 7
-11.6747 -5.3790 -2.7550 0.2096 0 7
-11.6255 -5.4843 -2.7550 0.2096 0 7
-11.5755 -5.5893 -2.7550 0.2096 0 7
-11.5244 -5.6938 -2.7550 0.2096 0 7
-11.4724 -5.7978 -2.7550 0.2096 0 7
-11.4195 -5.9013 -2.7550 0.2096 0 7
-11.3657 -6.0044 -2.7550 0.2096 0 7
-11.3109 -6.1070 -2.7550 0.2096 0 7
-11.2552 -6.2090 -2.7550 0.2096 0 7
-11.1985 -6.3106 -2.7550 0.2096 0 7
-11.1410 -6.4117 -2.7550 0.2096 0 7
-11.0825 -6.5122 -2.7550 0.2096 0 7
-11.0232 -6.6122 -2.7550 0.2096 0 7
-10.9629 -6.7116 -2.7550 0.2096 0 7
-10.9017 -6.8105 -2.7550 0.2096 0 7
-10.8397 -6.9089 -2.7550 0.2096 0 7
-10.7767 -7.0066 -2.7550 0.2096 0 7
-10.7129 -7.1038 -2.7550 0.2096 0 7
-10.6482 -7.2005 -2.7550 0.2096 0 7
-10.5826 -7.2965 -2.7550 0.2096 0 7
-10.5162 -7.3919 -2.7550 0.2096 0 7
-10.4489 -7.4868 -2.7550 0.2096 0 7
-10.3807 -7.5810 -2.7550 0.2096 0 7
-10.3117 -7.6746 -2.7550 0.2096 0 7
-10.2419 -7.7675 -2.7550 0.2096 0 7
-10.1712 -7.8599 -2.7550 0.2096 0 7
-10.0997 -7.9516 -2.7550 0.2096 0 7
-10.0273 -8.0426 -2.7550 0.2096 0 7
-9.9542 -8.1330 -2.7550 0.2096 0 7
-9.8802 -8.2227 -2.7550 0.2096 0 7
-9.8054 -8.3117 -2.7550 0.2096 0 7
-9.7298 -8.4001 -2.7550 0.2096 0 7
-9.6534 -8.4878 -2.7550 0.2096 0 7
-9.5763 -8.5748 -2.7550 0.2096 0 7
-9.4949 -8.6580 -2.7540 0.2203 0 8
-9.4113 -8.7390 -2.7526 0.2204 0 8
-9.3271 -8.8193 -2.7511 0.2205 0 8
-9.2423 -8.8987 -2.7497 0.2206 0 8
-9.1568 -8.9775 -2.7484 0.2207 0 8
-9.0507 -9.0355 -2.7409 0.6927 0 8
-8.8872 -9.0343 -2.7161 0.6990 0 8
-8.7266 -9.0330 -2.6918 0.7053 0 8
-8.5688 -9.0317 -2.6683 0.7115 0 8
-8.4136 -9.0304 -2.6453 0.7177 0 8
-8.2611 -9.0291 -2.6229 0.7238 0 8
-8.1164 -9.0337 -2.6028 0.6457 0 8
-8.0336 -9.1059 -2.6026 0.2096 0 8
-7.9509 -9.1782 -2.6026 0.2096 0 8
-7.8675 -9.2498 -2.6026 0.2096 0 8
-7.7835 -9.3206 -2.6026 0.2096 0 8
-7.6989 -9.3906 -2.6026 0.2096 0 8
-7.6136 -9.4599 -2.6026 0.2096 0 8
-7.5277 -9.5283 -2.6026 0.2096 0 8
-7.4412 -9.5961 -2.6026 0.2096 0 8
-7.3541 -9.6630 -2.6026 0.2096 0 8
-7.2664 -9.7291 -2.6026 0.2096 0 8
-7.1781 -9.7945 -2.6026 0.2096 0 8
-7.0892 -9.8590 -2.6026 0.2096 0 8
-6.9997 -9.9227 -2.6026 0.2096 0 8
-6.9097 -9.9856 -2.6026 0.2096 0 8
-6.8190 -10.0477 -2.6026 0.2096 0 8
-6.7279 -10.1090 -2.6026 0.2096 0 8
-6.6362 -10.1694 -2.6026 0.2096 0 8
-6.5439 -10.2291 -2.6026 0.2096 0 8
-6.1686 -9.8374 -2.4886 0.2096 0 9
-6.0647 -9.8689 -2.4826 0.7859 0 9
-5.9357 -9.8578 -2.4662 0.7911 0 9
-5.8083 -9.8468 -2.4502 0.7963 0 9
-5.6826 -9.8359 -2.4346 0.8014 0 9
-5.5585 -9.8252 -2.4194 0.8064 0 9
-5.4359 -9.8146 -2.4046 0.8114 0 9
-5.3147 -9.8041 -2.3901 0.8163 0 9
-5.1951 -9.7937 -2.3760 0.8211 0 9
-5.0768 -9.7835 -2.3623 0.8259 0 9
-4.9598 -9.7734 -2.3490 0.8306 0 9
-4.8442 -9.7634 -2.3359 0.8352 0 9
-4.7934 -9.8847 -2.3545 0.5008 0 9
-4.7764 -10.0810 -2.3908 0.4932 0 9
-4.7589 -10.2835 -2.4285 0.4855 0 9
-4.7409 -10.4924 -2.4677 0.4779 0 9
-4.6852 -10.6243 -2.4886 0.2096 0 9
-4.6462 -10.7994 -2.5197 0.4623 0 9
-4.6265 -11.0273 -2.5630 0.4545 0 9
-4.5964 -11.2396 -2.6026 0.2096 0 8
-4.4945 -11.2807 -2.6026 0.2096 0 8
-4.3923 -11.3209 -2.6026 0.2096 0 8
-4.2897 -11.3602 -2.6026 0.2096 0 8
-4.1868 -11.3986 -2.6026 0.2096 0 8
-4.0835 -11.4360 -2.6026 0.2096 0 8
-3.9799 -11.4724 -2.6026 0.2096 0 8
-3.8759 -11.5080 -2.6026 0.2096 0 8
-3.7717 -11.5426 -2.6026 0.2096 0 8
-3.6671 -11.5762 -2.6026 0.2096 0 8
-3.5622 -11.6089 -2.6026 0.2096 0 8
-3.4571 -11.6407 -2.6026 0.2096 0 8
-2.7301 -9.5071 -2.1199 0.9380 0 5
-2.6364 -9.5041 -2.1139 0.9407 0 5
-2.5432 -9.5011 -2.1080 0.9433 0 5
-2.5116 -9.7347 -2.1547 0.2854 0 5
-2.9272 -11.7851 -2.6026 0.2096 0 8
-2.8204 -11.8111 -2.6026 0.2096 0 8
-2.7135 -11.8361 -2.6026 0.2096 0 8
-2.6063 -11.8602 -2.6026 0.2096 0 8
-2.4989 -11.8833 -2.6026 0.2096 0 8
-2.3913 -11.9054 -2.6026 0.2096 0 8
-2.2835 -11.9265 -2.6026 0.2096 0 8
-2.1755 -11.9467 -2.6026 0.2096 0 8
-2.0674 -11.9659 -2.6026 0.2096 0 8
-1.9590 -11.9841 -2.6026 0.2096 0 8
-1.8505 -12.0013 -2.6026 0.2096 0 8
-1.7419 -12.0176 -2.6026 0.2096 0 8
-1.6331 -12.0328 -2.6026 0.2096 0 8
-1.5242 -12.0472 -2.6026 0.2096 0 8
-1.4151 -12.0604 -2.6026 0.2096 0 8
-1.3060 -12.0727 -2.6026 0.2096 0 8
-1.1967 -12.0840 -2.6026 0.2096 0 8
-1.0873 -12.0944 -2.6026 0.2096 0 8
-0.9779 -12.1037 -2.6026 0.2096 0 8
-0.8683 -12.1121 -2.6026 0.2096 0 8
-0.7587 -12.1194 -2.6026 0.2096 0 8
-0.6491 -12.1258 -2.6026 0.2096 0 8
-0.5393 -12.1312 -2.6026 0.2096 0 8
-0.4296 -12.1356 -2.6026 0.2096 0 8
-0.3198 -12.1389 -2.6026 0.2096 0 8
-0.2100 -12.1414 -2.6026 0.2096 0 8
-0.1001 -12.1427 -2.6026 0.2096 0 8
0.0097 -12.1431 -2.6026 0.2096 0 8
0.1196 -12.1426 -2.6026 0.2096 0 8
0.2294 -12.1410 -2.6026 0.2096 0 8
0.3392 -12.1384 -2.6026 0.2096 0 8
0.4490 -12.1349 -2.6026 0.2096 0 8
0.5588 -12.1303 -2.6026 0.2096 0 8
0.6685 -12.1247 -2.6026 0.2096 0 8
0.7782 -12.1182 -2.6026 0.2096 0 8
0.8877 -12.1107 -2.6026 0.2096 0 8
0.9973 -12.1021 -2.6026 0.2096 0 8
1.1067 -12.0926 -2.6026 0.2096 0 8
1.2161 -12.0821 -2.6026 0.2096 0 8
1.3253 -12.0706 -2.6026 0.2096 0 8
1.4344 -12.0581 -2.6026 0.2096 0 8
1.5435 -12.0447 -2.6026 0.2096 0 8
1.6524 -12.0302 -2.6026 0.2096 0 8
1.7635 -12.0313 -2.6061 0.5309 0 8
1.8697 -11.9983 -2.6026 0.2096 0 8
1.9896 -12.0499 -2.6175 0.4789 0 8
2.1330 -12.2293 -2.6606 0.4711 0 8
2.2812 -12.4145 -2.7053 0.4634 0 8
2.4308 -12.5868 -2.7475 0.2167 0 8
2.5462 -12.5725 -2.7493 0.2152 0 8
2.6616 -12.5572 -2.7511 0.2150 0 8
2.7770 -12.5409 -2.7529 0.2149 0 8
2.8922 -12.5235 -2.7547 0.2148 0 8
3.0056 -12.4979 -2.7550 0.2096 0 7
3.1186 -12.4702 -2.7550 0.2096 0 7
3.2312 -12.4415 -2.7550 0.2096 0 7
3.3437 -12.4117 -2.7550 0.2096 0 7
3.4558 -12.3810 -2.7550 0.2096 0 7
3.5677 -12.3492 -2.7550 0.2096 0 7
3.6792 -12.3164 -2.7550 0.2096 0 7
3.7905 -12.2827 -2.7550 0.2096 0 7
3.9015 -12.2479 -2.7550 0.2096 0 7
4.0121 -12.2121 -2.7550 0.2096 0 7
4.1224 -12.1753 -2.7550 0.2096 0 7
4.2324 -12.1375 -2.7550 0.2096 0 6
4.3420 -12.0987 -2.7550 0.2096 0 7
4.4513 -12.0589 -2.7550 0.2096 0 7
4.5602 -12.0182 -2.7550 0.2096 0 7
4.6687 -11.9764 -2.7550 0.2096 0 7
4.7769 -11.9337 -2.7550 0.2096 0 7
4.8846 -11.8900 -2.7550 0.2096 0 7
4.9920 -11.8453 -2.7550 0.2096 0 7
5.0989 -11.7997 -2.7550 0.2096 0 7
5.2055 -11.7531 -2.7550 0.2096 0 7
5.3116 -11.7055 -2.7550 0.2096 0 7
5.4173 -11.6570 -2.7550 0.2096 0 7
5.5225 -11.6075 -2.7550 0.2096 0 7
5.6273 -11.5570 -2.7550 0.2096 0 7
5.7316 -11.5057 -2.7550 0.2096 0 7
5.8354 -11.4533 -2.7550 0.2096 0 7
5.9388 -11.4001 -2.7550 0.2096 0 7
6.0417 -11.3459 -2.7550 0.2096 0 7
6.1441 -11.2908 -2.7550 0.2096 0 7
6.2460 -11.2347 -2.7550 0.2096 0 7
6.3473 -11.1778 -2.7550 0.2096 0 7
6.4482 -11.1199 -2.7550 0.2096 0 7
6.5485 -11.0611 -2.7550 0.2096 0 7
6.6483 -11.0014 -2.7550 0.2096 0 7
6.7476 -10.9408 -2.7550 0.2096 0 7
6.8463 -10.8793 -2.7550 0.2096 0 7
6.9444 -10.8169 -2.7550 0.2096 0 7
7.0420 -10.7537 -2.7550 0.2096 0 7
7.1390 -10.6895 -2.7550 0.2096 0 7
7.2354 -10.6245 -2.7550 0.2096 0 7
7.3312 -10.5586 -2.7550 0.2096 0 7
7.4264 -10.4919 -2.7550 0.2096 0 7
7.5210 -10.4243 -2.7550 0.2096 0 7
7.6150 -10.3558 -2.7550 0.2096 0 7
7.7084 -10.2865 -2.7550 0.2096 0 7
7.8011 -10.2163 -2.7550 0.2096 0 7
7.8932 -10.1454 -2.7550 0.2096 0 7
7.9847 -10.0735 -2.7550 0.2096 0 7
8.0755 -10.0009 -2.7550 0.2096 0 7
8.1656 -9.9274 -2.7550 0.2096 0 7
8.2551 -9.8532 -2.7550 0.2096 0 7
8.3439 -9.7781 -2.7550 0.2096 0 7
8.4320 -9.7022 -2.7550 0.2096 0 7
8.5194 -9.6255 -2.7550 0.2096 0 7
8.6062 -9.5481 -2.7550 0.2096 0 7
8.6922 -9.4698 -2.7550 0.2096 0 7
8.7775 -9.3908 -2.7550 0.2096 0 7
8.8621 -9.3110 -2.7550 0.2096 0 7
8.9460 -9.2304 -2.7550 0.2096 0 7
9.0291 -9.1491 -2.7550 0.2096 0 7
9.1115 -9.0671 -2.7550 0.2096 0 7
9.1931 -8.9843 -2.7550 0.2096 0 7
9.2740 -8.9008 -2.7550 0.2096 0 7
9.3542 -8.8165 -2.7550 0.2096 0 7
9.4336 -8.7315 -2.7550 0.2096 0 7
9.5122 -8.6458 -2.7550 0.2096 0 7
9.5900 -8.5594 -2.7550 0.2096 0 7
9.6670 -8.4723 -2.7550 0.2096 0 7
9.7433 -8.3845 -2.7550 0.2096 0 7
9.8187 -8.2960 -2.7550 0.2096 0 7
9.8934 -8.2069 -2.7550 0.2096 0 7
9.9672 -8.1170 -2.7550 0.2096 0 7
10.0402 -8.0265 -2.7550 0.2096 0 7
10.1124 -7.9354 -2.7550 0.2096 0 7
10.1838 -7.8436 -2.7550 0.2096 0 7
10.2543 -7.7511 -2.7550 0.2096 0 7
10.3240 -7.6581 -2.7550 0.2096 0 7
10.3929 -7.5643 -2.7550 0.2096 0 7
10.4609 -7.4700 -2.7550 0.2096 0 7
10.5280 -7.3751 -2.7550 0.2096 0 7
10.5943 -7.2795 -2.7550 0.2096 0 7
10.6597 -7.1834 -2.7550 0.2096 0 7
10.7243 -7.0867 -2.7550 0.2096 0 7
10.7880 -6.9894 -2.7550 0.2096 0 7
10.8508 -6.8915 -2.7550 0.2096 0 7
10.9126 -6.7931 -2.7550 0.2096 0 7
10.9736 -6.6941 -2.7550 0.2096 0 7
11.0338 -6.5945 -2.7550 0.2096 0 7
11.0930 -6.4944 -2.7550 0.2096 0 7
11.1512 -6.3938 -2.7550 0.2096 0 7
11.2086 -6.2927 -2.7550 0.2096 0 7
11.2651 -6.1910 -2.7550 0.2096 0 7
11.3206 -6.0889 -2.7550 0.2096 0 7
11.3753 -5.9862 -2.7550 0.2096 0 7
11.4290 -5.8830 -2.7550 0.2096 0 7
11.4817 -5.7794 -2.7550 0.2096 0 7
11.5335 -5.6753 -2.7550 0.2096 0 7
11.5844 -5.5708 -2.7550 0.2096 0 7
11.6343 -5.4657 -2.7550 0.2096 0 7
11.6833 -5.3602 -2.7550 0.2096 0 7
11.7313 -5.2543 -2.7550 0.2096 0 7
11.7783 -5.1480 -2.7550 0.2096 0 7
11.8244 -5.0412 -2.7550 0.2096 0 7
11.8696 -4.9341 -2.7550 0.2096 0 7
11.9137 -4.8265 -2.7550 0.2096 0 7
11.9569 -4.7185 -2.7550 0.2096 0 7
11.9991 -4.6102 -2.7550 0.2096 0 7
12.0403 -4.5014 -2.7550 0.2096 0 7
12.0805 -4.3923 -2.7550 0.2096 0 7
12.1198 -4.2828 -2.7550 0.2096 0 7
12.1580 -4.1730 -2.7550 0.2096 0 7
12.1953 -4.0629 -2.7550 0.2096 0 7
12.2315 -3.9524 -2.7550 0.2096 0 7
12.2668 -3.8416 -2.7550 0.2096 0 7
12.3010 -3.7305 -2.7550 0.2096 0 7
12.3343 -3.6190 -2.7550 0.2096 0 7
12.3665 -3.5073 -2.7550 0.2096 0 7
12.3977 -3.3953 -2.7550 0.2096 0 7
12.4279 -3.2830 -2.7550 0.2096 0 7
12.4571 -3.1704 -2.7550 0.2096 0 7
12.4853 -3.0576 -2.7550 0.2096 0 6
12.5124 -2.9446 -2.7550 0.2096 0 6
12.5386 -2.8312 -2.7550 0.2096 0 6
12.5637 -2.7177 -2.7550 0.2096 0 6
12.5877 -2.6039 -2.7550 0.2096 0 7
12.6108 -2.4899 -2.7550 0.2096 0 7
12.6328 -2.3758 -2.7550 0.2096 0 7
12.6537 -2.2614 -2.7550 0.2096 0 7
12.6737 -2.1468 -2.7550 0.2096 0 7
12.6926 -2.0321 -2.7550 0.2096 0 6
12.7104 -1.9172 -2.7550 0.2096 0 6
12.7273 -1.8021 -2.7550 0.2096 0 6
12.7431 -1.6869 -2.7550 0.2096 0 6
12.7578 -1.5716 -2.7550 0.2096 0 6
12.7715 -1.4561 -2.7550 0.2096 0 6
12.7841 -1.3405 -2.7550 0.2096 0 7
12.7958 -1.2248 -2.7550 0.2096 0 7
12.8063 -1.1090 -2.7550 0.2096 0 7
12.8158 -0.9931 -2.7550 0.2096 0 7
12.8243 -0.8771 -2.7550 0.2096 0 7
12.8317 -0.7611 -2.7550 0.2096 0 7
12.8380 -0.6449 -2.7550 0.2096 0 7
12.8434 -0.5288 -2.7550 0.2096 0 7
12.8476 -0.4126 -2.7550 0.2096 0 7
12.8508 -0.2963 -2.7550 0.2096 0 7
12.8530 -0.1801 -2.7550 0.2096 0 7
12.8541 -0.0638 -2.7550 0.2096 0 7
12.8541 0.0525 -2.7550 0.2096 0 7
12.8531 0.1688 -2.7550 0.2096 0 7
12.8511 0.2850 -2.7550 0.2096 0 7
12.8480 0.4013 -2.7550 0.2096 0 7
12.8438 0.5175 -2.7550 0.2096 0 7
12.8386 0.6337 -2.7550 0.2096 0 7
12.8324 0.7498 -2.7550 0.2096 0 7
12.8250 0.8658 -2.7550 0.2096 0 7
12.8167 0.9818 -2.7550 0.2096 0 7
12.8073 1.0977 -2.7550 0.2096 0 7
12.7968 1.2135 -2.7550 0.2096 0 7
12.7853 1.3292 -2.7550 0.2096 0 7
12.7728 1.4449 -2.7550 0.2096 0 7
12.7592 1.5603 -2.7550 0.2096 0 7
12.7446 1.6757 -2.7550 0.2096 0 7
12.7289 1.7909 -2.7550 0.2096 0 7
12.7121 1.9060 -2.7550 0.2096 0 7
12.6944 2.0209 -2.7550 0.2096 0 7
12.6756 2.1357 -2.7550 0.2096 0 7
12.6557 2.2503 -2.7550 0.2096 0 7
12.6349 2.3646 -2.7550 0.2096 0 7
12.6130 2.4789 -2.7550 0.2096 0 7
12.5900 2.5929 -2.7550 0.2096 0 6
12.5660 2.7066 -2.7550 0.2096 0 6
12.5410 2.8202 -2.7550 0.2096 0 6
12.5150 2.9335 -2.7550 0.2096 0 6
12.4880 3.0466 -2.7550 0.2096 0 6
12.4599 3.1595 -2.7550 0.2096 0 7
12.4308 3.2721 -2.7550 0.2096 0 7
12.4007 3.3844 -2.7550 0.2096 0 7
12.3696 3.4965 -2.7550 0.2096 0 7
12.3375 3.6082 -2.7550 0.2096 0 7
12.3043 3.7196 -2.7550 0.2096 0 6
12.2701 3.8308 -2.7550 0.2096 0 6
12.2350 3.9417 -2.7550 0.2096 0 6
12.1988 4.0521 -2.7550 0.2096 0 6
12.1617 4.1624 -2.7550 0.2096 0 7
12.1235 4.2722 -2.7550 0.2096 0 7
12.0844 4.3817 -2.7550 0.2096 0 7
12.0442 4.4908 -2.7550 0.2096 0 7
12.0031 4.5996 -2.7550 0.2096 0 7
11.9610 4.7080 -2.7550 0.2096 0 7
11.9180 4.8160 -2.7550 0.2096 0 7
11.8739 4.9236 -2.7550 0.2096 0 7
11.8289 5.0308 -2.7550 0.2096 0 7
11.7829 5.1376 -2.7550 0.2096 0 7
11.7359 5.2440 -2.7550 0.2096 0 7
11.6880 5.3500 -2.7550 0.2096 0 7
11.6391 5.4555 -2.7550 0.2096 0 7
11.5893 5.5606 -2.7550 0.2096 0 7
11.5385 5.6652 -2.7550 0.2096 0 7
11.4868 5.7693 -2.7550 0.2096 0 7
11.4341 5.8730 -2.7550 0.2096 0 7
11.3805 5.9762 -2.7550 0.2096 0 7
11.3260 6.0789 -2.7550 0.2096 0 7
11.2706 6.1811 -2.7550 0.2096 0 7
11.2142 6.2828 -2.7550 0.2096 0 7
11.1569 6.3840 -2.7550 0.2096 0 7
11.0987 6.4847 -2.7550 0.2096 0 7
11.0396 6.5848 -2.7550 0.2096 0 7
10.9795 6.6844 -2.7550 0.2096 0 7
10.9186 6.7835 -2.7550 0.2096 0 7
10.8568 6.8820 -2.7550 0.2096 0 7
10.7941 6.9799 -2.7550 0.2096 0 7
10.7305 7.0773 -2.7550 0.2096 0 7
10.6661 7.1740 -2.7550 0.2096 0 7
10.6007 7.2702 -2.7550 0.2096 0 7
10.5345 7.3658 -2.7550 0.2096 0 7
10.4675 7.4608 -2.7550 0.2096 0 7
10.3995 7.5552 -2.7550 0.2096 0 7
10.3308 7.6490 -2.7550 0.2096 0 7
10.2612 7.7421 -2.7550 0.2096 0 7
10.1907 7.8346 -2.7550 0.2096 0 7
10.1194 7.9265 -2.7550 0.2096 0 7
10.0473 8.0177 -2.7550 0.2096 0 7
9.9743 8.1083 -2.7550 0.2096 0 7
9.9006 8.1982 -2.7550 0.2096 0 7
9.8260 8.2874 -2.7550 0.2096 0 7
9.7506 8.3760 -2.7550 0.2096 0 7
9.6745 8.4638 -2.7550 0.2096 0 7
9.5975 8.5510 -2.7550 0.2096 0 7
9.5198 8.6375 -2.7550 0.2096 0 7
9.4412 8.7232 -2.7550 0.2096 0 7
9.3619 8.8083 -2.7550 0.2096 0 7
9.2819 8.8926 -2.7550 0.2096 0 7
9.2010 8.9762 -2.7550 0.2096 0 7
9.1195 9.0591 -2.7550 0.2096 0 7
9.0371 9.1412 -2.7550 0.2096 0 7
8.9541 9.2226 -2.7550 0.2096 0 7
8.8703 9.3032 -2.7550 0.2096 0 7
8.7858 9.3831 -2.7550 0.2096 0 7
8.7005 9.4622 -2.7550 0.2096 0 7
8.6146 9.5405 -2.7550 0.2096 0 6
8.5279 9.6180 -2.7550 0.2096 0 7
8.4405 9.6948 -2.7550 0.2096 0 7
8.3525 9.7707 -2.7550 0.2096 0 7
8.2638 9.8459 -2.7550 0.2096 0 7
8.1744 9.9203 -2.7550 0.2096 0 7
8.0843 9.9938 -2.7550 0.2096 0 7
7.9935 10.0665 -2.7550 0.2096 0 7
7.9021 10.1384 -2.7550 0.2096 0 7
7.8101 10.2095 -2.7550 0.2096 0 7
7.7174 10.2797 -2.7550 0.2096 0 7
7.6241 10.3491 -2.7550 0.2096 0 7
7.5302 10.4177 -2.7550 0.2096 0 7
7.4356 10.4854 -2.7550 0.2096 0 7
7.3405 10.5522 -2.7550 0.2096 0 7
7.2447 10.6182 -2.7550 0.2096 0 7
7.1484 10.6833 -2.7550 0.2096 0 7
7.0514 10.7475 -2.7550 0.2096 0 7
6.9539 10.8108 -2.7550 0.2096 0 7
6.8558 10.8733 -2.7550 0.2096 0 7
6.7572 10.9349 -2.7550 0.2096 0 7
6.6580 10.9956 -2.7550 0.2096 0 7
6.5583 11.0554 -2.7550 0.2096 0 7
6.4580 11.1142 -2.7550 0.2096 0 7
6.3572 11.1722 -2.7550 0.2096 0 7
6.2559 11.2292 -2.7550 0.2096 0 7
6.1540 11.2854 -2.7550 0.2096 0 7
6.0517 11.3406 -2.7550 0.2096 0 7
5.9488 11.3949 -2.7550 0.2096 0 7
5.8455 11.4482 -2.7550 0.2096 0 7
5.7417 11.5006 -2.7550 0.2096 0 7
5.6374 11.5521 -2.7550 0.2096 0 7
5.5327 11.6026 -2.7550 0.2096 0 7
5.4275 11.6522 -2.7550 0.2096 0 7
5.3219 11.7008 -2.7550 0.2096 0 7
5.2158 11.7485 -2.7550 0.2096 0 7
5.1093 11.7952 -2.7550 0.2096 0 7
5.0024 11.8409 -2.7550 0.2096 0 6
4.8951 11.8857 -2.7550 0.2096 0 7
4.7874 11.9295 -2.7550 0.2096 0 7
4.6792 11.9723 -2.7550 0.2096 0 7
4.5707 12.0141 -2.7550 0.2096 0 7
4.4619 12.0550 -2.7550 0.2096 0 7
4.3526 12.0949 -2.7550 0.2096 0 7
4.2431 12.1338 -2.7550 0.2096 0 7
4.1331 12.1716 -2.7550 0.2096 0 7
4.0228 12.2085 -2.7550 0.2096 0 7
3.9122 12.2444 -2.7550 0.2096 0 7
3.8013 12.2793 -2.7550 0.2096 0 7
3.6901 12.3132 -2.7550 0.2096 0 7
3.5785 12.3461 -2.7550 0.2096 0 7
3.4667 12.3779 -2.7550 0.2096 0 7
3.3546 12.4088 -2.7550 0.2096 0 7
3.2422 12.4386 -2.7550 0.2096 0 7
3.1295 12.4675 -2.7550 0.2096 0 7
3.0166 12.4953 -2.7550 0.2096 0 7
2.9016 12.5139 -2.7532 0.2055 0 8
2.7863 12.5308 -2.7512 0.2057 0 8
2.6709 12.5466 -2.7493 0.2058 0 8
2.4208 11.8994 -2.6026 0.2096 0 8
2.3131 11.9208 -2.6026 0.2096 0 8
2.2051 11.9412 -2.6026 0.2096 0 8
2.0970 11.9607 -2.6026 0.2096 0 8
1.9888 11.9792 -2.6026 0.2096 0 8
1.8803 11.9967 -2.6026 0.2096 0 8
1.7717 12.0132 -2.6026 0.2096 0 8
1.6629 12.0288 -2.6026 0.2096 0 8
1.5541 12.0433 -2.6026 0.2096 0 8
1.4451 12.0569 -2.6026 0.2096 0 8
1.3359 12.0695 -2.6026 0.2096 0 8
1.2267 12.0810 -2.6026 0.2096 0 8
1.1174 12.0917 -2.6026 0.2096 0 8
1.0079 12.1013 -2.6026 0.2096 0 8
0.8984 12.1099 -2.6026 0.2096 0 8
0.7888 12.1175 -2.6026 0.2096 0 8
0.6792 12.1242 -2.6026 0.2096 0 8
0.5695 12.1298 -2.6026 0.2096 0 8
0.4597 12.1345 -2.6026 0.2096 0 8
0.3499 12.1381 -2.6026 0.2096 0 8
0.2401 12.1408 -2.6026 0.2096 0 8
0.1303 12.1425 -2.6026 0.2096 0 8
0.0204 12.1431 -2.6026 0.2096 0 8
-0.0895 12.1428 -2.6026 0.2096 0 8
-0.1993 12.1415 -2.6026 0.2096 0 8
-0.3091 12.1392 -2.6026 0.2096 0 8
-0.4189 12.1359 -2.6026 0.2096 0 8
-0.5287 12.1317 -2.6026 0.2096 0 8
-0.6384 12.1264 -2.6026 0.2096 0 8
-0.7481 12.1201 -2.6026 0.2096 0 8
-0.8577 12.1128 -2.6026 0.2096 0 8
-0.9672 12.1046 -2.6026 0.2096 0 8
-1.0767 12.0953 -2.6026 0.2096 0 8
-1.1861 12.0851 -2.6026 0.2096 0 8
-1.2953 12.0739 -2.6026 0.2096 0 8
-1.4045 12.0617 -2.6026 0.2096 0 8
-1.5136 12.0485 -2.6026 0.2096 0 8
-1.6225 12.0343 -2.6026 0.2096 0 8
-1.7313 12.0191 -2.6026 0.2096 0 8
-1.8400 12.0030 -2.6026 0.2096 0 8
-1.9485 11.9858 -2.6026 0.2096 0 8
-2.0568 11.9677 -2.6026 0.2096 0 8
-2.1650 11.9486 -2.6026 0.2096 0 8
-2.2730 11.9285 -2.6026 0.2096 0 8
-2.3808 11.9075 -2.6026 0.2096 0 8
-2.4884 11.8855 -2.6026 0.2096 0 8
-2.5958 11.8625 -2.6026 0.2096 0 8
-2.7031 11.8385 -2.6026 0.2096 0 8
-2.8100 11.8136 -2.6026 0.2096 0 8
-2.9168 11.7877 -2.6026 0.2096 0 8
-3.0233 11.7608 -2.6026 0.2096 0 8
-3.1296 11.7329 -2.6026 0.2096 0 8
-3.2356 11.7042 -2.6026 0.2096 0 8
-3.3413 11.6744 -2.6026 0.2096 0 8
-3.4468 11.6437 -2.6026 0.2096 0 8
-3.5520 11.6121 -2.6026 0.2096 0 8
-3.6569 11.5795 -2.6026 0.2096 0 8
-3.5939 11.0314 -2.4866 0.5811 0 9
-3.5234 10.4919 -2.3721 0.5033 0 9
-3.6014 10.4112 -2.3611 0.9278 0 9
-3.6829 10.3427 -2.3530 0.2728 0 9
-3.7969 10.3652 -2.3659 0.3301 0 9
-3.8353 10.1840 -2.3323 0.4368 0 9
-3.9579 10.2280 -2.3505 0.5514 0 9
-4.0607 10.2179 -2.3565 0.6475 0 9
-4.1852 10.2598 -2.3748 0.6425 0 9
-4.2818 10.2311 -2.3770 0.0912 0 9
-4.4398 10.3447 -2.4127 0.9171 0 9
-4.5059 10.2422 -2.3982 0.5027 0 9
-4.5935 10.1901 -2.3956 0.2917 0 9
-4.7179 10.2184 -2.4122 0.1163 0 9
-4.8087 10.1722 -2.4115 0.1170 0 9
-4.9857 10.3042 -2.4533 0.7361 0 9
-5.0816 10.2647 -2.4548 0.3419 0 9
-5.1675 10.2049 -2.4515 0.2630 0 9
-5.3076 10.2504 -2.4739 0.9592 0 9
-5.4060 10.2132 -2.4766 0.1765 0 9
-7.9977 14.7845 -3.6026 0.2096 0 22
-8.1311 14.7115 -3.6026 0.2096 0 22
-8.2639 14.6373 -3.6026 0.2096 0 22
-8.3960 14.5620 -3.6026 0.2096 0 22
-8.5274 14.4854 -3.6026 0.2096 0 22
-8.6581 14.4077 -3.6026 0.2096 0 22
-8.7880 14.3288 -3.6026 0.2096 0 22
-8.9173 14.2487 -3.6026 0.2096 0 22
-9.0458 14.1675 -3.6026 0.2096 0 22
-9.1736 14.0850 -3.6026 0.2096 0 22
-6.7190 10.1149 -2.6026 0.2096 0 8
-6.8102 10.0537 -2.6026 0.2096 0 8
-6.9009 9.9917 -2.6026 0.2096 0 8
-6.9910 9.9289 -2.6026 0.2096 0 8
-7.0805 9.8652 -2.6026 0.2096 0 8
-7.1695 9.8008 -2.6026 0.2096 0 8
-7.2578 9.7355 -2.6026 0.2096 0 8
-7.3456 9.6695 -2.6026 0.2096 0 8
-7.4328 9.6026 -2.6026 0.2096 0 8
-7.5193 9.5350 -2.6026 0.2096 0 8
-3.9146 4.8727 -1.3396 0.2425 0 5
-3.9142 4.7829 -1.3246 0.9462 0 5
-3.9777 4.7718 -1.3314 0.4849 0 5
-7.8594 9.2567 -2.6026 0.2096 0 8
-5.0994 5.8970 -1.6709 0.7718 0 19
-5.1214 5.8153 -1.6608 0.9241 0 19
-5.1686 5.7630 -1.6591 0.9250 0 19
-5.2340 5.7307 -1.6634 0.8163 0 19
-5.3296 5.7304 -1.6772 0.4810 0 19
-8.3500 8.8167 -2.6026 0.2096 0 8
-8.4294 8.7408 -2.6026 0.2096 0 8
-8.5081 8.6642 -2.6026 0.2096 0 8
-8.5862 8.5869 -2.6026 0.2096 0 8
-8.6635 8.5088 -2.6026 0.2096 0 8
-8.7401 8.4301 -2.6026 0.2096 0 8
-8.8160 8.3507 -2.6026 0.2096 0 8
-8.8912 8.2706 -2.6026 0.2096 0 8
-8.9657 8.1898 -2.6026 0.2096 0 8
-9.0394 8.1084 -2.6026 0.2096 0 8
-9.1123 8.0263 -2.6026 0.2096 0 8
-9.1846 7.9435 -2.6026 0.2096 0 8
-5.3789 4.5677 -1.5124 0.3122 0 9
-5.4179 4.5171 -1.5118 0.1205 0 9
-5.5322 4.5281 -1.5322 0.9370 0 9
-5.5777 4.4818 -1.5335 0.9333 0 9
-5.4520 4.3002 -1.4882 0.6302 0 9
-5.5473 4.2945 -1.5035 0.6540 0 9
-5.6420 4.2867 -1.5186 0.6475 0 9
-5.7385 4.2788 -1.5341 0.6410 0 9
-5.8373 4.2708 -1.5502 0.8163 0 9
-5.9148 4.2459 -1.5605 0.5265 0 9
-5.9071 4.1599 -1.5485 0.5579 0 9
-6.0563 4.1835 -1.5776 0.7996 0 9
-6.2213 4.2149 -1.6105 0.5936 0 9
-6.1050 4.0560 -1.5709 0.2466 0 9
-6.1687 4.0184 -1.5779 0.5457 0 9
-6.3472 4.0533 -1.6141 0.7194 0 9
-6.3590 3.9803 -1.6078 0.7222 0 9
-6.3705 3.9078 -1.6018 0.7249 0 9
-6.5405 3.9311 -1.6355 0.4778 0 9
-7.0092 4.1270 -1.7433 0.8316 0 9
-6.9203 3.9908 -1.7121 0.2991 0 9
-6.9697 3.9357 -1.7155 0.2985 0 9
-7.1191 3.9355 -1.7434 0.9541 0 9
-7.1123 3.8482 -1.7331 0.5880 0 9
-7.1521 3.7865 -1.7344 0.9590 0 9
-7.5440 3.9070 -1.8208 0.8420 0 9
-7.5711 3.8346 -1.8189 0.8428 0 9
-7.8033 3.8639 -1.8662 0.6694 0 9
-8.0705 3.9056 -1.9216 0.4018 0 9
-8.2778 3.9140 -1.9624 0.6128 0 9
-8.2206 3.7963 -1.9407 0.6196 0 9
-8.5160 3.8396 -2.0021 0.4375 0 9
-8.6276 3.7964 -2.0202 0.7604 0 9
-8.9064 3.8233 -2.0773 0.6158 0 9
-9.1252 3.8198 -2.1202 0.3323 0 9
-9.2121 3.7586 -2.1324 0.8782 0 9
-9.5825 3.8090 -2.2101 0.8741 0 9
-9.6979 3.7537 -2.2287 0.9835 0 9
-9.7502 3.6729 -2.2330 0.9849 0 9
-10.4114 3.8147 -2.3765 0.9727 0 9
-11.0163 3.9237 -2.5063 0.9804 0 9
-11.2555 3.8945 -2.5526 0.7078 0 9
-11.5111 3.8667 -2.6026 0.2096 0 8
-11.6651 3.8014 -2.6295 0.3686 0 8
-11.9646 3.7796 -2.6892 0.3604 0 8
-12.2583 3.7508 -2.7475 0.2149 0 8
-12.2998 3.6421 -2.7493 0.2148 0 8
-12.3405 3.5330 -2.7511 0.2147 0 8
-12.3802 3.4235 -2.7529 0.2145 0 8
-12.4189 3.3136 -2.7548 0.2144 0 8
-12.4492 3.2014 -2.7550 0.2096 0 7
-12.4777 3.0886 -2.7550 0.2096 0 7
-12.5051 2.9756 -2.7550 0.2096 0 7
-12.5315 2.8623 -2.7550 0.2096 0 7
-12.5569 2.7489 -2.7550 0.2096 0 7
-12.5812 2.6352 -2.7550 0.2096 0 7
-12.6046 2.5213 -2.7550 0.2096 0 7
-12.6268 2.4071 -2.7550 0.2096 0 7
-12.6481 2.2928 -2.7550 0.2096 0 7
-12.6683 2.1783 -2.7550 0.2096 0 7
-12.6875 2.0636 -2.7550 0.2096 0 7
-12.7057 1.9487 -2.7550 0.2096 0 7
11.5756 0.0000 -2.7550 0.2315 0 7
11.5752 0.1047 -2.7550 0.2315 0 7
11.5738 0.2094 -2.7550 0.2315 0 7
11.5714 0.3141 -2.7550 0.2315 0 7
11.5681 0.4188 -2.7550 0.2315 0 7
11.5638 0.5234 -2.7550 0.2315 0 7
11.5586 0.6280 -2.7550 0.2315 0 7
11.5524 0.7325 -2.7550 0.2315 0 7
11.5454 0.8370 -2.7550 0.2315 0 7
11.5373 0.9414 -2.7550 0.2315 0 7
11.5283 1.0458 -2.7550 0.2315 0 7
11.5184 1.1500 -2.7550 0.2315 0 7
11.5075 1.2542 -2.7550 0.2315 0 7
11.4957 1.3582 -2.7550 0.2315 0 7
11.4829 1.4621 -2.7550 0.2315 0 7
11.4692 1.5660 -2.7550 0.2315 0 7
11.4546 1.6696 -2.7550 0.2315 0 7
11.4390 1.7732 -2.7550 0.2315 0 7
11.4225 1.8766 -2.7550 0.2315 0 7
11.4051 1.9799 -2.7550 0.2315 0 7
11.3867 2.0830 -2.7550 0.2315 0 7
11.3674 2.1859 -2.7550 0.2315 0 7
11.3471 2.2886 -2.7550 0.2315 0 7
11.3260 2.3912 -2.7550 0.2315 0 7
11.3039 2.4935 -2.7550 0.2315 0 7
11.2809 2.5957 -2.7550 0.2315 0 7
11.2569 2.6977 -2.7550 0.2315 0 7
11.2321 2.7994 -2.7550 0.2315 0 7
11.2063 2.9009 -2.7550 0.2315 0 7
11.1796 3.0021 -2.7550 0.2315 0 7
11.1519 3.1031 -2.7550 0.2315 0 7
11.1234 3.2039 -2.7550 0.2315 0 7
11.0940 3.3044 -2.7550 0.2315 0 7
11.0636 3.4046 -2.7550 0.2315 0 7
11.0324 3.5046 -2.7550 0.2315 0 7
11.0002 3.6042 -2.7550 0.2315 0 7
10.9672 3.7036 -2.7550 0.2315 0 7
10.9332 3.8026 -2.7550 0.2315 0 7
10.8984 3.9014 -2.7550 0.2315 0 7
10.8626 3.9998 -2.7550 0.2315 0 7
10.8260 4.0979 -2.7550 0.2315 0 7
10.7885 4.1957 -2.7550 0.2315 0 7
10.7501 4.2931 -2.7550 0.2315 0 7
10.7108 4.3902 -2.7550 0.2315 0 7
10.6707 4.4869 -2.7550 0.2315 0 7
10.6296 4.5832 -2.7550 0.2315 0 7
10.5877 4.6792 -2.7550 0.2315 0 7
10.5450 4.7748 -2.7550 0.2315 0 7
10.5014 4.8700 -2.7550 0.2315 0 7
10.4569 4.9648 -2.7550 0.2315 0 7
10.4115 5.0592 -2.7550 0.2315 0 7
10.3654 5.1532 -2.7550 0.2315 0 7
10.3183 5.2467 -2.7550 0.2315 0 7
10.2704 5.3398 -2.7550 0.2315 0 7
10.2217 5.4325 -2.7550 0.2315 0 7
10.1721 5.5248 -2.7550 0.2315 0 7
10.1217 5.6166 -2.7550 0.2315 0 7
10.0705 5.7079 -2.7550 0.2315 0 7
10.0185 5.7988 -2.7550 0.2315 0 7
9.9656 5.8892 -2.7550 0.2315 0 7
9.9119 5.9791 -2.7550 0.2315 0 7
9.8574 6.0685 -2.7550 0.2315 0 7
9.8021 6.1574 -2.7550 0.2315 0 7
9.7460 6.2459 -2.7550 0.2315 0 7
9.6891 6.3338 -2.7550 0.2315 0 7
9.6314 6.4212 -2.7550 0.2315 0 7
9.5729 6.5080 -2.7550 0.2315 0 7
9.5137 6.5944 -2.7550 0.2315 0 7
9.4536 6.6802 -2.7550 0.2315 0 7
9.3928 6.7654 -2.7550 0.2315 0 7
9.3312 6.8501 -2.7550 0.2315 0 7
9.2689 6.9342 -2.7550 0.2315 0 7
9.2058 7.0178 -2.7550 0.2315 0 7
9.1419 7.1008 -2.7550 0.2315 0 7
9.0773 7.1832 -2.7550 0.2315 0 7
9.0120 7.2650 -2.7550 0.2315 0 7
8.9459 7.3463 -2.7550 0.2315 0 7
8.8790 7.4269 -2.7550 0.2315 0 7
8.8115 7.5069 -2.7550 0.2315 0 7
8.7432 7.5863 -2.7550 0.2315 0 7
8.6742 7.6651 -2.7550 0.2315 0 7
8.6045 7.7432 -2.7550 0.2315 0 7
8.5341 7.8208 -2.7550 0.2315 0 7
8.4630 7.8976 -2.7550 0.2315 0 7
8.3912 7.9739 -2.7550 0.2315 0 7
8.3188 8.0495 -2.7550 0.2315 0 7
8.2456 8.1244 -2.7550 0.2315 0 7
8.1718 8.1986 -2.7550 0.2315 0 7
8.0973 8.2722 -2.7550 0.2315 0 7
8.0221 8.3451 -2.7550 0.2315 0 7
7.9463 8.4174 -2.7550 0.2315 0 7
7.8698 8.4889 -2.7550 0.2315 0 7
7.7927 8.5598 -2.7550 0.2315 0 7
7.7149 8.6299 -2.7550 0.2315 0 7
7.6366 8.6993 -2.7550 0.2315 0 7
7.5576 8.7681 -2.7550 0.2315 0 7
7.4779 8.8361 -2.7550 0.2315 0 7
7.3977 8.9034 -2.7550 0.2315 0 7
7.3168 8.9699 -2.7550 0.2315 0 7
7.2354 9.0357 -2.7550 0.2315 0 7
7.1534 9.1008 -2.7550 0.2315 0 7
7.0707 9.1652 -2.7550 0.2315 0 7
6.9875 9.2288 -2.7550 0.2315 0 7
6.9038 9.2916 -2.7550 0.2315 0 7
6.8194 9.3537 -2.7550 0.2315 0 7
6.7345 9.4150 -2.7550 0.2315 0 7
6.6491 9.4755 -2.7550 0.2315 0 7
6.5631 9.5353 -2.7550 0.2315 0 7
6.4766 9.5942 -2.7550 0.2315 0 7
6.3895 9.6525 -2.7550 0.2315 0 7
6.3019 9.7099 -2.7550 0.2315 0 7
6.2138 9.7665 -2.7550 0.2315 0 7
6.1252 9.8223 -2.7550 0.2315 0 7
6.0361 9.8773 -2.7550 0.2315 0 7
5.9465 9.9315 -2.7550 0.2315 0 7
5.8564 9.9849 -2.7550 0.2315 0 7
5.7659 10.0374 -2.7550 0.2315 0 7
5.6748 10.0892 -2.7550 0.2315 0 7
5.5833 10.1401 -2.7550 0.2315 0 7
5.4914 10.1902 -2.7550 0.2315 0 7
5.3990 10.2395 -2.7550 0.2315 0 7
5.3061 10.2879 -2.7550 0.2315 0 7
5.2128 10.3355 -2.7550 0.2315 0 7
5.1191 10.3822 -2.7550 0.2315 0 7
5.0250 10.4281 -2.7550 0.2315 0 7
4.9304 10.4731 -2.7550 0.2315 0 7
4.8355 10.5173 -2.7550 0.2315 0 6
4.7402 10.5606 -2.7550 0.2315 0 7
