ply
format ascii 1.0
element vertex 1364
property float32 x
property float32 y
property float32 z
property float32 CosAngle
property uint32 ObjIdx
property uint32 ObjTag
end_header
-2.4301 13.8006 -2.0257 0.1431 0 1
-2.5280 13.6333 -2.0045 0.5913 0 9
-2.6389 13.5464 -1.9951 0.7683 0 9
-2.7770 13.5984 -2.0064 0.7640 0 9
-2.8598 13.3848 -1.9786 0.8810 0 9
-2.9384 13.1682 -1.9504 0.0628 0 9
-3.0370 13.0528 -1.9373 0.2713 0 9
-3.1345 12.9402 -1.9248 0.1838 0 9
-3.3405 13.2647 -1.9774 0.4222 0 9
-3.4136 13.0549 -1.9507 0.0049 0 9
-3.4469 12.7111 -1.9039 0.3947 0 9
-3.6187 12.8821 -1.9343 0.3885 0 9
-3.8552 13.2618 -1.9965 0.8916 0 9
-3.7933 12.6214 -1.9052 0.6397 0 9
-3.9474 12.7155 -1.9247 0.6332 0 9
-4.0443 12.6229 -1.9162 0.1913 0 9
-4.2394 12.8312 -1.9535 0.3486 0 9
-4.2565 12.5019 -1.9092 0.7569 0 9
-4.3934 12.5310 -1.9196 0.7528 0 9
-4.4940 12.4556 -1.9142 0.1497 0 9
-4.5889 12.3670 -1.9069 0.2864 0 9
-4.6592 12.2163 -1.8901 0.3444 0 9
-4.8553 12.3924 -1.9241 0.8888 0 9
-4.8099 11.9568 -1.8631 0.5538 0 9
-4.9245 11.9286 -1.8656 0.4648 0 9
-5.0423 11.9073 -1.8693 0.4639 0 9
-5.1605 11.8855 -1.8732 0.4629 0 9
-5.2632 11.8280 -1.8715 0.2406 0 9
-5.3090 11.6461 -1.8503 0.2433 0 9
-5.5319 11.8496 -1.8905 0.5271 0 9
-5.6068 11.7319 -1.8797 0.5301 0 9
-5.7658 11.7891 -1.8972 0.7269 0 9
-5.8239 11.6397 -1.8815 0.7303 0 9
-5.9481 11.6239 -1.8876 0.7253 0 9
-6.0228 11.5117 -1.8782 0.7290 0 9
-6.0968 11.4006 -1.8690 0.7326 0 9
-6.3928 11.6983 -1.9272 0.1812 0 9
-6.5284 11.6937 -1.9361 0.1739 0 9
-6.6291 11.6254 -1.9346 0.3943 0 9
-6.8603 11.7819 -1.9709 0.9815 0 9
-6.9666 11.7192 -1.9709 0.8421 0 9
-7.0267 11.5803 -1.9581 0.7811 0 9
-7.2072 11.6390 -1.9790 0.2244 0 9
-7.3965 11.7066 -2.0018 0.7055 0 9
-7.5924 11.7792 -2.0259 0.8838 0 9
-7.7051 11.7197 -2.0276 0.8823 0 9
-7.7806 11.6043 -2.0197 0.8858 0 9
-7.8561 11.4907 -2.0122 0.8981 0 9
-8.0131 11.4957 -2.0257 0.1431 0 1
-8.1168 11.4227 -2.0257 0.1431 0 1
-6.3730 8.7989 -1.5706 0.2139 0 5
-6.4324 8.7137 -1.5657 0.5257 0 5
-8.4240 11.1981 -2.0257 0.1431 0 1
-8.5806 11.1941 -2.0390 0.7943 0 1
-8.7408 11.1917 -2.0529 0.7890 0 1
-8.9031 11.1893 -2.0671 0.7835 0 1
-9.0677 11.1868 -2.0817 0.7780 0 1
-9.2347 11.1843 -2.0967 0.7724 0 1
-9.4041 11.1818 -2.1121 0.7668 0 1
-9.5760 11.1793 -2.1279 0.7611 0 1
-9.7506 11.1767 -2.1442 0.7554 0 1
-9.9278 11.1741 -2.1608 0.7495 0 1
-10.1079 11.1714 -2.1779 0.7437 0 1
-10.2908 11.1687 -2.1954 0.7377 0 1
-10.4767 11.1659 -2.2134 0.7317 0 1
-10.6657 11.1631 -2.2319 0.7257 0 1
-10.8579 11.1603 -2.2509 0.7195 0 1
-11.0534 11.1574 -2.2704 0.7133 0 1
-11.2523 11.1544 -2.2905 0.7071 0 1
-11.4548 11.1514 -2.3110 0.7008 0 1
-11.6610 11.1484 -2.3322 0.6945 0 1
-11.8710 11.1453 -2.3539 0.6880 0 1
-12.0850 11.1421 -2.3762 0.6816 0 1
-12.3031 11.1389 -2.3992 0.6751 0 1
-12.5254 11.1356 -2.4228 0.6685 0 1
-12.7523 11.1322 -2.4471 0.6618 0 1
-12.9837 11.1288 -2.4721 0.6552 0 1
-13.2199 11.1253 -2.4978 0.6484 0 1
-13.4611 11.1217 -2.5242 0.6416 0 1
-13.7075 11.1180 -2.5514 0.6348 0 1
-13.8545 11.0309 -2.5601 0.1431 0 8
-13.9538 10.9051 -2.5601 0.1431 0 8
-14.0519 10.7783 -2.5601 0.1431 0 8
-14.1489 10.6507 -2.5601 0.1431 0 8
-14.2447 10.5222 -2.5601 0.1431 0 8
-14.3394 10.3929 -2.5601 0.1431 0 8
-14.4329 10.2626 -2.5601 0.1431 0 8
-14.5252 10.1316 -2.5601 0.1431 0 8
-14.6163 9.9997 -2.5601 0.1431 0 8
-14.7062 9.8670 -2.5601 0.1431 0 8
-14.7949 9.7335 -2.5601 0.1431 0 8
-14.8824 9.5992 -2.5601 0.1431 0 8
-14.9686 9.4641 -2.5601 0.1431 0 8
-15.0537 9.3283 -2.5601 0.1431 0 8
-15.1375 9.1916 -2.5601 0.1431 0 8
-15.2201 9.0542 -2.5601 0.1431 0 8
-15.3014 8.9161 -2.5601 0.1431 0 8
-15.3815 8.7773 -2.5601 0.1431 0 8
-15.4603 8.6377 -2.5601 0.1431 0 8
-15.5378 8.4974 -2.5601 0.1431 0 8
-15.6141 8.3564 -2.5601 0.1431 0 8
-15.6891 8.2147 -2.5601 0.1431 0 8
-15.7885 8.0856 -2.5643 0.4376 0 8
-16.1087 8.0663 -2.6043 0.4861 0 8
-16.4442 8.0490 -2.6467 0.4783 0 8
-16.7908 8.0311 -2.6907 0.4705 0 8
-16.9625 7.9254 -2.7066 0.1506 0 8
-17.0489 7.7785 -2.7090 0.1504 0 8
-17.1341 7.6308 -2.7115 0.1503 0 8
-17.2092 7.4783 -2.7125 0.1431 0 7
-17.2761 7.3223 -2.7125 0.1431 0 7
-17.3417 7.1656 -2.7125 0.1431 0 7
-17.4059 7.0083 -2.7125 0.1431 0 7
-17.4686 6.8505 -2.7125 0.1431 0 7
-17.5299 6.6922 -2.7125 0.1431 0 7
-17.5897 6.5332 -2.7125 0.1431 0 7
-17.6481 6.3737 -2.7125 0.1431 0 7
-17.7051 6.2137 -2.7125 0.1431 0 7
-17.7606 6.0533 -2.7125 0.1431 0 7
-17.8147 5.8923 -2.7125 0.1431 0 7
-17.8672 5.7308 -2.7125 0.1431 0 7
-17.9184 5.5688 -2.7125 0.1431 0 6
-17.9681 5.4064 -2.7125 0.1431 0 7
-18.0163 5.2436 -2.7125 0.1431 0 7
-18.0630 5.0803 -2.7125 0.1431 0 7
-18.1082 4.9166 -2.7125 0.1431 0 7
-18.1520 4.7525 -2.7125 0.1431 0 7
-18.1943 4.5880 -2.7125 0.1431 0 7
-18.2350 4.4232 -2.7125 0.1431 0 7
-18.2743 4.2579 -2.7125 0.1431 0 7
-18.3121 4.0924 -2.7125 0.1431 0 7
-18.3484 3.9264 -2.7125 0.1431 0 7
-18.3832 3.7602 -2.7125 0.1431 0 7
-18.4165 3.5937 -2.7125 0.1431 0 7
-18.4482 3.4268 -2.7125 0.1431 0 7
-18.4785 3.2597 -2.7125 0.1431 0 7
-18.5072 3.0924 -2.7125 0.1431 0 7
-18.5345 2.9247 -2.7125 0.1431 0 7
-18.5602 2.7568 -2.7125 0.1431 0 7
-18.5844 2.5887 -2.7125 0.1431 0 7
-18.6070 2.4204 -2.7125 0.1431 0 7
-18.6282 2.2519 -2.7125 0.1431 0 7
-18.6478 2.0832 -2.7125 0.1431 0 7
-18.6659 1.9144 -2.7125 0.1431 0 7
-18.6825 1.7453 -2.7125 0.1431 0 7
-18.6975 1.5762 -2.7125 0.1431 0 7
-18.7110 1.4069 -2.7125 0.1431 0 7
-18.7230 1.2375 -2.7125 0.1431 0 7
-18.7334 1.0679 -2.7125 0.1431 0 7
-18.7423 0.8984 -2.7125 0.1431 0 7
-18.7497 0.7287 -2.7125 0.1431 0 7
-18.7555 0.5590 -2.7125 0.1431 0 7
-18.7598 0.3892 -2.7125 0.1431 0 7
-18.7625 0.2194 -2.7125 0.1431 0 7
-18.7638 0.0495 -2.7125 0.1431 0 7
-18.7634 -0.1203 -2.7125 0.1431 0 7
-18.7616 -0.2901 -2.7125 0.1431 0 7
-18.7582 -0.4599 -2.7125 0.1431 0 7
-18.7532 -0.6297 -2.7125 0.1431 0 7
-18.7468 -0.7994 -2.7125 0.1431 0 7
-18.7388 -0.9690 -2.7125 0.1431 0 7
-18.7292 -1.1386 -2.7125 0.1431 0 7
-18.7182 -1.3081 -2.7125 0.1431 0 6
-18.7056 -1.4774 -2.7125 0.1431 0 7
-18.6914 -1.6467 -2.7125 0.1431 0 6
-18.6757 -1.8158 -2.7125 0.1431 0 7
-18.6586 -1.9847 -2.7125 0.1431 0 7
-18.6398 -2.1535 -2.7125 0.1431 0 7
-18.6196 -2.3221 -2.7125 0.1431 0 7
-18.5978 -2.4906 -2.7125 0.1431 0 7
-18.5745 -2.6588 -2.7125 0.1431 0 7
-18.5496 -2.8268 -2.7125 0.1431 0 7
-18.5233 -2.9946 -2.7125 0.1431 0 7
-18.4954 -3.1621 -2.7125 0.1431 0 7
-18.4661 -3.3294 -2.7125 0.1431 0 7
-18.4352 -3.4964 -2.7125 0.1431 0 7
-18.4028 -3.6631 -2.7125 0.1431 0 7
-18.3689 -3.8295 -2.7125 0.1431 0 7
-18.3335 -3.9956 -2.7125 0.1431 0 7
-18.2965 -4.1614 -2.7125 0.1431 0 7
-18.2581 -4.3268 -2.7125 0.1431 0 7
-18.2182 -4.4919 -2.7125 0.1431 0 7
-18.1768 -4.6566 -2.7125 0.1431 0 7
-18.1339 -4.8209 -2.7125 0.1431 0 7
-18.0896 -4.9849 -2.7125 0.1431 0 7
-18.0437 -5.1484 -2.7125 0.1431 0 7
-17.9964 -5.3115 -2.7125 0.1431 0 7
-17.9475 -5.4741 -2.7125 0.1431 0 7
-17.8972 -5.6363 -2.7125 0.1431 0 7
-17.8455 -5.7981 -2.7125 0.1431 0 7
-17.7923 -5.9594 -2.7125 0.1431 0 7
-17.7376 -6.1202 -2.7125 0.1431 0 7
-17.6815 -6.2805 -2.7125 0.1431 0 7
-17.6240 -6.4402 -2.7125 0.1431 0 7
-17.5649 -6.5995 -2.7125 0.1431 0 7
-17.5045 -6.7582 -2.7125 0.1431 0 7
-17.4426 -6.9164 -2.7125 0.1431 0 7
-17.3793 -7.0739 -2.7125 0.1431 0 7
-17.3146 -7.2309 -2.7125 0.1431 0 7
-17.2484 -7.3874 -2.7125 0.1431 0 7
-17.1808 -7.5432 -2.7125 0.1431 0 7
-17.1118 -7.6984 -2.7125 0.1431 0 7
-17.0415 -7.8529 -2.7125 0.1431 0 7
-16.9697 -8.0068 -2.7125 0.1431 0 7
-16.8965 -8.1601 -2.7125 0.1431 0 7
-16.8220 -8.3127 -2.7125 0.1431 0 7
-16.7461 -8.4646 -2.7125 0.1431 0 6
-16.6687 -8.6158 -2.7125 0.1431 0 7
-16.5901 -8.7664 -2.7125 0.1431 0 7
-16.5101 -8.9161 -2.7125 0.1431 0 7
-16.4287 -9.0652 -2.7125 0.1431 0 7
-16.3460 -9.2136 -2.7125 0.1431 0 7
-16.2619 -9.3611 -2.7125 0.1431 0 7
-16.1765 -9.5079 -2.7125 0.1431 0 7
-16.0898 -9.6539 -2.7125 0.1431 0 7
-16.0018 -9.7992 -2.7125 0.1431 0 7
-15.9124 -9.9436 -2.7125 0.1431 0 7
-15.8218 -10.0872 -2.7125 0.1431 0 7
-15.7298 -10.2300 -2.7125 0.1431 0 7
16.1815 0.0000 -2.7125 0.1653 0 7
16.1808 0.1465 -2.7125 0.1653 0 7
16.1788 0.2929 -2.7125 0.1653 0 7
16.1755 0.4393 -2.7125 0.1653 0 7
16.1708 0.5857 -2.7125 0.1653 0 7
16.1649 0.7321 -2.7125 0.1653 0 7
16.1576 0.8783 -2.7125 0.1653 0 7
16.1490 1.0245 -2.7125 0.1653 0 7
16.1390 1.1707 -2.7125 0.1653 0 7
16.1278 1.3167 -2.7125 0.1653 0 7
16.1152 1.4626 -2.7125 0.1653 0 7
16.1013 1.6084 -2.7125 0.1653 0 7
16.0861 1.7541 -2.7125 0.1653 0 7
16.0696 1.8996 -2.7125 0.1653 0 7
16.0517 2.0450 -2.7125 0.1653 0 7
16.0326 2.1901 -2.7125 0.1653 0 7
16.0121 2.3352 -2.7125 0.1653 0 7
15.9903 2.4800 -2.7125 0.1653 0 7
15.9672 2.6246 -2.7125 0.1653 0 7
15.9428 2.7690 -2.7125 0.1653 0 7
15.9171 2.9132 -2.7125 0.1653 0 7
15.8900 3.0572 -2.7125 0.1653 0 7
15.8617 3.2009 -2.7125 0.1653 0 7
15.8321 3.3443 -2.7125 0.1653 0 7
15.8012 3.4875 -2.7125 0.1653 0 7
15.7690 3.6303 -2.7125 0.1653 0 7
15.7355 3.7729 -2.7125 0.1653 0 7
15.7007 3.9152 -2.7125 0.1653 0 7
15.6646 4.0571 -2.7125 0.1653 0 7
15.6272 4.1987 -2.7125 0.1653 0 7
15.5886 4.3400 -2.7125 0.1653 0 7
15.5487 4.4809 -2.7125 0.1653 0 7
15.5075 4.6215 -2.7125 0.1653 0 7
15.4650 4.7616 -2.7125 0.1653 0 7
15.4213 4.9014 -2.7125 0.1653 0 7
15.3763 5.0408 -2.7125 0.1653 0 7
15.3300 5.1797 -2.7125 0.1653 0 7
15.2825 5.3183 -2.7125 0.1653 0 7
15.2338 5.4564 -2.7125 0.1653 0 7
15.1837 5.5940 -2.7125 0.1653 0 7
15.1325 5.7312 -2.7125 0.1653 0 7
15.0800 5.8679 -2.7125 0.1653 0 7
15.0263 6.0042 -2.7125 0.1653 0 7
14.9713 6.1400 -2.7125 0.1653 0 7
14.9151 6.2752 -2.7125 0.1653 0 7
14.8577 6.4099 -2.7125 0.1653 0 7
14.7991 6.5441 -2.7125 0.1653 0 7
14.7393 6.6778 -2.7125 0.1653 0 7
14.6782 6.8110 -2.7125 0.1653 0 7
14.6160 6.9435 -2.7125 0.1653 0 7
14.5525 7.0755 -2.7125 0.1653 0 7
14.4879 7.2070 -2.7125 0.1653 0 7
14.4221 7.3378 -2.7125 0.1653 0 7
14.3551 7.4680 -2.7125 0.1653 0 7
14.2869 7.5977 -2.7125 0.1653 0 7
14.2175 7.7267 -2.7125 0.1653 0 7
14.1470 7.8550 -2.7125 0.1653 0 7
14.0754 7.9827 -2.7125 0.1653 0 7
14.0025 8.1098 -2.7125 0.1653 0 7
13.9285 8.2362 -2.7125 0.1653 0 7
13.8534 8.3619 -2.7125 0.1653 0 7
13.7772 8.4870 -2.7125 0.1653 0 7
13.6998 8.6113 -2.7125 0.1653 0 7
13.6213 8.7350 -2.7125 0.1653 0 7
13.5417 8.8579 -2.7125 0.1653 0 7
13.4609 8.9801 -2.7125 0.1653 0 7
13.3791 9.1016 -2.7125 0.1653 0 7
13.2962 9.2223 -2.7125 0.1653 0 7
13.2122 9.3423 -2.7125 0.1653 0 7
13.1271 9.4615 -2.7125 0.1653 0 7
13.0409 9.5799 -2.7125 0.1653 0 7
12.9537 9.6975 -2.7125 0.1653 0 7
12.8654 9.8144 -2.7125 0.1653 0 7
12.7760 9.9304 -2.7125 0.1653 0 7
12.6856 10.0456 -2.7125 0.1653 0 7
12.5942 10.1600 -2.7125 0.1653 0 7
12.5017 10.2736 -2.7125 0.1653 0 7
12.4082 10.3863 -2.7125 0.1653 0 7
12.3137 10.4982 -2.7125 0.1653 0 7
12.2182 10.6092 -2.7125 0.1653 0 7
12.1216 10.7194 -2.7125 0.1653 0 7
12.0241 10.8287 -2.7125 0.1653 0 7
11.9256 10.9371 -2.7125 0.1653 0 7
11.8261 11.0445 -2.7125 0.1653 0 7
11.7257 11.1511 -2.7125 0.1653 0 7
11.6243 11.2568 -2.7125 0.1653 0 7
11.5219 11.3616 -2.7125 0.1653 0 7
11.4186 11.4654 -2.7125 0.1653 0 7
11.3144 11.5683 -2.7125 0.1653 0 7
11.2092 11.6702 -2.7125 0.1653 0 7
11.1031 11.7712 -2.7125 0.1653 0 7
10.9961 11.8712 -2.7125 0.1653 0 7
10.8882 11.9702 -2.7125 0.1653 0 7
10.7795 12.0683 -2.7125 0.1653 0 7
10.6698 12.1653 -2.7125 0.1653 0 7
10.5592 12.2614 -2.7125 0.1653 0 7
10.4478 12.3565 -2.7125 0.1653 0 7
10.3356 12.4505 -2.7125 0.1653 0 7
10.2224 12.5436 -2.7125 0.1653 0 7
10.1085 12.6356 -2.7125 0.1653 0 7
9.9937 12.7266 -2.7125 0.1653 0 7
9.8781 12.8165 -2.7125 0.1653 0 7
9.7617 12.9054 -2.7125 0.1653 0 7
9.6445 12.9932 -2.7125 0.1653 0 7
9.5265 13.0799 -2.7125 0.1653 0 7
9.4077 13.1656 -2.7125 0.1653 0 7
9.2882 13.2502 -2.7125 0.1653 0 7
9.1679 13.3338 -2.7125 0.1653 0 7
9.0468 13.4162 -2.7125 0.1653 0 7
8.9250 13.4975 -2.7125 0.1653 0 7
8.8025 13.5778 -2.7125 0.1653 0 7
8.6792 13.6569 -2.7125 0.1653 0 7
8.5553 13.7349 -2.7125 0.1653 0 7
8.4306 13.8117 -2.7125 0.1653 0 6
8.3053 13.8875 -2.7125 0.1653 0 6
8.1792 13.9621 -2.7125 0.1653 0 6
8.0525 14.0355 -2.7125 0.1653 0 6
7.9252 14.1079 -2.7125 0.1653 0 7
7.7971 14.1790 -2.7125 0.1653 0 7
7.6685 14.2490 -2.7125 0.1653 0 7
7.5392 14.3178 -2.7125 0.1653 0 7
7.4093 14.3855 -2.7125 0.1653 0 6
7.2788 14.4519 -2.7125 0.1653 0 6
7.1477 14.5172 -2.7125 0.1653 0 6
7.0160 14.5813 -2.7125 0.1653 0 6
6.8838 14.6442 -2.7125 0.1653 0 7
6.7509 14.7059 -2.7125 0.1653 0 7
6.6175 14.7664 -2.7125 0.1653 0 7
6.4836 14.8257 -2.7125 0.1653 0 7
6.3492 14.8838 -2.7125 0.1653 0 6
6.2142 14.9407 -2.7125 0.1653 0 6
6.0787 14.9963 -2.7125 0.1653 0 6
5.9427 15.0507 -2.7125 0.1653 0 7
5.8063 15.1039 -2.7125 0.1653 0 7
5.6693 15.1558 -2.7125 0.1653 0 7
5.5319 15.2065 -2.7125 0.1653 0 7
5.3941 15.2559 -2.7125 0.1653 0 6
5.2558 15.3041 -2.7125 0.1653 0 6
5.1170 15.3511 -2.7125 0.1653 0 6
4.9779 15.3968 -2.7125 0.1653 0 6
4.8383 15.4412 -2.7125 0.1653 0 7
4.6984 15.4843 -2.7125 0.1653 0 7
4.5580 15.5262 -2.7125 0.1653 0 7
4.4173 15.5669 -2.7125 0.1653 0 7
4.2762 15.6062 -2.7125 0.1653 0 6
4.1348 15.6443 -2.7125 0.1653 0 6
3.9931 15.6810 -2.7125 0.1653 0 6
3.8510 15.7166 -2.7125 0.1653 0 7
3.7086 15.7508 -2.7125 0.1653 0 7
3.5658 15.7837 -2.7125 0.1653 0 7
3.4229 15.8153 -2.7125 0.1653 0 7
3.2778 15.8372 -2.7111 0.1650 0 8
3.1315 15.8517 -2.7086 0.1651 0 8
2.9851 15.8649 -2.7061 0.1653 0 8
2.6881 15.0339 -2.5601 0.1653 0 8
2.5520 15.0576 -2.5601 0.1653 0 8
2.4156 15.0801 -2.5601 0.1653 0 8
2.2790 15.1013 -2.5601 0.1653 0 8
2.1422 15.1213 -2.5601 0.1653 0 8
2.0052 15.1401 -2.5601 0.1653 0 8
1.8681 15.1576 -2.5601 0.1653 0 8
1.7309 15.1739 -2.5601 0.1653 0 8
1.5934 15.1890 -2.5601 0.1653 0 8
1.4559 15.2028 -2.5601 0.1653 0 8
1.3183 15.2153 -2.5601 0.1653 0 8
1.1805 15.2266 -2.5601 0.1653 0 8
1.0426 15.2367 -2.5601 0.1653 0 8
0.9047 15.2455 -2.5601 0.1653 0 8
0.7667 15.2531 -2.5601 0.1653 0 8
0.6286 15.2594 -2.5601 0.1653 0 8
0.4904 15.2645 -2.5601 0.1653 0 8
0.3523 15.2683 -2.5601 0.1653 0 8
0.2140 15.2708 -2.5601 0.1653 0 8
0.0758 15.2721 -2.5601 0.1653 0 8
-0.0624 15.2722 -2.5601 0.1653 0 8
-0.2006 15.2710 -2.5601 0.1653 0 8
-0.3389 15.2686 -2.5601 0.1653 0 8
-0.4770 15.2649 -2.5601 0.1653 0 8
-0.6152 15.2599 -2.5601 0.1653 0 8
-0.7533 15.2537 -2.5601 0.1653 0 8
-0.8913 15.2463 -2.5601 0.1653 0 8
-1.0292 15.2376 -2.5601 0.1653 0 8
-1.1671 15.2277 -2.5601 0.1653 0 8
-1.3049 15.2165 -2.5601 0.1653 0 8
-1.4254 15.0231 -2.5297 0.4205 0 1
-1.5319 14.7274 -2.4821 0.4286 0 1
-1.6346 14.4426 -2.4365 0.4366 0 1
-1.7335 14.1681 -2.3927 0.4446 0 1
-1.8290 13.9032 -2.3507 0.4526 0 1
-1.9212 13.6475 -2.3103 0.4605 0 1
-2.0102 13.4004 -2.2715 0.4683 0 1
-2.1152 13.2797 -2.2542 0.9463 0 1
-2.2295 13.2254 -2.2483 0.9488 0 1
-2.3432 13.1714 -2.2426 0.9512 0 1
-2.4563 13.1176 -2.2372 0.9535 0 1
-2.5689 13.0642 -2.2319 0.9557 0 1
-2.6810 13.0109 -2.2269 0.9579 0 1
-2.7925 12.9579 -2.2220 0.9600 0 1
-2.9036 12.9051 -2.2174 0.9620 0 1
-3.0143 12.8526 -2.2130 0.9639 0 1
-3.1245 12.8002 -2.2087 0.9658 0 1
-3.2343 12.7481 -2.2047 0.9675 0 1
-3.3437 12.6961 -2.2008 0.9692 0 1
-3.4528 12.6443 -2.1972 0.9708 0 1
-3.5614 12.5927 -2.1937 0.9724 0 1
-3.6698 12.5412 -2.1905 0.9738 0 1
-3.7778 12.4899 -2.1874 0.9752 0 1
-3.8856 12.4387 -2.1845 0.9765 0 1
-3.9930 12.3877 -2.1818 0.9777 0 1
-4.1003 12.3367 -2.1793 0.9788 0 1
-4.2072 12.2859 -2.1769 0.9799 0 1
-4.3140 12.2352 -2.1748 0.9809 0 1
-4.4205 12.1846 -2.1728 0.9818 0 1
-4.5269 12.1341 -2.1710 0.9826 0 1
-4.6331 12.0836 -2.1694 0.9833 0 1
-4.7391 12.0333 -2.1680 0.9839 0 1
-4.8450 11.9829 -2.1667 0.9845 0 1
-4.9508 11.9327 -2.1656 0.9850 0 1
-5.0565 11.8825 -2.1647 0.9854 0 1
-5.1622 11.8323 -2.1640 0.9857 0 1
-5.2677 11.7821 -2.1635 0.9860 0 1
-5.3733 11.7320 -2.1631 0.9861 0 1
-5.4788 11.6819 -2.1629 0.9862 0 1
-5.5842 11.6318 -2.1629 0.9862 0 1
-5.6897 11.5817 -2.1631 0.9862 0 1
-5.7953 11.5315 -2.1634 0.9860 0 1
-5.9008 11.4814 -2.1640 0.9858 0 1
-6.0064 11.4312 -2.1647 0.9854 0 1
-6.1121 11.3810 -2.1655 0.9850 0 1
-6.2179 11.3308 -2.1666 0.9846 0 1
-6.3238 11.2804 -2.1678 0.9840 0 1
-6.4347 11.2386 -2.1709 0.4773 0 1
-6.5619 11.2240 -2.1795 0.8587 0 1
-6.6978 11.2220 -2.1907 0.8543 0 1
-6.8350 11.2199 -2.2023 0.8498 0 1
-6.9738 11.2179 -2.2142 0.8452 0 1
-7.1140 11.2158 -2.2264 0.8406 0 1
-7.2559 11.2137 -2.2390 0.8359 0 1
-7.3993 11.2116 -2.2518 0.8311 0 1
-7.5444 11.2094 -2.2650 0.8263 0 1
-7.6912 11.2072 -2.2785 0.8214 0 1
-7.8398 11.2050 -2.2924 0.8164 0 1
-7.9903 11.2028 -2.3067 0.8113 0 1
-6.3694 8.7613 -1.8157 0.8330 0 5
-6.4645 8.7251 -1.8203 0.5225 0 5
-8.4532 11.1959 -2.3517 0.7958 0 1
-8.6116 11.1936 -2.3674 0.7905 0 1
-8.7721 11.1912 -2.3836 0.7851 0 1
-8.9349 11.1888 -2.4003 0.7797 0 1
-9.1000 11.1863 -2.4173 0.7742 0 1
-9.2674 11.1839 -2.4348 0.7686 0 1
-9.4373 11.1813 -2.4527 0.7630 0 1
-9.6098 11.1788 -2.4712 0.7573 0 1
-9.7848 11.1762 -2.4901 0.7516 0 1
-9.9626 11.1735 -2.5095 0.7458 0 1
-10.1432 11.1709 -2.5294 0.7399 0 1
-10.3267 11.1682 -2.5498 0.7340 0 1
-10.4696 11.1190 -2.5601 0.1653 0 8
-10.5698 11.0238 -2.5601 0.1653 0 8
-10.6691 10.9277 -2.5601 0.1653 0 8
-10.7676 10.8307 -2.5601 0.1653 0 8
-10.8651 10.7328 -2.5601 0.1653 0 8
-10.9618 10.6340 -2.5601 0.1653 0 8
-11.0577 10.5344 -2.5601 0.1653 0 8
-11.1526 10.4339 -2.5601 0.1653 0 8
-11.2465 10.3325 -2.5601 0.1653 0 8
-11.3396 10.2303 -2.5601 0.1653 0 8
-11.4317 10.1272 -2.5601 0.1653 0 8
-11.5229 10.0233 -2.5601 0.1653 0 8
-11.6132 9.9186 -2.5601 0.1653 0 8
-11.7024 9.8131 -2.5601 0.1653 0 8
-11.7908 9.7068 -2.5601 0.1653 0 8
-11.8782 9.5997 -2.5601 0.1653 0 8
-11.9646 9.4918 -2.5601 0.1653 0 8
-12.0500 9.3831 -2.5601 0.1653 0 8
-12.1344 9.2736 -2.5601 0.1653 0 8
-12.2179 9.1634 -2.5601 0.1653 0 8
-12.3003 9.0525 -2.5601 0.1653 0 8
-12.3817 8.9408 -2.5601 0.1653 0 8
-12.4621 8.8283 -2.5601 0.1653 0 8
-12.5415 8.7152 -2.5601 0.1653 0 8
-12.6199 8.6013 -2.5601 0.1653 0 8
-12.6972 8.4867 -2.5601 0.1653 0 8
-12.7735 8.3715 -2.5601 0.1653 0 8
-12.8487 8.2555 -2.5601 0.1653 0 8
-12.9598 8.1621 -2.5674 0.5051 0 8
-13.2023 8.1489 -2.6007 0.5625 0 8
-13.4515 8.1355 -2.6352 0.5551 0 8
-13.7073 8.1217 -2.6708 0.5477 0 8
-13.9568 8.0998 -2.7051 0.1741 0 8
-14.0400 7.9790 -2.7071 0.1740 0 8
-14.1221 7.8575 -2.7091 0.1738 0 8
-14.2033 7.7351 -2.7111 0.1737 0 8
-14.2802 7.6102 -2.7125 0.1653 0 7
-14.3485 7.4807 -2.7125 0.1653 0 7
-14.4156 7.3505 -2.7125 0.1653 0 7
-14.4816 7.2197 -2.7125 0.1653 0 7
-14.5463 7.0883 -2.7125 0.1653 0 7
-14.6099 6.9564 -2.7125 0.1653 0 7
-14.6722 6.8239 -2.7125 0.1653 0 7
-14.7334 6.6908 -2.7125 0.1653 0 7
-14.7934 6.5572 -2.7125 0.1653 0 7
-14.8521 6.4230 -2.7125 0.1653 0 7
-14.9096 6.2883 -2.7125 0.1653 0 7
-14.9659 6.1531 -2.7125 0.1653 0 7
-15.0210 6.0174 -2.7125 0.1653 0 7
-15.0749 5.8812 -2.7125 0.1653 0 7
-15.1275 5.7445 -2.7125 0.1653 0 7
-15.1788 5.6074 -2.7125 0.1653 0 6
-15.2290 5.4698 -2.7125 0.1653 0 7
-15.2779 5.3317 -2.7125 0.1653 0 7
-15.3255 5.1932 -2.7125 0.1653 0 7
-15.3719 5.0543 -2.7125 0.1653 0 7
-15.4170 4.9150 -2.7125 0.1653 0 7
-15.4608 4.7752 -2.7125 0.1653 0 7
-15.5034 4.6351 -2.7125 0.1653 0 7
-15.5447 4.4946 -2.7125 0.1653 0 7
-15.5848 4.3537 -2.7125 0.1653 0 7
-15.6236 4.2125 -2.7125 0.1653 0 7
-15.6610 4.0709 -2.7125 0.1653 0 7
-15.6972 3.9290 -2.7125 0.1653 0 7
-15.7321 3.7867 -2.7125 0.1653 0 7
-15.7658 3.6442 -2.7125 0.1653 0 7
-15.7981 3.5014 -2.7125 0.1653 0 7
-15.8292 3.3582 -2.7125 0.1653 0 7
-15.8589 3.2148 -2.7125 0.1653 0 7
-15.8874 3.0711 -2.7125 0.1653 0 7
-15.9145 2.9272 -2.7125 0.1653 0 7
-15.9403 2.7831 -2.7125 0.1653 0 7
-15.9649 2.6387 -2.7125 0.1653 0 7
-15.9881 2.4941 -2.7125 0.1653 0 7
-16.0100 2.3492 -2.7125 0.1653 0 7
-16.0306 2.2042 -2.7125 0.1653 0 7
-16.0499 2.0591 -2.7125 0.1653 0 6
-16.0679 1.9137 -2.7125 0.1653 0 7
-16.0846 1.7682 -2.7125 0.1653 0 7
-16.0999 1.6226 -2.7125 0.1653 0 7
-16.1139 1.4768 -2.7125 0.1653 0 7
-16.1266 1.3309 -2.7125 0.1653 0 7
-16.1380 1.1849 -2.7125 0.1653 0 7
-16.1481 1.0387 -2.7125 0.1653 0 7
-16.1568 0.8925 -2.7125 0.1653 0 7
-16.1643 0.7463 -2.7125 0.1653 0 7
-16.1703 0.6000 -2.7125 0.1653 0 7
-16.1751 0.4536 -2.7125 0.1653 0 7
-16.1786 0.3071 -2.7125 0.1653 0 7
-16.1807 0.1607 -2.7125 0.1653 0 7
-16.1815 0.0143 -2.7125 0.1653 0 7
-16.1809 -0.1322 -2.7125 0.1653 0 7
-16.1791 -0.2787 -2.7125 0.1653 0 7
-16.1759 -0.4251 -2.7125 0.1653 0 7
-16.1714 -0.5715 -2.7125 0.1653 0 7
-16.1655 -0.7178 -2.7125 0.1653 0 7
-16.1584 -0.8641 -2.7125 0.1653 0 7
-16.1499 -1.0103 -2.7125 0.1653 0 7
-16.1401 -1.1564 -2.7125 0.1653 0 7
-16.1290 -1.3025 -2.7125 0.1653 0 6
-16.1165 -1.4484 -2.7125 0.1653 0 7
-16.1028 -1.5942 -2.7125 0.1653 0 7
-16.0877 -1.7399 -2.7125 0.1653 0 7
-16.0713 -1.8854 -2.7125 0.1653 0 7
-16.0535 -2.0308 -2.7125 0.1653 0 7
-16.0345 -2.1760 -2.7125 0.1653 0 7
-16.0141 -2.3211 -2.7125 0.1653 0 7
-15.9925 -2.4659 -2.7125 0.1653 0 7
-15.9695 -2.6106 -2.7125 0.1653 0 7
-15.9452 -2.7550 -2.7125 0.1653 0 7
-15.9196 -2.8992 -2.7125 0.1653 0 7
-15.8927 -3.0432 -2.7125 0.1653 0 7
-15.8646 -3.1869 -2.7125 0.1653 0 7
-15.8350 -3.3303 -2.7125 0.1653 0 7
-15.8043 -3.4735 -2.7125 0.1653 0 7
-15.7722 -3.6164 -2.7125 0.1653 0 7
-15.7388 -3.7590 -2.7125 0.1653 0 7
-15.7041 -3.9013 -2.7125 0.1653 0 7
-15.6682 -4.0433 -2.7125 0.1653 0 7
-15.6309 -4.1850 -2.7125 0.1653 0 7
-15.5924 -4.3263 -2.7125 0.1653 0 7
-15.5526 -4.4672 -2.7125 0.1653 0 7
-15.5116 -4.6078 -2.7125 0.1653 0 7
-15.4692 -4.7480 -2.7125 0.1653 0 7
-15.4256 -4.8878 -2.7125 0.1653 0 6
-15.3807 -5.0272 -2.7125 0.1653 0 7
-15.3346 -5.1662 -2.7125 0.1653 0 7
-15.2872 -5.3048 -2.7125 0.1653 0 7
-15.2386 -5.4429 -2.7125 0.1653 0 7
-15.1887 -5.5807 -2.7125 0.1653 0 7
-15.1376 -5.7179 -2.7125 0.1653 0 7
-15.0852 -5.8547 -2.7125 0.1653 0 7
-15.0316 -5.9910 -2.7125 0.1653 0 7
-14.9767 -6.1268 -2.7125 0.1653 0 7
-14.9207 -6.2621 -2.7125 0.1653 0 7
-14.8634 -6.3968 -2.7125 0.1653 0 7
-14.8049 -6.5311 -2.7125 0.1653 0 7
-14.7452 -6.6649 -2.7125 0.1653 0 7
-14.6842 -6.7980 -2.7125 0.1653 0 7
-14.6221 -6.9307 -2.7125 0.1653 0 7
-14.5588 -7.0627 -2.7125 0.1653 0 7
-14.4942 -7.1942 -2.7125 0.1653 0 7
-14.4285 -7.3251 -2.7125 0.1653 0 7
-14.3617 -7.4554 -2.7125 0.1653 0 7
-14.2936 -7.5851 -2.7125 0.1653 0 7
-14.2244 -7.7141 -2.7125 0.1653 0 7
-14.1540 -7.8425 -2.7125 0.1653 0 7
-14.0824 -7.9703 -2.7125 0.1653 0 7
-14.0097 -8.0975 -2.7125 0.1653 0 7
-13.9358 -8.2240 -2.7125 0.1653 0 7
-13.8608 -8.3497 -2.7125 0.1653 0 6
-13.7847 -8.4748 -2.7125 0.1653 0 7
-13.7074 -8.5993 -2.7125 0.1653 0 7
-13.6290 -8.7230 -2.7125 0.1653 0 7
-13.5495 -8.8460 -2.7125 0.1653 0 7
-13.4689 -8.9683 -2.7125 0.1653 0 7
-13.3871 -9.0898 -2.7125 0.1653 0 7
-13.3043 -9.2106 -2.7125 0.1653 0 7
-13.2204 -9.3306 -2.7125 0.1653 0 7
-13.1354 -9.4499 -2.7125 0.1653 0 7
-13.0494 -9.5684 -2.7125 0.1653 0 7
-12.9622 -9.6861 -2.7125 0.1653 0 7
-12.8740 -9.8030 -2.7125 0.1653 0 7
-12.7848 -9.9192 -2.7125 0.1653 0 7
-12.6945 -10.0345 -2.7125 0.1653 0 7
-12.6031 -10.1489 -2.7125 0.1653 0 7
-12.5108 -10.2626 -2.7125 0.1653 0 7
-12.4122 -10.3711 -2.7114 0.1757 0 8
-12.3096 -10.4760 -2.7096 0.1758 0 8
-12.2061 -10.5799 -2.7078 0.1759 0 8
-12.1018 -10.6829 -2.7060 0.1760 0 8
-11.9511 -10.7439 -2.6939 0.6579 0 8
-11.7345 -10.7428 -2.6669 0.6645 0 8
-11.5222 -10.7416 -2.6406 0.6711 0 8
-11.3139 -10.7405 -2.6151 0.6777 0 8
-11.1095 -10.7394 -2.5902 0.6842 0 8
-10.9102 -10.7394 -2.5663 0.5918 0 8
-10.7866 -10.8117 -2.5601 0.1653 0 8
-10.6883 -10.9089 -2.5601 0.1653 0 8
-10.5891 -11.0052 -2.5601 0.1653 0 8
-10.4891 -11.1006 -2.5601 0.1653 0 8
-10.3882 -11.1950 -2.5601 0.1653 0 8
-10.2865 -11.2886 -2.5601 0.1653 0 8
-10.1839 -11.3813 -2.5601 0.1653 0 8
-10.0804 -11.4730 -2.5601 0.1653 0 8
-9.9762 -11.5637 -2.5601 0.1653 0 8
-9.8711 -11.6535 -2.5601 0.1653 0 8
-9.7652 -11.7424 -2.5601 0.1653 0 8
-9.6586 -11.8303 -2.5601 0.1653 0 8
-9.5511 -11.9173 -2.5601 0.1653 0 8
-9.4428 -12.0032 -2.5601 0.1653 0 8
-9.3338 -12.0882 -2.5601 0.1653 0 8
-9.2240 -12.1722 -2.5601 0.1653 0 8
-9.1135 -12.2552 -2.5601 0.1653 0 8
-9.0022 -12.3372 -2.5601 0.1653 0 8
-8.8901 -12.4181 -2.5601 0.1653 0 8
-8.7774 -12.4981 -2.5601 0.1653 0 8
-8.6639 -12.5770 -2.5601 0.1653 0 8
-8.5497 -12.6549 -2.5601 0.1653 0 8
-8.4348 -12.7318 -2.5601 0.1653 0 8
-8.3192 -12.8076 -2.5601 0.1653 0 8
-8.2030 -12.8824 -2.5601 0.1653 0 8
-8.0860 -12.9561 -2.5601 0.1653 0 8
-7.9684 -13.0287 -2.5601 0.1653 0 8
-7.8502 -13.1003 -2.5601 0.1653 0 8
-7.7313 -13.1708 -2.5601 0.1653 0 8
-7.6118 -13.2403 -2.5601 0.1653 0 8
-7.4916 -13.3086 -2.5601 0.1653 0 8
-7.3709 -13.3759 -2.5601 0.1653 0 8
-7.2495 -13.4421 -2.5601 0.1653 0 8
-7.1275 -13.5071 -2.5601 0.1653 0 8
-7.0050 -13.5711 -2.5601 0.1653 0 8
-6.8819 -13.6339 -2.5601 0.1653 0 8
-6.7582 -13.6957 -2.5601 0.1653 0 8
-6.6340 -13.7563 -2.5601 0.1653 0 8
-6.5092 -13.8157 -2.5601 0.1653 0 8
-6.3839 -13.8741 -2.5601 0.1653 0 8
-6.2580 -13.9313 -2.5601 0.1653 0 8
-6.1317 -13.9874 -2.5601 0.1653 0 8
-6.0048 -14.0423 -2.5601 0.1653 0 8
-5.8775 -14.0961 -2.5601 0.1653 0 8
-5.7497 -14.1487 -2.5601 0.1653 0 8
-5.6214 -14.2001 -2.5601 0.1653 0 8
-5.4926 -14.2504 -2.5601 0.1653 0 8
-5.3634 -14.2996 -2.5601 0.1653 0 8
-5.2338 -14.3475 -2.5601 0.1653 0 8
-5.1037 -14.3943 -2.5601 0.1653 0 8
-4.9732 -14.4399 -2.5601 0.1653 0 8
-4.8423 -14.4843 -2.5601 0.1653 0 8
-4.7110 -14.5276 -2.5601 0.1653 0 8
-4.5793 -14.5696 -2.5601 0.1653 0 8
-4.4473 -14.6105 -2.5601 0.1653 0 8
-4.3149 -14.6501 -2.5601 0.1653 0 8
-4.1821 -14.6886 -2.5601 0.1653 0 8
-4.0490 -14.7258 -2.5601 0.1653 0 8
-3.9155 -14.7619 -2.5601 0.1653 0 8
-3.7818 -14.7967 -2.5601 0.1653 0 8
-3.6477 -14.8303 -2.5601 0.1653 0 8
-3.5133 -14.8627 -2.5601 0.1653 0 8
-3.3787 -14.8939 -2.5601 0.1653 0 8
-3.2437 -14.9239 -2.5601 0.1653 0 8
-3.1085 -14.9526 -2.5601 0.1653 0 8
-2.9730 -14.9801 -2.5601 0.1653 0 8
-2.8373 -15.0065 -2.5601 0.1653 0 8
-2.7014 -15.0315 -2.5601 0.1653 0 8
-2.5652 -15.0554 -2.5601 0.1653 0 8
-2.4288 -15.0780 -2.5601 0.1653 0 8
-2.2923 -15.0993 -2.5601 0.1653 0 8
-2.1555 -15.1194 -2.5601 0.1653 0 8
-2.0186 -15.1383 -2.5601 0.1653 0 8
-1.8815 -15.1560 -2.5601 0.1653 0 8
-1.7442 -15.1724 -2.5601 0.1653 0 8
-1.6068 -15.1876 -2.5601 0.1653 0 8
-1.4693 -15.2015 -2.5601 0.1653 0 8
-1.3317 -15.2142 -2.5601 0.1653 0 8
-0.8763 -11.1757 -1.8792 0.1653 0 5
-0.7693 -11.0990 -1.8650 0.9410 0 5
-0.6739 -11.1897 -1.8792 0.1653 0 5
-0.7801 -15.2524 -2.5601 0.1653 0 8
-0.6420 -15.2588 -2.5601 0.1653 0 8
-0.5039 -15.2640 -2.5601 0.1653 0 8
-0.3657 -15.2679 -2.5601 0.1653 0 8
-0.2275 -15.2706 -2.5601 0.1653 0 8
-0.0893 -15.2721 -2.5601 0.1653 0 8
0.0489 -15.2723 -2.5601 0.1653 0 8
0.1872 -15.2712 -2.5601 0.1653 0 8
0.3254 -15.2689 -2.5601 0.1653 0 8
0.4636 -15.2653 -2.5601 0.1653 0 8
0.6017 -15.2605 -2.5601 0.1653 0 8
0.7398 -15.2544 -2.5601 0.1653 0 8
0.8779 -15.2471 -2.5601 0.1653 0 8
1.0158 -15.2385 -2.5601 0.1653 0 8
1.1537 -15.2287 -2.5601 0.1653 0 8
1.2915 -15.2176 -2.5601 0.1653 0 8
1.4292 -15.2053 -2.5601 0.1653 0 8
1.1486 -11.1375 -1.8769 0.9119 0 19
1.2367 -11.0139 -1.8579 0.7973 0 19
1.3300 -10.9502 -1.8491 0.9915 0 19
1.4300 -10.9450 -1.8503 0.9111 0 19
1.5405 -11.0137 -1.8642 0.5784 0 19
2.2524 -15.1053 -2.5601 0.1653 0 8
2.3890 -15.0843 -2.5601 0.1653 0 8
2.5254 -15.0621 -2.5601 0.1653 0 8
2.6617 -15.0386 -2.5601 0.1653 0 8
2.7977 -15.0139 -2.5601 0.1653 0 8
2.9334 -14.9879 -2.5601 0.1653 0 8
3.0690 -14.9608 -2.5601 0.1653 0 8
3.2043 -14.9324 -2.5601 0.1653 0 8
3.3393 -14.9028 -2.5601 0.1653 0 8
3.4740 -14.8720 -2.5601 0.1653 0 8
3.6085 -14.8399 -2.5601 0.1653 0 8
3.7427 -14.8066 -2.5601 0.1653 0 8
3.8765 -14.7721 -2.5601 0.1653 0 8
4.0101 -14.7364 -2.5601 0.1653 0 8
4.1433 -14.6996 -2.5601 0.1653 0 8
4.2762 -14.6615 -2.5601 0.1653 0 8
4.4087 -14.6222 -2.5601 0.1653 0 8
4.5408 -14.5816 -2.5601 0.1653 0 8
4.6726 -14.5400 -2.5601 0.1653 0 8
4.8040 -14.4971 -2.5601 0.1653 0 8
4.9350 -14.4530 -2.5601 0.1653 0 8
5.0657 -14.4077 -2.5601 0.1653 0 8
5.1958 -14.3613 -2.5601 0.1653 0 8
5.0691 -13.6242 -2.4368 0.3532 0 9
5.1629 -13.5012 -2.4231 0.3617 0 9
5.1665 -13.1525 -2.3688 0.3700 0 9
5.1699 -12.8191 -2.3171 0.3783 0 9
5.1732 -12.4998 -2.2677 0.3865 0 9
5.1764 -12.1939 -2.2206 0.3947 0 9
5.1794 -11.9004 -2.1756 0.4029 0 9
5.1619 -11.5729 -2.1242 0.8965 0 9
5.2996 -11.5982 -2.1376 0.8928 0 9
5.4276 -11.5995 -2.1468 0.8889 0 9
5.5568 -11.6008 -2.1563 0.8850 0 9
5.6871 -11.6022 -2.1660 0.8811 0 9
5.8186 -11.6035 -2.1760 0.8770 0 9
5.9480 -11.5983 -2.1850 0.1653 0 9
6.0769 -11.5902 -2.1938 0.8687 0 9
6.2207 -11.6077 -2.2076 0.8644 0 9
6.3573 -11.6091 -2.2187 0.8601 0 9
6.4954 -11.6105 -2.2302 0.8557 0 9
6.6349 -11.6119 -2.2419 0.8512 0 9
6.7759 -11.6134 -2.2539 0.8467 0 9
6.9184 -11.6149 -2.2663 0.8421 0 9
7.0625 -11.6163 -2.2789 0.8374 0 9
7.1933 -11.5937 -2.2872 0.8326 0 9
8.1689 -12.9040 -2.5601 0.1653 0 8
8.2854 -12.8295 -2.5601 0.1653 0 8
8.1598 -12.3876 -2.4866 0.6863 0 20
8.2577 -12.2925 -2.4824 0.9787 0 20
8.3624 -12.2083 -2.4806 0.7647 0 20
8.7443 -12.5212 -2.5601 0.1653 0 8
8.8573 -12.4416 -2.5601 0.1653 0 8
8.9696 -12.3609 -2.5601 0.1653 0 8
9.0811 -12.2792 -2.5601 0.1653 0 8
9.1918 -12.1965 -2.5601 0.1653 0 8
9.3018 -12.1128 -2.5601 0.1653 0 8
9.4111 -12.0281 -2.5601 0.1653 0 8
9.5196 -11.9424 -2.5601 0.1653 0 8
9.6273 -11.8558 -2.5601 0.1653 0 8
9.4690 -11.4476 -2.4904 0.9860 0 20
9.8403 -11.6796 -2.5601 0.1653 0 8
9.9456 -11.5900 -2.5601 0.1653 0 8
10.0501 -11.4996 -2.5601 0.1653 0 8
10.1537 -11.4081 -2.5601 0.1653 0 8
10.2566 -11.3158 -2.5601 0.1653 0 8
10.3586 -11.2225 -2.5601 0.1653 0 8
10.4597 -11.1282 -2.5601 0.1653 0 8
10.5600 -11.0331 -2.5601 0.1653 0 8
10.6595 -10.9371 -2.5601 0.1653 0 8
10.7580 -10.8402 -2.5601 0.1653 0 8
10.8557 -10.7424 -2.5601 0.1653 0 8
10.9525 -10.6437 -2.5601 0.1653 0 8
11.0484 -10.5441 -2.5601 0.1653 0 8
11.1433 -10.4436 -2.5601 0.1653 0 8
11.2374 -10.3424 -2.5601 0.1653 0 8
11.3306 -10.2403 -2.5601 0.1653 0 8
11.4228 -10.1373 -2.5601 0.1653 0 8
11.5928 -10.1021 -2.5776 0.6875 0 8
11.7949 -10.0919 -2.6022 0.6811 0 8
12.0009 -10.0814 -2.6274 0.6745 0 8
12.2109 -10.0707 -2.6533 0.6679 0 8
12.4250 -10.0597 -2.6799 0.6613 0 8
12.6330 -10.0402 -2.7051 0.1761 0 8
12.7318 -9.9320 -2.7068 0.1759 0 8
12.8297 -9.8229 -2.7087 0.1758 0 8
12.9267 -9.7129 -2.7105 0.1757 0 8
13.0229 -9.6020 -2.7123 0.1756 0 8
13.1104 -9.4845 -2.7125 0.1653 0 7
13.1957 -9.3655 -2.7125 0.1653 0 7
13.2799 -9.2457 -2.7125 0.1653 0 7
13.3631 -9.1251 -2.7125 0.1653 0 7
13.4451 -9.0038 -2.7125 0.1653 0 7
13.5260 -8.8817 -2.7125 0.1653 0 7
13.6059 -8.7589 -2.7125 0.1653 0 7
13.6846 -8.6354 -2.7125 0.1653 0 7
13.7622 -8.5112 -2.7125 0.1653 0 7
13.8387 -8.3863 -2.7125 0.1653 0 7
13.9140 -8.2607 -2.7125 0.1653 0 7
13.9882 -8.1344 -2.7125 0.1653 0 7
14.0613 -8.0075 -2.7125 0.1653 0 7
14.1332 -7.8799 -2.7125 0.1653 0 7
14.2039 -7.7517 -2.7125 0.1653 0 7
14.2735 -7.6228 -2.7125 0.1653 0 7
14.3419 -7.4933 -2.7125 0.1653 0 7
14.4091 -7.3632 -2.7125 0.1653 0 7
14.4752 -7.2325 -2.7125 0.1653 0 7
14.5401 -7.1012 -2.7125 0.1653 0 7
14.6037 -6.9692 -2.7125 0.1653 0 7
14.6662 -6.8368 -2.7125 0.1653 0 7
14.7275 -6.7038 -2.7125 0.1653 0 7
14.7876 -6.5702 -2.7125 0.1653 0 7
14.8464 -6.4361 -2.7125 0.1653 0 7
14.9041 -6.3014 -2.7125 0.1653 0 7
14.9605 -6.1663 -2.7125 0.1653 0 7
15.0157 -6.0306 -2.7125 0.1653 0 7
15.0697 -5.8945 -2.7125 0.1653 0 7
15.1224 -5.7578 -2.7125 0.1653 0 7
15.1739 -5.6207 -2.7125 0.1653 0 7
15.2241 -5.4832 -2.7125 0.1653 0 7
15.2731 -5.3451 -2.7125 0.1653 0 7
15.3209 -5.2067 -2.7125 0.1653 0 7
15.3674 -5.0678 -2.7125 0.1653 0 7
15.4126 -4.9285 -2.7125 0.1653 0 7
15.4566 -4.7888 -2.7125 0.1653 0 7
15.4993 -4.6487 -2.7125 0.1653 0 7
15.5408 -4.5083 -2.7125 0.1653 0 7
15.5809 -4.3674 -2.7125 0.1653 0 7
15.6198 -4.2262 -2.7125 0.1653 0 7
15.6574 -4.0846 -2.7125 0.1653 0 7
15.6937 -3.9428 -2.7125 0.1653 0 7
15.7288 -3.8006 -2.7125 0.1653 0 7
15.7625 -3.6581 -2.7125 0.1653 0 7
15.7950 -3.5152 -2.7125 0.1653 0 7
15.8262 -3.3721 -2.7125 0.1653 0 7
15.8561 -3.2287 -2.7125 0.1653 0 7
15.8846 -3.0851 -2.7125 0.1653 0 7
15.9119 -2.9412 -2.7125 0.1653 0 7
15.9379 -2.7971 -2.7125 0.1653 0 7
15.9625 -2.6527 -2.7125 0.1653 0 7
15.9859 -2.5081 -2.7125 0.1653 0 7
16.0079 -2.3633 -2.7125 0.1653 0 7
16.0287 -2.2184 -2.7125 0.1653 0 7
16.0481 -2.0732 -2.7125 0.1653 0 7
16.0662 -1.9279 -2.7125 0.1653 0 7
16.0830 -1.7824 -2.7125 0.1653 0 7
16.0985 -1.6367 -2.7125 0.1653 0 7
16.1126 -1.4909 -2.7125 0.1653 0 7
16.1255 -1.3450 -2.7125 0.1653 0 7
16.1370 -1.1991 -2.7125 0.1653 0 7
16.1472 -1.0529 -2.7125 0.1653 0 7
16.1560 -0.9067 -2.7125 0.1653 0 7
16.1636 -0.7605 -2.7125 0.1653 0 7
16.1698 -0.6142 -2.7125 0.1653 0 7
16.1747 -0.4678 -2.7125 0.1653 0 7
16.1783 -0.3214 -2.7125 0.1653 0 7
16.1805 -0.1749 -2.7125 0.1653 0 7
16.1814 -0.0285 -2.7125 0.1653 0 7
16.1810 0.1180 -2.7125 0.1653 0 7
16.1793 0.2644 -2.7125 0.1653 0 7
16.1762 0.4109 -2.7125 0.1653 0 7
16.1719 0.5573 -2.7125 0.1653 0 7
16.1661 0.7036 -2.7125 0.1653 0 7
16.1591 0.8499 -2.7125 0.1653 0 7
16.1508 0.9961 -2.7125 0.1653 0 7
16.1411 1.1423 -2.7125 0.1653 0 7
16.1301 1.2883 -2.7125 0.1653 0 7
16.1178 1.4342 -2.7125 0.1653 0 7
16.1041 1.5801 -2.7125 0.1653 0 7
16.0892 1.7257 -2.7125 0.1653 0 7
16.0729 1.8713 -2.7125 0.1653 0 7
16.0553 2.0167 -2.7125 0.1653 0 7
16.0364 2.1619 -2.7125 0.1653 0 7
16.0162 2.3070 -2.7125 0.1653 0 7
15.9946 2.4519 -2.7125 0.1653 0 7
15.9718 2.5965 -2.7125 0.1653 0 7
15.9476 2.7410 -2.7125 0.1653 0 7
15.9222 2.8852 -2.7125 0.1653 0 7
15.8954 3.0292 -2.7125 0.1653 0 7
15.8673 3.1729 -2.7125 0.1653 0 7
15.8379 3.3164 -2.7125 0.1653 0 7
15.8073 3.4596 -2.7125 0.1653 0 7
15.7753 3.6026 -2.7125 0.1653 0 7
15.7421 3.7452 -2.7125 0.1653 0 7
15.7075 3.8875 -2.7125 0.1653 0 7
15.6717 4.0295 -2.7125 0.1653 0 7
15.6346 4.1712 -2.7125 0.1653 0 7
15.5962 4.3126 -2.7125 0.1653 0 7
15.5565 4.4535 -2.7125 0.1653 0 7
15.5156 4.5942 -2.7125 0.1653 0 7
15.4734 4.7344 -2.7125 0.1653 0 7
15.4299 4.8743 -2.7125 0.1653 0 7
15.3851 5.0137 -2.7125 0.1653 0 7
15.3391 5.1527 -2.7125 0.1653 0 7
15.2919 5.2914 -2.7125 0.1653 0 7
15.2433 5.4295 -2.7125 0.1653 0 7
15.1936 5.5673 -2.7125 0.1653 0 7
15.1426 5.7046 -2.7125 0.1653 0 7
15.0903 5.8414 -2.7125 0.1653 0 7
15.0368 5.9778 -2.7125 0.1653 0 7
14.9821 6.1136 -2.7125 0.1653 0 7
14.9262 6.2489 -2.7125 0.1653 0 7
14.8690 6.3838 -2.7125 0.1653 0 7
14.8106 6.5181 -2.7125 0.1653 0 7
14.7510 6.6519 -2.7125 0.1653 0 7
14.6902 6.7851 -2.7125 0.1653 0 7
14.6282 6.9178 -2.7125 0.1653 0 7
14.5650 7.0499 -2.7125 0.1653 0 7
14.5006 7.1815 -2.7125 0.1653 0 7
14.4350 7.3124 -2.7125 0.1653 0 7
14.3682 7.4428 -2.7125 0.1653 0 7
14.3002 7.5725 -2.7125 0.1653 0 7
14.2311 7.7016 -2.7125 0.1653 0 7
14.1608 7.8301 -2.7125 0.1653 0 7
14.0894 7.9580 -2.7125 0.1653 0 7
14.0168 8.0852 -2.7125 0.1653 0 7
13.9430 8.2117 -2.7125 0.1653 0 7
13.8681 8.3376 -2.7125 0.1653 0 7
13.7921 8.4627 -2.7125 0.1653 0 7
13.7149 8.5872 -2.7125 0.1653 0 7
13.6366 8.7110 -2.7125 0.1653 0 7
13.5572 8.8341 -2.7125 0.1653 0 7
13.4767 8.9564 -2.7125 0.1653 0 7
13.3951 9.0780 -2.7125 0.1653 0 7
13.3124 9.1989 -2.7125 0.1653 0 7
13.2286 9.3190 -2.7125 0.1653 0 7
13.1437 9.4383 -2.7125 0.1653 0 7
13.0578 9.5569 -2.7125 0.1653 0 7
12.9707 9.6747 -2.7125 0.1653 0 7
12.8826 9.7917 -2.7125 0.1653 0 7
12.7935 9.9079 -2.7125 0.1653 0 7
12.7033 10.0233 -2.7125 0.1653 0 7
12.6120 10.1378 -2.7125 0.1653 0 7
12.5197 10.2516 -2.7125 0.1653 0 7
12.4265 10.3645 -2.7125 0.1653 0 7
12.3321 10.4766 -2.7125 0.1653 0 7
12.2368 10.5877 -2.7125 0.1653 0 7
12.1405 10.6980 -2.7125 0.1653 0 7
12.0432 10.8075 -2.7125 0.1653 0 7
11.9449 10.9161 -2.7125 0.1653 0 7
11.8456 11.0237 -2.7125 0.1653 0 7
11.7453 11.1305 -2.7125 0.1653 0 7
11.6441 11.2363 -2.7125 0.1653 0 7
11.5419 11.3413 -2.7125 0.1653 0 7
11.4388 11.4453 -2.7125 0.1653 0 7
11.3347 11.5483 -2.7125 0.1653 0 7
11.2297 11.6504 -2.7125 0.1653 0 7
11.1238 11.7516 -2.7125 0.1653 0 7
11.0170 11.8518 -2.7125 0.1653 0 7
10.9093 11.9510 -2.7125 0.1653 0 7
10.8007 12.0493 -2.7125 0.1653 0 7
10.6912 12.1465 -2.7125 0.1653 0 7
10.5808 12.2428 -2.7125 0.1653 0 7
10.4695 12.3381 -2.7125 0.1653 0 7
10.3575 12.4323 -2.7125 0.1653 0 7
10.2445 12.5255 -2.7125 0.1653 0 7
10.1307 12.6178 -2.7125 0.1653 0 7
10.0161 12.7089 -2.7125 0.1653 0 7
9.9007 12.7991 -2.7125 0.1653 0 7
9.7844 12.8882 -2.7125 0.1653 0 7
9.6674 12.9762 -2.7125 0.1653 0 7
9.5495 13.0632 -2.7125 0.1653 0 7
9.4309 13.1490 -2.7125 0.1653 0 7
9.3115 13.2339 -2.7125 0.1653 0 7
9.1913 13.3176 -2.7125 0.1653 0 7
9.0704 13.4003 -2.7125 0.1653 0 7
8.9488 13.4818 -2.7125 0.1653 0 7
8.8264 13.5622 -2.7125 0.1653 0 7
8.7033 13.6416 -2.7125 0.1653 0 7
8.5794 13.7198 -2.7125 0.1653 0 7
8.4549 13.7969 -2.7125 0.1653 0 6
8.3297 13.8728 -2.7125 0.1653 0 6
8.2038 13.9477 -2.7125 0.1653 0 6
8.0772 14.0214 -2.7125 0.1653 0 6
7.9500 14.0939 -2.7125 0.1653 0 7
7.8221 14.1653 -2.7125 0.1653 0 7
7.6936 14.2355 -2.7125 0.1653 0 7
7.5644 14.3045 -2.7125 0.1653 0 7
7.4346 14.3724 -2.7125 0.1653 0 6
7.3042 14.4391 -2.7125 0.1653 0 6
7.1732 14.5046 -2.7125 0.1653 0 6
7.0417 14.5690 -2.7125 0.1653 0 6
6.9095 14.6321 -2.7125 0.1653 0 7
6.7768 14.6940 -2.7125 0.1653 0 7
6.6435 14.7548 -2.7125 0.1653 0 7
6.5097 14.8143 -2.7125 0.1653 0 7
6.3754 14.8726 -2.7125 0.1653 0 6
6.2405 14.9297 -2.7125 0.1653 0 6
6.1051 14.9856 -2.7125 0.1653 0 6
5.9692 15.0402 -2.7125 0.1653 0 6
5.8329 15.0936 -2.7125 0.1653 0 7
5.6960 15.1458 -2.7125 0.1653 0 7
5.5587 15.1967 -2.7125 0.1653 0 7
5.4209 15.2464 -2.7125 0.1653 0 7
5.2827 15.2949 -2.7125 0.1653 0 6
5.1440 15.3421 -2.7125 0.1653 0 6
5.0050 15.3880 -2.7125 0.1653 0 6
4.8655 15.4326 -2.7125 0.1653 0 7
4.7256 15.4760 -2.7125 0.1653 0 7
4.5854 15.5182 -2.7125 0.1653 0 7
4.4447 15.5591 -2.7125 0.1653 0 7
4.3037 15.5986 -2.7125 0.1653 0 6
4.1623 15.6370 -2.7125 0.1653 0 6
4.0207 15.6740 -2.7125 0.1653 0 6
3.8786 15.7097 -2.7125 0.1653 0 6
3.7363 15.7442 -2.7125 0.1653 0 7
3.5936 15.7774 -2.7125 0.1653 0 7
3.4507 15.8093 -2.7125 0.1653 0 7
3.3063 15.8343 -2.7116 0.1649 0 8
3.1599 15.8490 -2.7091 0.1651 0 8
3.0136 15.8624 -2.7066 0.1652 0 8
2.7318 15.1242 -2.5763 0.1133 0 8
2.5784 15.0531 -2.5601 0.1653 0 8
2.4421 15.0758 -2.5601 0.1653 0 8
2.3055 15.0973 -2.5601 0.1653 0 8
2.1688 15.1175 -2.5601 0.1653 0 8
2.0319 15.1366 -2.5601 0.1653 0 8
1.8948 15.1543 -2.5601 0.1653 0 8
1.7576 15.1709 -2.5601 0.1653 0 8
1.6202 15.1862 -2.5601 0.1653 0 8
1.4827 15.2002 -2.5601 0.1653 0 8
1.3450 15.2130 -2.5601 0.1653 0 8
1.2073 15.2245 -2.5601 0.1653 0 8
1.0694 15.2349 -2.5601 0.1653 0 8
0.9315 15.2439 -2.5601 0.1653 0 8
0.7935 15.2517 -2.5601 0.1653 0 8
0.6554 15.2583 -2.5601 0.1653 0 8
0.5173 15.2636 -2.5601 0.1653 0 8
0.3791 15.2676 -2.5601 0.1653 0 8
0.2409 15.2704 -2.5601 0.1653 0 8
0.1027 15.2720 -2.5601 0.1653 0 8
-0.0355 15.2723 -2.5601 0.1653 0 8
-0.1738 15.2714 -2.5601 0.1653 0 8
-0.3120 15.2691 -2.5601 0.1653 0 8
-0.4502 15.2657 -2.5601 0.1653 0 8
-0.5883 15.2610 -2.5601 0.1653 0 8
-0.7264 15.2551 -2.5601 0.1653 0 8
-0.8645 15.2479 -2.5601 0.1653 0 8
-1.0024 15.2394 -2.5601 0.1653 0 8
-1.1403 15.2297 -2.5601 0.1653 0 8
-1.2781 15.2187 -2.5601 0.1653 0 8
-1.4042 15.0819 -2.5391 0.4190 0 1
-1.5115 14.7840 -2.4912 0.4270 0 1
-1.6149 14.4972 -2.4452 0.4351 0 1
-1.7146 14.2207 -2.4011 0.4431 0 1
-1.8107 13.9540 -2.3587 0.4510 0 1
-1.9035 13.6965 -2.3180 0.4589 0 1
-1.9931 13.4477 -2.2789 0.4668 0 1
-2.0929 13.2903 -2.2553 0.9458 0 1
-2.2073 13.2359 -2.2494 0.9483 0 1
-2.3211 13.1819 -2.2437 0.9507 0 1
-2.4344 13.1281 -2.2382 0.9531 0 1
-2.5471 13.0746 -2.2329 0.9553 0 1
-2.6592 13.0213 -2.2278 0.9575 0 1
-2.7709 12.9682 -2.2230 0.9596 0 1
-2.8821 12.9154 -2.2183 0.9616 0 1
-2.9928 12.8628 -2.2138 0.9636 0 1
-3.1031 12.8104 -2.2095 0.9654 0 1
-3.2130 12.7582 -2.2055 0.9672 0 1
-3.3225 12.7062 -2.2016 0.9689 0 1
-3.4316 12.6544 -2.1979 0.9705 0 1
-3.5403 12.6027 -2.1944 0.9721 0 1
-3.6487 12.5512 -2.1911 0.9736 0 1
-3.7568 12.4999 -2.1880 0.9749 0 1
-3.8646 12.4487 -2.1850 0.9762 0 1
-3.9722 12.3976 -2.1823 0.9775 0 1
-4.0794 12.3466 -2.1797 0.9786 0 1
-4.1864 12.2958 -2.1774 0.9797 0 1
-4.2932 12.2450 -2.1752 0.9807 0 1
-4.3998 12.1944 -2.1732 0.9816 0 1
-4.5062 12.1439 -2.1713 0.9824 0 1
-4.6124 12.0934 -2.1697 0.9832 0 1
-4.7185 12.0430 -2.1682 0.9838 0 1
-4.8244 11.9927 -2.1669 0.9844 0 1
-4.9303 11.9425 -2.1658 0.9849 0 1
-5.0360 11.8922 -2.1649 0.9853 0 1
-5.1416 11.8420 -2.1641 0.9857 0 1
-5.2472 11.7919 -2.1636 0.9859 0 1
-5.3528 11.7417 -2.1632 0.9861 0 1
-5.4582 11.6916 -2.1629 0.9862 0 1
-5.5637 11.6415 -2.1629 0.9862 0 1
-5.6692 11.5914 -2.1630 0.9862 0 1
-5.7747 11.5413 -2.1634 0.9860 0 1
-5.8803 11.4912 -2.1638 0.9858 0 1
-5.9859 11.4410 -2.1645 0.9855 0 1
-6.0916 11.3908 -2.1654 0.9851 0 1
-6.1974 11.3405 -2.1664 0.9847 0 1
-6.3032 11.2902 -2.1676 0.9841 0 1
-6.4354 11.2858 -2.1778 0.4758 0 1
-6.5357 11.2244 -2.1773 0.8595 0 1
-6.6713 11.2224 -2.1885 0.8551 0 1
-6.8082 11.2203 -2.2001 0.8507 0 1
-6.9467 11.2183 -2.2119 0.8461 0 1
-7.0866 11.2162 -2.2240 0.8415 0 1
-7.2281 11.2141 -2.2365 0.8368 0 1
-7.3713 11.2120 -2.2493 0.8320 0 1
-7.5161 11.2098 -2.2624 0.8272 0 1
-7.6625 11.2077 -2.2759 0.8223 0 1
-7.8108 11.2055 -2.2897 0.8173 0 1
-7.9609 11.2032 -2.3039 0.8123 0 1
-6.3698 8.7945 -1.8203 0.2133 0 5
-6.4311 8.7119 -1.8152 0.5239 0 5
-8.4226 11.1964 -2.3486 0.7968 0 1
-8.5806 11.1941 -2.3643 0.7915 0 1
-8.7408 11.1917 -2.3805 0.7862 0 1
-8.9031 11.1893 -2.3970 0.7808 0 1
-9.0677 11.1868 -2.4139 0.7753 0 1
-9.2347 11.1843 -2.4314 0.7697 0 1
-9.4041 11.1818 -2.4492 0.7641 0 1
-9.5760 11.1793 -2.4675 0.7584 0 1
-9.7506 11.1767 -2.4863 0.7527 0 1
-9.9278 11.1741 -2.5056 0.7469 0 1
-10.1079 11.1714 -2.5255 0.7410 0 1
-10.2908 11.1687 -2.5458 0.7351 0 1
-10.4500 11.1375 -2.5601 0.1653 0 8
-10.5503 11.0424 -2.5601 0.1653 0 8
-10.6498 10.9465 -2.5601 0.1653 0 8
-10.7485 10.8496 -2.5601 0.1653 0 8
-10.8462 10.7519 -2.5601 0.1653 0 8
-10.9431 10.6533 -2.5601 0.1653 0 8
-11.0391 10.5538 -2.5601 0.1653 0 8
-11.1342 10.4534 -2.5601 0.1653 0 8
-11.2283 10.3522 -2.5601 0.1653 0 8
-11.3216 10.2502 -2.5601 0.1653 0 8
-11.4139 10.1473 -2.5601 0.1653 0 8
-11.5052 10.0436 -2.5601 0.1653 0 8
-11.5957 9.9391 -2.5601 0.1653 0 8
-11.6852 9.8337 -2.5601 0.1653 0 8
-11.7737 9.7275 -2.5601 0.1653 0 8
-11.8612 9.6206 -2.5601 0.1653 0 8
-11.9478 9.5128 -2.5601 0.1653 0 8
-12.0334 9.4043 -2.5601 0.1653 0 8
-12.1181 9.2950 -2.5601 0.1653 0 8
-12.2017 9.1849 -2.5601 0.1653 0 8
-12.2843 9.0741 -2.5601 0.1653 0 8
-12.3660 8.9625 -2.5601 0.1653 0 8
-12.4466 8.8503 -2.5601 0.1653 0 8
-12.5262 8.7373 -2.5601 0.1653 0 8
-12.6047 8.6235 -2.5601 0.1653 0 8
-12.6823 8.5091 -2.5601 0.1653 0 8
-12.7588 8.3940 -2.5601 0.1653 0 8
-12.8342 8.2781 -2.5601 0.1653 0 8
-12.9194 8.1684 -2.5623 0.5061 0 8
-13.1546 8.1514 -2.5942 0.5639 0 8
-13.4025 8.1381 -2.6284 0.5566 0 8
-13.6570 8.1244 -2.6638 0.5492 0 8
-13.9184 8.1102 -2.7004 0.5417 0 8
-14.0239 8.0025 -2.7067 0.1740 0 8
-14.1062 7.8812 -2.7087 0.1739 0 8
-14.1876 7.7590 -2.7107 0.1737 0 8
-14.2668 7.6353 -2.7125 0.1653 0 7
-14.3353 7.5059 -2.7125 0.1653 0 7
-14.4027 7.3758 -2.7125 0.1653 0 7
-14.4688 7.2452 -2.7125 0.1653 0 7
-14.5338 7.1139 -2.7125 0.1653 0 7
-14.5976 6.9821 -2.7125 0.1653 0 7
-14.6602 6.8497 -2.7125 0.1653 0 7
-14.7216 6.7167 -2.7125 0.1653 0 7
-14.7818 6.5832 -2.7125 0.1653 0 7
-14.8408 6.4491 -2.7125 0.1653 0 7
-14.8986 6.3145 -2.7125 0.1653 0 7
-14.9551 6.1795 -2.7125 0.1653 0 7
-15.0104 6.0439 -2.7125 0.1653 0 7
-15.0645 5.9077 -2.7125 0.1653 0 7
-15.1173 5.7712 -2.7125 0.1653 0 7
-15.1690 5.6341 -2.7125 0.1653 0 6
-15.2193 5.4966 -2.7125 0.1653 0 7
-15.2685 5.3586 -2.7125 0.1653 0 7
-15.3163 5.2202 -2.7125 0.1653 0 7
-15.3629 5.0813 -2.7125 0.1653 0 7
-15.4083 4.9421 -2.7125 0.1653 0 7
-15.4524 4.8024 -2.7125 0.1653 0 7
-15.4952 4.6624 -2.7125 0.1653 0 7
-15.5368 4.5219 -2.7125 0.1653 0 7
-15.5771 4.3811 -2.7125 0.1653 0 7
-15.6161 4.2400 -2.7125 0.1653 0 7
-15.6538 4.0984 -2.7125 0.1653 0 7
-15.6903 3.9566 -2.7125 0.1653 0 7
-15.7255 3.8144 -2.7125 0.1653 0 7
-15.7593 3.6719 -2.7125 0.1653 0 7
-15.7919 3.5292 -2.7125 0.1653 0 7
-15.8232 3.3861 -2.7125 0.1653 0 7
-15.8532 3.2427 -2.7125 0.1653 0 7
-15.8819 3.0991 -2.7125 0.1653 0 7
-15.9093 2.9552 -2.7125 0.1653 0 7
-15.9354 2.8111 -2.7125 0.1653 0 7
-15.9602 2.6668 -2.7125 0.1653 0 7
-15.9837 2.5222 -2.7125 0.1653 0 7
-16.0059 2.3774 -2.7125 0.1653 0 7
-16.0267 2.2325 -2.7125 0.1653 0 7
-16.0463 2.0873 -2.7125 0.1653 0 6
-16.0645 1.9420 -2.7125 0.1653 0 7
-16.0814 1.7965 -2.7125 0.1653 0 7
-16.0970 1.6509 -2.7125 0.1653 0 7
-16.1113 1.5051 -2.7125 0.1653 0 7
-16.1243 1.3592 -2.7125 0.1653 0 7
-16.1359 1.2133 -2.7125 0.1653 0 7
-16.1462 1.0672 -2.7125 0.1653 0 7
-16.1552 0.9210 -2.7125 0.1653 0 7
-16.1629 0.7747 -2.7125 0.1653 0 7
-16.1693 0.6284 -2.7125 0.1653 0 7
-16.1743 0.4820 -2.7125 0.1653 0 7
-16.1780 0.3356 -2.7125 0.1653 0 7
-16.1804 0.1892 -2.7125 0.1653 0 7
-16.1814 0.0427 -2.7125 0.1653 0 7
-16.1812 -0.1037 -2.7125 0.1653 0 7
-16.1795 -0.2502 -2.7125 0.1653 0 7
-16.1766 -0.3966 -2.7125 0.1653 0 7
-16.1724 -0.5430 -2.7125 0.1653 0 7
-16.1668 -0.6894 -2.7125 0.1653 0 7
-16.1599 -0.8357 -2.7125 0.1653 0 7
-16.1516 -0.9819 -2.7125 0.1653 0 7
-16.1421 -1.1280 -2.7125 0.1653 0 7
-16.1312 -1.2741 -2.7125 0.1653 0 6
-16.1191 -1.4200 -2.7125 0.1653 0 7
-16.1055 -1.5659 -2.7125 0.1653 0 6
-16.0907 -1.7116 -2.7125 0.1653 0 7
-16.0746 -1.8572 -2.7125 0.1653 0 7
-16.0571 -2.0025 -2.7125 0.1653 0 7
-16.0383 -2.1478 -2.7125 0.1653 0 7
-16.0182 -2.2929 -2.7125 0.1653 0 7
-15.9968 -2.4378 -2.7125 0.1653 0 7
-15.9741 -2.5825 -2.7125 0.1653 0 7
-15.9500 -2.7269 -2.7125 0.1653 0 7
-15.9247 -2.8712 -2.7125 0.1653 0 7
-15.8981 -3.0152 -2.7125 0.1653 0 7
-15.8701 -3.1590 -2.7125 0.1653 0 7
-15.8409 -3.3025 -2.7125 0.1653 0 7
-15.8104 -3.4457 -2.7125 0.1653 0 7
-15.7785 -3.5887 -2.7125 0.1653 0 7
-15.7454 -3.7313 -2.7125 0.1653 0 7
-15.7110 -3.8737 -2.7125 0.1653 0 7
-15.6753 -4.0157 -2.7125 0.1653 0 7
-15.6383 -4.1574 -2.7125 0.1653 0 7
-15.6000 -4.2988 -2.7125 0.1653 0 7
-15.5605 -4.4398 -2.7125 0.1653 0 7
-15.5196 -4.5805 -2.7125 0.1653 0 7
-15.4776 -4.7208 -2.7125 0.1653 0 7
-15.4342 -4.8607 -2.7125 0.1653 0 6
-15.3896 -5.0001 -2.7125 0.1653 0 7
-15.3437 -5.1392 -2.7125 0.1653 0 7
-15.2965 -5.2779 -2.7125 0.1653 0 7
-15.2481 -5.4161 -2.7125 0.1653 0 7
-15.1985 -5.5539 -2.7125 0.1653 0 7
-15.1476 -5.6913 -2.7125 0.1653 0 7
-15.0955 -5.8281 -2.7125 0.1653 0 7
-15.0421 -5.9645 -2.7125 0.1653 0 7
-14.9875 -6.1004 -2.7125 0.1653 0 7
-14.9317 -6.2358 -2.7125 0.1653 0 7
-14.8746 -6.3707 -2.7125 0.1653 0 7
-14.8164 -6.5051 -2.7125 0.1653 0 7
-14.7569 -6.6389 -2.7125 0.1653 0 7
-14.6962 -6.7722 -2.7125 0.1653 0 7
-14.6343 -6.9049 -2.7125 0.1653 0 7
-14.5712 -7.0371 -2.7125 0.1653 0 7
-14.5069 -7.1687 -2.7125 0.1653 0 7
-14.4414 -7.2997 -2.7125 0.1653 0 7
-14.3747 -7.4301 -2.7125 0.1653 0 7
-14.3069 -7.5599 -2.7125 0.1653 0 7
-14.2379 -7.6891 -2.7125 0.1653 0 7
-14.1677 -7.8176 -2.7125 0.1653 0 7
-14.0964 -7.9456 -2.7125 0.1653 0 7
-14.0239 -8.0728 -2.7125 0.1653 0 7
-13.9502 -8.1994 -2.7125 0.1653 0 7
-13.8754 -8.3253 -2.7125 0.1653 0 6
-13.7995 -8.4506 -2.7125 0.1653 0 7
-13.7225 -8.5751 -2.7125 0.1653 0 7
-13.6443 -8.6990 -2.7125 0.1653 0 7
-13.5650 -8.8221 -2.7125 0.1653 0 7
14.2109 0.0000 -2.7125 0.1875 0 7
14.2103 0.1286 -2.7125 0.1875 0 7
14.2086 0.2572 -2.7125 0.1875 0 7
14.2057 0.3858 -2.7125 0.1875 0 7
14.2016 0.5144 -2.7125 0.1875 0 7
14.1963 0.6429 -2.7125 0.1875 0 7
14.1899 0.7714 -2.7125 0.1875 0 7
14.1824 0.8998 -2.7125 0.1875 0 7
14.1737 1.0281 -2.7125 0.1875 0 7
14.1638 1.1563 -2.7125 0.1875 0 7
14.1527 1.2845 -2.7125 0.1875 0 7
14.1405 1.4125 -2.7125 0.1875 0 7
14.1271 1.5405 -2.7125 0.1875 0 7
14.1126 1.6683 -2.7125 0.1875 0 7
14.0970 1.7959 -2.7125 0.1875 0 7
14.0801 1.9234 -2.7125 0.1875 0 7
14.0621 2.0508 -2.7125 0.1875 0 7
14.0430 2.1780 -2.7125 0.1875 0 7
14.0227 2.3050 -2.7125 0.1875 0 7
14.0013 2.4318 -2.7125 0.1875 0 7
13.9787 2.5585 -2.7125 0.1875 0 7
13.9550 2.6849 -2.7125 0.1875 0 7
13.9301 2.8111 -2.7125 0.1875 0 7
13.9041 2.9370 -2.7125 0.1875 0 7
13.8769 3.0627 -2.7125 0.1875 0 7
13.8486 3.1882 -2.7125 0.1875 0 7
13.8192 3.3134 -2.7125 0.1875 0 7
13.7887 3.4384 -2.7125 0.1875 0 7
13.7570 3.5630 -2.7125 0.1875 0 7
13.7242 3.6874 -2.7125 0.1875 0 7
13.6902 3.8115 -2.7125 0.1875 0 7
13.6552 3.9352 -2.7125 0.1875 0 7
13.6190 4.0587 -2.7125 0.1875 0 7
13.5817 4.1817 -2.7125 0.1875 0 7
13.5433 4.3045 -2.7125 0.1875 0 7
13.5038 4.4269 -2.7125 0.1875 0 7
13.4632 4.5489 -2.7125 0.1875 0 7
13.4214 4.6706 -2.7125 0.1875 0 7
13.3786 4.7919 -2.7125 0.1875 0 7
