ply
format ascii 1.0
element vertex 1394
property float32 x
property float32 y
property float32 z
property float32 CosAngle
property uint32 ObjIdx
property uint32 ObjTag
end_header
9.9129 8.0696 -2.7395 0.2096 0 7
9.8395 8.1589 -2.7395 0.2096 0 7
9.7652 8.2476 -2.7395 0.2096 0 7
9.6902 8.3357 -2.7395 0.2096 0 7
9.6144 8.4230 -2.7395 0.2096 0 7
9.5378 8.5096 -2.7395 0.2096 0 7
9.4604 8.5956 -2.7395 0.2096 0 7
9.3823 8.6808 -2.7395 0.2096 0 7
9.3034 8.7653 -2.7395 0.2096 0 7
9.2237 8.8491 -2.7395 0.2096 0 7
9.1432 8.9322 -2.7395 0.2096 0 7
9.0621 9.0146 -2.7395 0.2096 0 7
8.9801 9.0962 -2.7395 0.2096 0 7
8.8975 9.1771 -2.7395 0.2096 0 7
8.8141 9.2572 -2.7395 0.2096 0 7
8.7262 9.3325 -2.7383 0.2145 0 8
8.6357 9.4048 -2.7365 0.2146 0 8
8.5445 9.4763 -2.7347 0.2147 0 8
8.4529 9.5468 -2.7329 0.2149 0 8
8.2758 9.5190 -2.7033 0.3565 0 8
8.0053 9.3779 -2.6426 0.3647 0 8
7.7559 9.2541 -2.5878 0.3889 0 8
7.6697 9.3212 -2.5871 0.2096 0 8
7.5851 9.3903 -2.5871 0.2096 0 8
7.4998 9.4585 -2.5871 0.2096 0 8
7.4140 9.5260 -2.5871 0.2096 0 8
7.3275 9.5927 -2.5871 0.2096 0 8
7.2404 9.6586 -2.5871 0.2096 0 8
7.1527 9.7237 -2.5871 0.2096 0 8
7.0644 9.7880 -2.5871 0.2096 0 8
6.9756 9.8515 -2.5871 0.2096 0 8
6.8862 9.9142 -2.5871 0.2096 0 8
6.7962 9.9761 -2.5871 0.2096 0 8
6.7057 10.0372 -2.5871 0.2096 0 8
6.6146 10.0974 -2.5871 0.2096 0 8
6.5230 10.1568 -2.5871 0.2096 0 8
6.4308 10.2155 -2.5871 0.2096 0 8
6.3381 10.2732 -2.5871 0.2096 0 8
6.2449 10.3301 -2.5871 0.2096 0 8
6.1512 10.3862 -2.5871 0.2096 0 8
6.0570 10.4414 -2.5871 0.2096 0 8
5.9623 10.4958 -2.5871 0.2096 0 8
5.8671 10.5493 -2.5871 0.2096 0 8
5.7714 10.6020 -2.5871 0.2096 0 8
5.6752 10.6537 -2.5871 0.2096 0 8
5.5786 10.7047 -2.5871 0.2096 0 8
5.4816 10.7547 -2.5871 0.2096 0 8
5.3840 10.8039 -2.5871 0.2096 0 8
5.2861 10.8521 -2.5871 0.2096 0 8
5.1877 10.8995 -2.5871 0.2096 0 8
5.0889 10.9460 -2.5871 0.2096 0 8
4.9896 10.9916 -2.5871 0.2096 0 8
4.8900 11.0363 -2.5871 0.2096 0 8
4.7899 11.0801 -2.5871 0.2096 0 8
4.6895 11.1229 -2.5871 0.2096 0 8
4.5886 11.1649 -2.5871 0.2096 0 8
4.4875 11.2060 -2.5871 0.2096 0 8
4.3859 11.2461 -2.5871 0.2096 0 8
4.2840 11.2853 -2.5871 0.2096 0 8
4.1817 11.3236 -2.5871 0.2096 0 8
4.0791 11.3610 -2.5871 0.2096 0 8
3.9761 11.3974 -2.5871 0.2096 0 8
3.8728 11.4329 -2.5871 0.2096 0 8
11.5107 0.0000 -2.7395 0.2315 0 7
11.5103 0.1041 -2.7395 0.2315 0 7
11.5088 0.2083 -2.7395 0.2315 0 7
11.5065 0.3124 -2.7395 0.2315 0 6
11.5032 0.4165 -2.7395 0.2315 0 7
11.4990 0.5205 -2.7395 0.2315 0 7
11.4938 0.6245 -2.7395 0.2315 0 6
11.4876 0.7285 -2.7395 0.2315 0 7
11.4806 0.8324 -2.7395 0.2315 0 7
11.4726 0.9362 -2.7395 0.2315 0 7
11.4637 1.0400 -2.7395 0.2315 0 7
11.4538 1.1437 -2.7395 0.2315 0 7
11.4430 1.2472 -2.7395 0.2315 0 7
11.4312 1.3507 -2.7395 0.2315 0 7
11.4185 1.4541 -2.7395 0.2315 0 7
11.4049 1.5573 -2.7395 0.2315 0 7
11.3903 1.6604 -2.7395 0.2315 0 7
11.3749 1.7634 -2.7395 0.2315 0 7
11.3584 1.8663 -2.7395 0.2315 0 7
11.3411 1.9690 -2.7395 0.2315 0 7
11.3228 2.0715 -2.7395 0.2315 0 7
11.3036 2.1738 -2.7395 0.2315 0 7
11.2835 2.2760 -2.7395 0.2315 0 7
11.2624 2.3780 -2.7395 0.2315 0 7
11.2404 2.4798 -2.7395 0.2315 0 7
11.2175 2.5814 -2.7395 0.2315 0 7
11.1937 2.6828 -2.7395 0.2315 0 7
11.1690 2.7839 -2.7395 0.2315 0 7
11.1434 2.8849 -2.7395 0.2315 0 7
11.1168 2.9856 -2.7395 0.2315 0 7
11.0893 3.0860 -2.7395 0.2315 0 7
11.0610 3.1862 -2.7395 0.2315 0 7
11.0317 3.2862 -2.7395 0.2315 0 7
11.0015 3.3858 -2.7395 0.2315 0 7
10.9704 3.4852 -2.7395 0.2315 0 7
10.9384 3.5843 -2.7395 0.2315 0 7
10.9056 3.6832 -2.7395 0.2315 0 7
10.8718 3.7817 -2.7395 0.2315 0 7
10.8371 3.8799 -2.7395 0.2315 0 7
10.8016 3.9778 -2.7395 0.2315 0 7
10.7652 4.0753 -2.7395 0.2315 0 7
10.7279 4.1725 -2.7395 0.2315 0 7
10.6897 4.2694 -2.7395 0.2315 0 7
10.6506 4.3660 -2.7395 0.2315 0 7
10.6107 4.4621 -2.7395 0.2315 0 7
10.5699 4.5580 -2.7395 0.2315 0 7
10.5282 4.6534 -2.7395 0.2315 0 7
10.4857 4.7485 -2.7395 0.2315 0 7
10.4423 4.8432 -2.7395 0.2315 0 7
10.3980 4.9374 -2.7395 0.2315 0 7
10.3529 5.0313 -2.7395 0.2315 0 7
10.3070 5.1248 -2.7395 0.2315 0 7
10.2602 5.2178 -2.7395 0.2315 0 7
10.2126 5.3104 -2.7395 0.2315 0 7
10.1641 5.4026 -2.7395 0.2315 0 7
10.1148 5.4943 -2.7395 0.2315 0 7
10.0647 5.5856 -2.7395 0.2315 0 7
10.0137 5.6764 -2.7395 0.2315 0 7
9.9620 5.7668 -2.7395 0.2315 0 7
9.9094 5.8567 -2.7395 0.2315 0 7
9.8560 5.9461 -2.7395 0.2315 0 7
9.8018 6.0350 -2.7395 0.2315 0 7
9.7468 6.1235 -2.7395 0.2315 0 7
9.6910 6.2114 -2.7395 0.2315 0 7
9.6344 6.2988 -2.7395 0.2315 0 7
9.5770 6.3857 -2.7395 0.2315 0 7
9.5189 6.4721 -2.7395 0.2315 0 7
9.4599 6.5580 -2.7395 0.2315 0 7
9.4002 6.6433 -2.7395 0.2315 0 7
9.3397 6.7280 -2.7395 0.2315 0 7
9.2785 6.8123 -2.7395 0.2315 0 7
9.2165 6.8959 -2.7395 0.2315 0 7
9.1537 6.9790 -2.7395 0.2315 0 7
9.0902 7.0616 -2.7395 0.2315 0 7
9.0259 7.1435 -2.7395 0.2315 0 6
8.9609 7.2249 -2.7395 0.2315 0 7
8.8952 7.3057 -2.7395 0.2315 0 7
8.8287 7.3858 -2.7395 0.2315 0 7
8.7615 7.4654 -2.7395 0.2315 0 7
8.6936 7.5444 -2.7395 0.2315 0 7
8.6250 7.6227 -2.7395 0.2315 0 7
8.5557 7.7004 -2.7395 0.2315 0 7
8.4857 7.7775 -2.7395 0.2315 0 7
8.4150 7.8540 -2.7395 0.2315 0 7
8.3436 7.9298 -2.7395 0.2315 0 7
8.2715 8.0050 -2.7395 0.2315 0 7
8.1987 8.0795 -2.7395 0.2315 0 7
8.1253 8.1533 -2.7395 0.2315 0 7
8.0512 8.2265 -2.7395 0.2315 0 7
7.9765 8.2990 -2.7395 0.2315 0 7
7.9010 8.3708 -2.7395 0.2315 0 7
7.8250 8.4419 -2.7395 0.2315 0 7
7.7483 8.5124 -2.7395 0.2315 0 7
7.6710 8.5821 -2.7395 0.2315 0 7
7.5912 8.6491 -2.7389 0.2369 0 8
7.5082 8.7123 -2.7372 0.2370 0 8
7.4247 8.7747 -2.7356 0.2372 0 8
7.3407 8.8363 -2.7340 0.2373 0 8
7.2562 8.8971 -2.7324 0.2374 0 8
7.0752 8.8373 -2.6942 0.3952 0 8
6.8557 8.7237 -2.6406 0.4032 0 8
6.6490 8.6201 -2.5909 0.4292 0 8
6.5610 8.6671 -2.5871 0.2315 0 8
6.4824 8.7261 -2.5871 0.2315 0 8
6.4031 8.7844 -2.5871 0.2315 0 8
6.3234 8.8419 -2.5871 0.2315 0 8
6.2432 8.8988 -2.5871 0.2315 0 8
6.1624 8.9549 -2.5871 0.2315 0 8
6.0811 9.0103 -2.5871 0.2315 0 8
5.9993 9.0649 -2.5871 0.2315 0 8
5.9171 9.1189 -2.5871 0.2315 0 8
5.8344 9.1720 -2.5871 0.2315 0 8
5.7511 9.2244 -2.5871 0.2315 0 8
5.6674 9.2761 -2.5871 0.2315 0 8
5.5833 9.3270 -2.5871 0.2315 0 8
5.4987 9.3771 -2.5871 0.2315 0 8
5.4136 9.4265 -2.5871 0.2315 0 8
5.3281 9.4751 -2.5871 0.2315 0 8
5.2422 9.5229 -2.5871 0.2315 0 8
5.1558 9.5699 -2.5871 0.2315 0 8
5.0690 9.6162 -2.5871 0.2315 0 8
4.9818 9.6616 -2.5871 0.2315 0 8
4.8942 9.7063 -2.5871 0.2315 0 8
4.8062 9.7502 -2.5871 0.2315 0 8
4.7177 9.7933 -2.5871 0.2315 0 8
4.6290 9.8355 -2.5871 0.2315 0 8
4.5398 9.8770 -2.5871 0.2315 0 8
4.4502 9.9177 -2.5871 0.2315 0 8
4.3603 9.9576 -2.5871 0.2315 0 8
4.2701 9.9966 -2.5871 0.2315 0 8
4.1795 10.0348 -2.5871 0.2315 0 8
4.0885 10.0722 -2.5871 0.2315 0 8
3.9972 10.1088 -2.5871 0.2315 0 8
3.9056 10.1445 -2.5871 0.2315 0 8
3.8136 10.1794 -2.5871 0.2315 0 8
3.7214 10.2136 -2.5871 0.2315 0 8
3.6288 10.2468 -2.5871 0.2315 0 8
3.5360 10.2792 -2.5871 0.2315 0 8
3.4428 10.3108 -2.5871 0.2315 0 8
3.3494 10.3415 -2.5871 0.2315 0 8
3.2557 10.3714 -2.5871 0.2315 0 8
3.1617 10.4004 -2.5871 0.2315 0 8
3.0675 10.4286 -2.5871 0.2315 0 8
2.9730 10.4559 -2.5871 0.2315 0 8
2.8783 10.4824 -2.5871 0.2315 0 8
2.7834 10.5080 -2.5871 0.2315 0 8
2.6882 10.5328 -2.5871 0.2315 0 8
2.5928 10.5567 -2.5871 0.2315 0 8
2.4972 10.5797 -2.5871 0.2315 0 8
2.4014 10.6018 -2.5871 0.2315 0 8
2.3054 10.6231 -2.5871 0.2315 0 8
2.2091 10.6435 -2.5871 0.2315 0 8
2.1128 10.6631 -2.5871 0.2315 0 8
2.0162 10.6818 -2.5871 0.2315 0 8
1.9195 10.6996 -2.5871 0.2315 0 8
1.8226 10.7165 -2.5871 0.2315 0 8
1.7256 10.7325 -2.5871 0.2315 0 8
1.6284 10.7477 -2.5871 0.2315 0 8
1.5311 10.7620 -2.5871 0.2315 0 8
1.4337 10.7754 -2.5871 0.2315 0 8
1.3361 10.7879 -2.5871 0.2315 0 8
1.2385 10.7996 -2.5871 0.2315 0 8
1.1407 10.8104 -2.5871 0.2315 0 8
1.0429 10.8203 -2.5871 0.2315 0 8
0.9449 10.8292 -2.5871 0.2315 0 8
0.8469 10.8373 -2.5871 0.2315 0 8
0.7488 10.8446 -2.5871 0.2315 0 8
0.6507 10.8509 -2.5871 0.2315 0 8
0.5525 10.8563 -2.5871 0.2315 0 8
0.4542 10.8609 -2.5871 0.2315 0 8
0.3560 10.8646 -2.5871 0.2315 0 8
0.2577 10.8674 -2.5871 0.2315 0 8
0.1593 10.8692 -2.5871 0.2315 0 8
0.0610 10.8702 -2.5871 0.2315 0 8
-0.0374 10.8703 -2.5871 0.2315 0 8
-0.1357 10.8695 -2.5871 0.2315 0 8
-0.2340 10.8679 -2.5871 0.2315 0 8
-0.3324 10.8653 -2.5871 0.2315 0 8
-0.4307 10.8619 -2.5871 0.2315 0 8
-0.5289 10.8575 -2.5871 0.2315 0 8
-0.6271 10.8523 -2.5871 0.2315 0 8
-0.7253 10.8462 -2.5871 0.2315 0 8
-0.8233 10.8392 -2.5871 0.2315 0 8
-0.9214 10.8313 -2.5871 0.2315 0 8
-1.0193 10.8225 -2.5871 0.2315 0 8
-1.1172 10.8128 -2.5871 0.2315 0 8
-1.2150 10.8023 -2.5871 0.2315 0 8
-1.3127 10.7908 -2.5871 0.2315 0 8
-1.4102 10.7785 -2.5871 0.2315 0 8
-1.5077 10.7653 -2.5871 0.2315 0 8
-1.6050 10.7512 -2.5871 0.2315 0 8
-1.7022 10.7363 -2.5871 0.2315 0 8
-1.7993 10.7204 -2.5871 0.2315 0 8
-1.8962 10.7037 -2.5871 0.2315 0 8
-1.9930 10.6861 -2.5871 0.2315 0 8
-2.0896 10.6677 -2.5871 0.2315 0 8
-2.1860 10.6483 -2.5871 0.2315 0 8
-2.2823 10.6281 -2.5871 0.2315 0 8
-2.3783 10.6070 -2.5871 0.2315 0 8
-2.4742 10.5851 -2.5871 0.2315 0 8
-2.5699 10.5623 -2.5871 0.2315 0 8
-2.6653 10.5386 -2.5871 0.2315 0 8
-2.7605 10.5140 -2.5871 0.2315 0 8
-2.8555 10.4886 -2.5871 0.2315 0 8
-2.9503 10.4624 -2.5871 0.2315 0 8
-3.0448 10.4352 -2.5871 0.2315 0 8
-3.1392 10.4073 -2.5871 0.2315 0 8
-3.2332 10.3784 -2.5871 0.2315 0 8
-3.3269 10.3488 -2.5871 0.2315 0 8
-3.4204 10.3183 -2.5871 0.2315 0 8
-3.5136 10.2869 -2.5871 0.2315 0 8
-3.6066 10.2547 -2.5871 0.2315 0 8
-3.6992 10.2216 -2.5871 0.2315 0 8
-3.7915 10.1877 -2.5871 0.2315 0 8
-3.8835 10.1530 -2.5871 0.2315 0 8
-3.9752 10.1175 -2.5871 0.2315 0 8
-4.0666 10.0811 -2.5871 0.2315 0 8
-4.1577 10.0439 -2.5871 0.2315 0 8
-4.2483 10.0058 -2.5871 0.2315 0 8
-4.3387 9.9670 -2.5871 0.2315 0 8
-4.4287 9.9274 -2.5871 0.2315 0 8
-4.5183 9.8869 -2.5871 0.2315 0 8
-4.6076 9.8456 -2.5871 0.2315 0 8
-4.6965 9.8035 -2.5871 0.2315 0 8
-4.7850 9.7606 -2.5871 0.2315 0 8
-4.8731 9.7169 -2.5871 0.2315 0 8
-3.1470 6.1359 -1.6412 0.3311 0 5
-3.1742 6.0534 -1.6267 0.9132 0 5
-3.2548 6.0730 -1.6398 0.3988 0 5
-5.2215 9.5342 -2.5871 0.2315 0 8
-5.3075 9.4866 -2.5871 0.2315 0 8
-5.3931 9.4382 -2.5871 0.2315 0 8
-5.4783 9.3890 -2.5871 0.2315 0 8
-5.5630 9.3391 -2.5871 0.2315 0 8
-5.6473 9.2883 -2.5871 0.2315 0 8
-5.7310 9.2369 -2.5871 0.2315 0 8
-5.8144 9.1847 -2.5871 0.2315 0 8
-5.8973 9.1317 -2.5871 0.2315 0 8
-5.9796 9.0779 -2.5871 0.2315 0 8
-6.0615 9.0235 -2.5871 0.2315 0 8
-6.1429 8.9683 -2.5871 0.2315 0 8
-6.2238 8.9123 -2.5871 0.2315 0 8
-6.3042 8.8557 -2.5871 0.2315 0 8
-6.3840 8.7983 -2.5871 0.2315 0 8
-6.4634 8.7402 -2.5871 0.2315 0 8
-6.5422 8.6813 -2.5871 0.2315 0 8
-6.6205 8.6218 -2.5871 0.2315 0 8
-6.6982 8.5615 -2.5871 0.2315 0 8
-6.7754 8.5006 -2.5871 0.2315 0 8
-6.8520 8.4389 -2.5871 0.2315 0 8
-6.9281 8.3766 -2.5871 0.2315 0 8
-7.0036 8.3136 -2.5871 0.2315 0 8
-7.0785 8.2499 -2.5871 0.2315 0 8
-7.1528 8.1855 -2.5871 0.2315 0 8
-7.6365 8.5811 -2.7339 0.2287 0 8
-7.7188 8.5171 -2.7356 0.2286 0 8
-7.8006 8.4523 -2.7374 0.2284 0 8
-7.8818 8.3868 -2.7391 0.2283 0 8
-7.9584 8.3163 -2.7395 0.2315 0 7
-8.0333 8.2440 -2.7395 0.2315 0 7
-8.1076 8.1709 -2.7395 0.2315 0 7
-8.1812 8.0972 -2.7395 0.2315 0 7
-8.2541 8.0229 -2.7395 0.2315 0 7
-8.3263 7.9479 -2.7395 0.2315 0 7
-8.3979 7.8722 -2.7395 0.2315 0 7
-8.4688 7.7959 -2.7395 0.2315 0 7
-8.5390 7.7190 -2.7395 0.2315 0 7
-8.6085 7.6414 -2.7395 0.2315 0 7
-8.6772 7.5632 -2.7395 0.2315 0 7
-8.7453 7.4844 -2.7395 0.2315 0 7
-8.8127 7.4050 -2.7395 0.2315 0 7
-8.8793 7.3250 -2.7395 0.2315 0 7
-8.9452 7.2443 -2.7395 0.2315 0 7
-9.0104 7.1631 -2.7395 0.2315 0 7
-9.0748 7.0813 -2.7395 0.2315 0 7
-9.1385 6.9989 -2.7395 0.2315 0 6
-9.2015 6.9159 -2.7395 0.2315 0 6
-9.2636 6.8324 -2.7395 0.2315 0 7
-9.3251 6.7483 -2.7395 0.2315 0 7
-9.3858 6.6637 -2.7395 0.2315 0 7
-9.4457 6.5785 -2.7395 0.2315 0 7
-9.5048 6.4928 -2.7395 0.2315 0 7
-9.5631 6.4065 -2.7395 0.2315 0 7
-9.6207 6.3197 -2.7395 0.2315 0 7
-9.6775 6.2324 -2.7395 0.2315 0 7
-9.7335 6.1446 -2.7395 0.2315 0 7
-9.7887 6.0563 -2.7395 0.2315 0 7
-9.8431 5.9675 -2.7395 0.2315 0 7
-9.8967 5.8782 -2.7395 0.2315 0 7
-9.9494 5.7884 -2.7395 0.2315 0 7
-10.0014 5.6982 -2.7395 0.2315 0 7
-10.0525 5.6074 -2.7395 0.2315 0 7
-10.1029 5.5163 -2.7395 0.2315 0 7
-10.1524 5.4247 -2.7395 0.2315 0 7
-10.2010 5.3326 -2.7395 0.2315 0 7
-10.2488 5.2401 -2.7395 0.2315 0 7
-10.2958 5.1471 -2.7395 0.2315 0 7
-10.3420 5.0538 -2.7395 0.2315 0 7
-10.3873 4.9600 -2.7395 0.2315 0 7
-10.4317 4.8658 -2.7395 0.2315 0 7
-10.4753 4.7712 -2.7395 0.2315 0 7
-10.5181 4.6763 -2.7395 0.2315 0 7
-10.5599 4.5809 -2.7395 0.2315 0 7
-10.6009 4.4852 -2.7395 0.2315 0 7
-10.6411 4.3891 -2.7395 0.2315 0 7
-10.6804 4.2927 -2.7395 0.2315 0 7
-10.7187 4.1959 -2.7395 0.2315 0 7
-10.7563 4.0987 -2.7395 0.2315 0 7
-10.7929 4.0012 -2.7395 0.2315 0 7
-10.8287 3.9034 -2.7395 0.2315 0 7
-10.8636 3.8053 -2.7395 0.2315 0 7
-10.8975 3.7068 -2.7395 0.2315 0 7
-10.9306 3.6081 -2.7395 0.2315 0 7
-10.9628 3.5091 -2.7395 0.2315 0 7
-10.9941 3.4097 -2.7395 0.2315 0 7
-11.0245 3.3101 -2.7395 0.2315 0 7
-11.0540 3.2103 -2.7395 0.2315 0 7
-11.0826 3.1101 -2.7395 0.2315 0 7
-11.1103 3.0097 -2.7395 0.2315 0 6
-11.1371 2.9091 -2.7395 0.2315 0 6
-11.1629 2.8082 -2.7395 0.2315 0 7
-11.1879 2.7071 -2.7395 0.2315 0 7
-11.2119 2.6058 -2.7395 0.2315 0 7
-11.2350 2.5042 -2.7395 0.2315 0 7
-11.2572 2.4025 -2.7395 0.2315 0 7
-11.2785 2.3005 -2.7395 0.2315 0 7
-11.2988 2.1984 -2.7395 0.2315 0 7
-11.3183 2.0961 -2.7395 0.2315 0 7
-11.3368 1.9936 -2.7395 0.2315 0 7
-11.3543 1.8909 -2.7395 0.2315 0 7
-11.3710 1.7881 -2.7395 0.2315 0 7
-11.3867 1.6852 -2.7395 0.2315 0 7
-11.4015 1.5821 -2.7395 0.2315 0 7
-11.4153 1.4789 -2.7395 0.2315 0 7
-11.4283 1.3756 -2.7395 0.2315 0 7
-11.4402 1.2721 -2.7395 0.2315 0 7
-11.4513 1.1685 -2.7395 0.2315 0 7
-11.4614 1.0649 -2.7395 0.2315 0 7
-11.4705 0.9612 -2.7395 0.2315 0 7
-11.4788 0.8574 -2.7395 0.2315 0 7
-11.4860 0.7535 -2.7395 0.2315 0 7
-11.4924 0.6495 -2.7395 0.2315 0 7
-11.4978 0.5455 -2.7395 0.2315 0 7
-11.5023 0.4415 -2.7395 0.2315 0 7
-11.5058 0.3374 -2.7395 0.2315 0 7
-11.5084 0.2333 -2.7395 0.2315 0 7
-11.5100 0.1292 -2.7395 0.2315 0 7
-11.5107 0.0250 -2.7395 0.2315 0 7
-11.5105 -0.0791 -2.7395 0.2315 0 7
-11.5093 -0.1833 -2.7395 0.2315 0 7
-11.5071 -0.2874 -2.7395 0.2315 0 7
-11.5041 -0.3915 -2.7395 0.2315 0 7
-11.5000 -0.4955 -2.7395 0.2315 0 7
-11.4951 -0.5996 -2.7395 0.2315 0 7
-11.4892 -0.7035 -2.7395 0.2315 0 7
-11.4824 -0.8075 -2.7395 0.2315 0 7
-11.4746 -0.9113 -2.7395 0.2315 0 7
-11.4659 -1.0151 -2.7395 0.2315 0 7
-11.4562 -1.1188 -2.7395 0.2315 0 7
-11.4457 -1.2224 -2.7395 0.2315 0 7
-11.4341 -1.3259 -2.7395 0.2315 0 7
-11.4217 -1.4293 -2.7395 0.2315 0 7
-11.4083 -1.5325 -2.7395 0.2315 0 7
-11.3939 -1.6357 -2.7395 0.2315 0 7
-11.3786 -1.7387 -2.7395 0.2315 0 7
-11.3625 -1.8416 -2.7395 0.2315 0 7
-11.3453 -1.9443 -2.7395 0.2315 0 7
-11.3273 -2.0469 -2.7395 0.2315 0 7
-11.3083 -2.1493 -2.7395 0.2315 0 7
-11.2884 -2.2515 -2.7395 0.2315 0 7
-11.2676 -2.3535 -2.7395 0.2315 0 7
-11.2458 -2.4554 -2.7395 0.2315 0 7
-11.2231 -2.5570 -2.7395 0.2315 0 7
-11.1995 -2.6584 -2.7395 0.2315 0 7
-11.1750 -2.7596 -2.7395 0.2315 0 7
-11.1496 -2.8606 -2.7395 0.2315 0 7
-11.1233 -2.9614 -2.7395 0.2315 0 7
-11.0960 -3.0619 -2.7395 0.2315 0 7
-11.0679 -3.1622 -2.7395 0.2315 0 7
-11.0388 -3.2622 -2.7395 0.2315 0 7
-11.0088 -3.3619 -2.7395 0.2315 0 7
-10.9780 -3.4614 -2.7395 0.2315 0 7
-10.9462 -3.5606 -2.7395 0.2315 0 7
-10.9135 -3.6594 -2.7395 0.2315 0 7
-10.8800 -3.7580 -2.7395 0.2315 0 7
-10.8455 -3.8563 -2.7395 0.2315 0 7
-10.8102 -3.9543 -2.7395 0.2315 0 7
-10.7740 -4.0519 -2.7395 0.2315 0 7
-10.7369 -4.1492 -2.7395 0.2315 0 7
-10.6989 -4.2462 -2.7395 0.2315 0 7
-10.6601 -4.3428 -2.7395 0.2315 0 7
-10.6204 -4.4391 -2.7395 0.2315 0 7
-10.5797 -4.5351 -2.7395 0.2315 0 7
-10.5382 -4.6306 -2.7395 0.2315 0 7
-10.4960 -4.7257 -2.7395 0.2315 0 6
-10.4528 -4.8204 -2.7395 0.2315 0 6
-10.4087 -4.9148 -2.7395 0.2315 0 6
-10.3638 -5.0088 -2.7395 0.2315 0 6
-10.3181 -5.1023 -2.7395 0.2315 0 6
-10.2715 -5.1955 -2.7395 0.2315 0 6
-10.2241 -5.2882 -2.7395 0.2315 0 6
-10.1758 -5.3805 -2.7395 0.2315 0 6
-10.1267 -5.4723 -2.7395 0.2315 0 6
-10.0768 -5.5637 -2.7395 0.2315 0 6
-10.0261 -5.6546 -2.7395 0.2315 0 6
-9.9745 -5.7451 -2.7395 0.2315 0 6
-9.9221 -5.8351 -2.7395 0.2315 0 6
-9.8689 -5.9246 -2.7395 0.2315 0 6
-9.8149 -6.0137 -2.7395 0.2315 0 6
-9.7601 -6.1023 -2.7395 0.2315 0 6
-9.7045 -6.1903 -2.7395 0.2315 0 6
-9.6481 -6.2778 -2.7395 0.2315 0 6
-9.5909 -6.3649 -2.7395 0.2315 0 6
-9.5329 -6.4514 -2.7395 0.2315 0 6
-9.4741 -6.5374 -2.7395 0.2315 0 6
-9.4146 -6.6228 -2.7395 0.2315 0 6
-9.3543 -6.7077 -2.7395 0.2315 0 6
-9.2933 -6.7921 -2.7395 0.2315 0 6
-9.2313 -6.8760 -2.7395 0.2315 0 7
-9.1688 -6.9591 -2.7395 0.2315 0 7
-9.1055 -7.0418 -2.7395 0.2315 0 7
-9.0414 -7.1239 -2.7395 0.2315 0 7
-8.9766 -7.2054 -2.7395 0.2315 0 7
-8.9111 -7.2863 -2.7395 0.2315 0 7
-8.8448 -7.3666 -2.7395 0.2315 0 7
-8.7778 -7.4463 -2.7395 0.2315 0 7
-8.7100 -7.5255 -2.7395 0.2315 0 7
-8.6416 -7.6040 -2.7395 0.2315 0 7
-8.5724 -7.6818 -2.7395 0.2315 0 7
-8.5026 -7.7591 -2.7395 0.2315 0 7
-8.4321 -7.8357 -2.7395 0.2315 0 7
-8.3608 -7.9116 -2.7395 0.2315 0 7
-8.2889 -7.9870 -2.7395 0.2315 0 7
-8.2163 -8.0616 -2.7395 0.2315 0 7
-8.1430 -8.1356 -2.7395 0.2315 0 7
-8.0691 -8.2090 -2.7395 0.2315 0 7
-7.9945 -8.2816 -2.7395 0.2315 0 7
-7.9192 -8.3536 -2.7395 0.2315 0 7
-7.8433 -8.4249 -2.7395 0.2315 0 7
-7.7668 -8.4955 -2.7395 0.2315 0 7
-7.6896 -8.5655 -2.7395 0.2315 0 7
-7.6118 -8.6347 -2.7395 0.2315 0 7
-7.5334 -8.7032 -2.7395 0.2315 0 7
-7.4543 -8.7710 -2.7395 0.2315 0 7
-7.3747 -8.8381 -2.7395 0.2315 0 7
-7.2944 -8.9044 -2.7395 0.2315 0 7
-7.2135 -8.9700 -2.7395 0.2315 0 7
-7.1321 -9.0350 -2.7395 0.2315 0 7
-7.0501 -9.0991 -2.7395 0.2315 0 7
-6.9675 -9.1625 -2.7395 0.2315 0 7
-6.8843 -9.2252 -2.7395 0.2315 0 7
-6.8005 -9.2871 -2.7395 0.2315 0 7
-6.7162 -9.3482 -2.7395 0.2315 0 7
-6.6314 -9.4086 -2.7395 0.2315 0 7
-6.5460 -9.4682 -2.7395 0.2315 0 7
-6.4600 -9.5270 -2.7395 0.2315 0 7
-6.3736 -9.5851 -2.7395 0.2315 0 7
-6.2866 -9.6424 -2.7395 0.2315 0 7
-6.1991 -9.6988 -2.7395 0.2315 0 7
-6.1111 -9.7546 -2.7395 0.2315 0 7
-6.0226 -9.8094 -2.7395 0.2315 0 7
-5.9336 -9.8635 -2.7395 0.2315 0 7
-5.8441 -9.9168 -2.7395 0.2315 0 7
-5.7542 -9.9693 -2.7395 0.2315 0 7
-5.6638 -10.0209 -2.7395 0.2315 0 7
-5.5729 -10.0718 -2.7395 0.2315 0 7
-5.4815 -10.1217 -2.7395 0.2315 0 7
-5.3897 -10.1709 -2.7395 0.2315 0 7
-5.2975 -10.2193 -2.7395 0.2315 0 7
-5.2048 -10.2668 -2.7395 0.2315 0 7
-5.1117 -10.3135 -2.7395 0.2315 0 7
-5.0182 -10.3593 -2.7395 0.2315 0 7
-4.9243 -10.4042 -2.7395 0.2315 0 7
-4.8299 -10.4484 -2.7395 0.2315 0 7
-4.7352 -10.4917 -2.7395 0.2315 0 7
-4.6401 -10.5341 -2.7395 0.2315 0 7
-4.5446 -10.5756 -2.7395 0.2315 0 7
-4.4487 -10.6163 -2.7395 0.2315 0 7
-4.3525 -10.6561 -2.7395 0.2315 0 7
-4.2559 -10.6950 -2.7395 0.2315 0 7
-4.1590 -10.7331 -2.7395 0.2315 0 7
-4.0617 -10.7703 -2.7395 0.2315 0 7
-3.9641 -10.8066 -2.7395 0.2315 0 7
-3.8662 -10.8420 -2.7395 0.2315 0 7
-3.7679 -10.8766 -2.7395 0.2315 0 7
-3.6694 -10.9102 -2.7395 0.2315 0 7
-3.5705 -10.9430 -2.7395 0.2315 0 7
-3.4714 -10.9748 -2.7395 0.2315 0 7
-3.3719 -11.0058 -2.7395 0.2315 0 7
-3.2722 -11.0358 -2.7395 0.2315 0 7
-3.1722 -11.0650 -2.7395 0.2315 0 7
-3.0720 -11.0932 -2.7395 0.2315 0 7
-2.9715 -11.1206 -2.7395 0.2315 0 7
-2.8708 -11.1470 -2.7395 0.2315 0 7
-2.7698 -11.1725 -2.7395 0.2315 0 7
-2.6686 -11.1971 -2.7395 0.2315 0 7
-2.5672 -11.2208 -2.7395 0.2315 0 7
-2.4656 -11.2436 -2.7395 0.2315 0 7
-2.3638 -11.2654 -2.7395 0.2315 0 7
-2.2617 -11.2863 -2.7395 0.2315 0 7
-2.1595 -11.3063 -2.7395 0.2315 0 7
-2.0572 -11.3254 -2.7395 0.2315 0 7
-1.9546 -11.3436 -2.7395 0.2315 0 7
-1.8519 -11.3608 -2.7395 0.2315 0 7
-1.7490 -11.3771 -2.7395 0.2315 0 7
-1.6460 -11.3924 -2.7395 0.2315 0 7
-1.5429 -11.4069 -2.7395 0.2315 0 7
-1.4396 -11.4203 -2.7395 0.2315 0 7
-1.3363 -11.4329 -2.7395 0.2315 0 7
-1.2328 -11.4445 -2.7395 0.2315 0 7
-1.1292 -11.4552 -2.7395 0.2315 0 7
-1.0255 -11.4650 -2.7395 0.2315 0 7
-0.9217 -11.4738 -2.7395 0.2315 0 7
-0.8179 -11.4816 -2.7395 0.2315 0 7
-0.7140 -11.4886 -2.7395 0.2315 0 7
-0.6100 -11.4946 -2.7395 0.2315 0 7
-0.5060 -11.4996 -2.7395 0.2315 0 7
-0.4019 -11.5037 -2.7395 0.2315 0 7
-0.2979 -11.5069 -2.7395 0.2315 0 7
-0.1937 -11.5091 -2.7395 0.2315 0 7
-0.0896 -11.5104 -2.7395 0.2315 0 7
0.0146 -11.5107 -2.7395 0.2315 0 7
0.1187 -11.5101 -2.7395 0.2315 0 7
0.2228 -11.5086 -2.7395 0.2315 0 7
0.3269 -11.5061 -2.7395 0.2315 0 7
0.4310 -11.5027 -2.7395 0.2315 0 7
0.5351 -11.4983 -2.7395 0.2315 0 7
0.6391 -11.4930 -2.7395 0.2315 0 7
0.7430 -11.4867 -2.7395 0.2315 0 7
0.8469 -11.4795 -2.7395 0.2315 0 7
0.9508 -11.4714 -2.7395 0.2315 0 7
1.0545 -11.4623 -2.7395 0.2315 0 7
1.1581 -11.4523 -2.7395 0.2315 0 7
1.2617 -11.4414 -2.7395 0.2315 0 7
1.3652 -11.4295 -2.7395 0.2315 0 7
1.4685 -11.4167 -2.7395 0.2315 0 7
1.5717 -11.4029 -2.7395 0.2315 0 7
1.6748 -11.3882 -2.7395 0.2315 0 7
1.7778 -11.3726 -2.7395 0.2315 0 7
1.8806 -11.3561 -2.7395 0.2315 0 7
1.9833 -11.3386 -2.7395 0.2315 0 7
2.0858 -11.3202 -2.7395 0.2315 0 7
2.1881 -11.3008 -2.7395 0.2315 0 7
2.2903 -11.2806 -2.7395 0.2315 0 7
2.3922 -11.2594 -2.7395 0.2315 0 7
2.4940 -11.2373 -2.7395 0.2315 0 7
2.5956 -11.2143 -2.7395 0.2315 0 7
2.6969 -11.1903 -2.7395 0.2315 0 7
2.7980 -11.1655 -2.7395 0.2315 0 7
2.8989 -11.1397 -2.7395 0.2315 0 7
2.9996 -11.1130 -2.7395 0.2315 0 7
3.1000 -11.0854 -2.7395 0.2315 0 7
3.2002 -11.0569 -2.7395 0.2315 0 7
3.3001 -11.0275 -2.7395 0.2315 0 7
3.3997 -10.9972 -2.7395 0.2315 0 7
3.4991 -10.9660 -2.7395 0.2315 0 7
3.5982 -10.9339 -2.7395 0.2315 0 7
3.6969 -10.9009 -2.7395 0.2315 0 7
3.7954 -10.8670 -2.7395 0.2315 0 7
3.8936 -10.8322 -2.7395 0.2315 0 7
3.9914 -10.7966 -2.7395 0.2315 0 7
4.0889 -10.7600 -2.7395 0.2315 0 7
4.1861 -10.7225 -2.7395 0.2315 0 7
4.2829 -10.6843 -2.7395 0.2315 0 7
4.3794 -10.6451 -2.7395 0.2315 0 7
4.4755 -10.6050 -2.7395 0.2315 0 7
4.5713 -10.5641 -2.7395 0.2315 0 7
4.6667 -10.5223 -2.7395 0.2315 0 7
4.7617 -10.4797 -2.7395 0.2315 0 7
4.8563 -10.4362 -2.7395 0.2315 0 7
4.9505 -10.3918 -2.7395 0.2315 0 7
5.0443 -10.3466 -2.7395 0.2315 0 7
5.1378 -10.3005 -2.7395 0.2315 0 7
5.2307 -10.2536 -2.7395 0.2315 0 7
5.3233 -10.2059 -2.7395 0.2315 0 7
5.4154 -10.1573 -2.7395 0.2315 0 7
5.5071 -10.1079 -2.7395 0.2315 0 7
5.5983 -10.0576 -2.7395 0.2315 0 7
5.6891 -10.0066 -2.7395 0.2315 0 7
5.7794 -9.9547 -2.7395 0.2315 0 7
5.8692 -9.9020 -2.7395 0.2315 0 7
5.9586 -9.8485 -2.7395 0.2315 0 7
6.0474 -9.7942 -2.7395 0.2315 0 7
6.1358 -9.7391 -2.7395 0.2315 0 7
6.2236 -9.6832 -2.7395 0.2315 0 7
6.3110 -9.6264 -2.7395 0.2315 0 7
6.3978 -9.5690 -2.7395 0.2315 0 7
6.4841 -9.5107 -2.7395 0.2315 0 7
6.5699 -9.4516 -2.7395 0.2315 0 7
6.6551 -9.3918 -2.7395 0.2315 0 7
6.7398 -9.3312 -2.7395 0.2315 0 7
6.8240 -9.2699 -2.7395 0.2315 0 7
6.9076 -9.2077 -2.7395 0.2315 0 7
6.9906 -9.1449 -2.7395 0.2315 0 7
7.0730 -9.0812 -2.7395 0.2315 0 7
7.1549 -9.0169 -2.7395 0.2315 0 7
7.2362 -8.9518 -2.7395 0.2315 0 7
7.3169 -8.8859 -2.7395 0.2315 0 7
7.3970 -8.8194 -2.7395 0.2315 0 7
7.4765 -8.7521 -2.7395 0.2315 0 7
7.5553 -8.6841 -2.7395 0.2315 0 7
7.6336 -8.6154 -2.7395 0.2315 0 7
7.7112 -8.5460 -2.7395 0.2315 0 7
7.7882 -8.4758 -2.7395 0.2315 0 7
7.8646 -8.4050 -2.7395 0.2315 0 7
7.9403 -8.3336 -2.7395 0.2315 0 7
8.0154 -8.2614 -2.7395 0.2315 0 7
8.0898 -8.1885 -2.7395 0.2315 0 7
8.1635 -8.1150 -2.7395 0.2315 0 7
8.2366 -8.0408 -2.7395 0.2315 0 7
8.3090 -7.9660 -2.7395 0.2315 0 7
8.3808 -7.8905 -2.7395 0.2315 0 7
8.4518 -7.8143 -2.7395 0.2315 0 7
8.5222 -7.7376 -2.7395 0.2315 0 7
8.5918 -7.6601 -2.7395 0.2315 0 7
8.6608 -7.5821 -2.7395 0.2315 0 6
8.7290 -7.5034 -2.7395 0.2315 0 6
8.7965 -7.4241 -2.7395 0.2315 0 6
8.8633 -7.3442 -2.7395 0.2315 0 6
8.9294 -7.2637 -2.7395 0.2315 0 6
8.9948 -7.1827 -2.7395 0.2315 0 6
9.0594 -7.1010 -2.7395 0.2315 0 6
9.1233 -7.0187 -2.7395 0.2315 0 6
9.1864 -6.9359 -2.7395 0.2315 0 6
9.2488 -6.8525 -2.7395 0.2315 0 6
9.3104 -6.7686 -2.7395 0.2315 0 6
9.3712 -6.6841 -2.7395 0.2315 0 6
9.4313 -6.5990 -2.7395 0.2315 0 6
9.4907 -6.5134 -2.7395 0.2315 0 6
9.5492 -6.4273 -2.7395 0.2315 0 6
9.6070 -6.3406 -2.7395 0.2315 0 6
9.6639 -6.2534 -2.7395 0.2315 0 7
9.7201 -6.1658 -2.7395 0.2315 0 7
9.7755 -6.0776 -2.7395 0.2315 0 7
9.8301 -5.9889 -2.7395 0.2315 0 7
9.8839 -5.8997 -2.7395 0.2315 0 7
9.9368 -5.8100 -2.7395 0.2315 0 7
9.9890 -5.7199 -2.7395 0.2315 0 7
10.0403 -5.6293 -2.7395 0.2315 0 7
10.0908 -5.5382 -2.7395 0.2315 0 7
10.1405 -5.4467 -2.7395 0.2315 0 7
10.1894 -5.3547 -2.7395 0.2315 0 6
10.2374 -5.2623 -2.7395 0.2315 0 6
10.2846 -5.1695 -2.7395 0.2315 0 6
10.3310 -5.0762 -2.7395 0.2315 0 6
10.3765 -4.9825 -2.7395 0.2315 0 6
10.4211 -4.8885 -2.7395 0.2315 0 7
10.4649 -4.7940 -2.7395 0.2315 0 7
10.5079 -4.6991 -2.7395 0.2315 0 7
10.5500 -4.6039 -2.7395 0.2315 0 7
10.5912 -4.5082 -2.7395 0.2315 0 7
10.6315 -4.4122 -2.7395 0.2315 0 7
10.6710 -4.3158 -2.7395 0.2315 0 7
10.7096 -4.2191 -2.7395 0.2315 0 7
10.7473 -4.1221 -2.7395 0.2315 0 7
10.7842 -4.0247 -2.7395 0.2315 0 7
10.8202 -3.9269 -2.7395 0.2315 0 7
10.8553 -3.8289 -2.7395 0.2315 0 7
10.8895 -3.7305 -2.7395 0.2315 0 7
10.9228 -3.6318 -2.7395 0.2315 0 7
10.9552 -3.5329 -2.7395 0.2315 0 7
10.9867 -3.4336 -2.7395 0.2315 0 7
11.0173 -3.3341 -2.7395 0.2315 0 7
11.0470 -3.2343 -2.7395 0.2315 0 7
11.0758 -3.1342 -2.7395 0.2315 0 7
11.1037 -3.0339 -2.7395 0.2315 0 7
11.1307 -2.9333 -2.7395 0.2315 0 6
11.1568 -2.8325 -2.7395 0.2315 0 6
11.1820 -2.7314 -2.7395 0.2315 0 6
11.2062 -2.6301 -2.7395 0.2315 0 6
11.2296 -2.5287 -2.7395 0.2315 0 6
11.2520 -2.4269 -2.7395 0.2315 0 7
11.2735 -2.3250 -2.7395 0.2315 0 7
11.2940 -2.2229 -2.7395 0.2315 0 7
11.3137 -2.1207 -2.7395 0.2315 0 7
11.3324 -2.0182 -2.7395 0.2315 0 7
11.3237 -1.9111 -2.7331 0.2319 0 20
11.3361 -1.8079 -2.7320 0.2320 0 20
11.3476 -1.7046 -2.7310 0.2320 0 20
11.3980 -1.6069 -2.7395 0.2315 0 7
11.4121 -1.5037 -2.7395 0.2315 0 7
11.4252 -1.4004 -2.7395 0.2315 0 7
11.4374 -1.2970 -2.7395 0.2315 0 7
11.4487 -1.1934 -2.7395 0.2315 0 7
11.4590 -1.0898 -2.7395 0.2315 0 7
11.4684 -0.9861 -2.7395 0.2315 0 7
11.4769 -0.8823 -2.7395 0.2315 0 7
11.4844 -0.7784 -2.7395 0.2315 0 7
11.4910 -0.6745 -2.7395 0.2315 0 7
11.4966 -0.5705 -2.7395 0.2315 0 7
11.5013 -0.4665 -2.7395 0.2315 0 7
11.5050 -0.3624 -2.7395 0.2315 0 7
11.5078 -0.2583 -2.7395 0.2315 0 7
11.5097 -0.1542 -2.7395 0.2315 0 7
11.5106 -0.0500 -2.7395 0.2315 0 7
11.5106 0.0541 -2.7395 0.2315 0 7
11.5096 0.1582 -2.7395 0.2315 0 7
11.5077 0.2624 -2.7395 0.2315 0 7
11.5049 0.3665 -2.7395 0.2315 0 6
11.5011 0.4705 -2.7395 0.2315 0 7
11.4964 0.5746 -2.7395 0.2315 0 6
11.4907 0.6786 -2.7395 0.2315 0 6
11.4841 0.7825 -2.7395 0.2315 0 7
11.4765 0.8864 -2.7395 0.2315 0 7
11.4681 0.9902 -2.7395 0.2315 0 7
11.4586 1.0939 -2.7395 0.2315 0 7
11.4483 1.1975 -2.7395 0.2315 0 7
11.4370 1.3010 -2.7395 0.2315 0 7
11.4247 1.4045 -2.7395 0.2315 0 7
11.4116 1.5077 -2.7395 0.2315 0 7
11.3975 1.6109 -2.7395 0.2315 0 7
11.3824 1.7140 -2.7395 0.2315 0 7
11.3664 1.8169 -2.7395 0.2315 0 7
11.3495 1.9197 -2.7395 0.2315 0 7
11.3317 2.0223 -2.7395 0.2315 0 7
11.3129 2.1247 -2.7395 0.2315 0 7
11.2933 2.2270 -2.7395 0.2315 0 7
11.2726 2.3290 -2.7395 0.2315 0 7
11.2511 2.4309 -2.7395 0.2315 0 7
11.2287 2.5326 -2.7395 0.2315 0 7
11.2053 2.6341 -2.7395 0.2315 0 7
11.1810 2.7354 -2.7395 0.2315 0 7
11.1558 2.8364 -2.7395 0.2315 0 7
11.1297 2.9372 -2.7395 0.2315 0 7
11.1027 3.0378 -2.7395 0.2315 0 7
11.0747 3.1381 -2.7395 0.2315 0 7
11.0459 3.2382 -2.7395 0.2315 0 7
11.0161 3.3380 -2.7395 0.2315 0 7
10.9855 3.4375 -2.7395 0.2315 0 7
10.9539 3.5368 -2.7395 0.2315 0 7
10.9215 3.6357 -2.7395 0.2315 0 7
10.8881 3.7344 -2.7395 0.2315 0 7
10.8539 3.8327 -2.7395 0.2315 0 7
10.8188 3.9308 -2.7395 0.2315 0 7
10.7828 4.0285 -2.7395 0.2315 0 7
10.7459 4.1259 -2.7395 0.2315 0 7
10.7081 4.2229 -2.7395 0.2315 0 7
10.6695 4.3196 -2.7395 0.2315 0 7
10.6300 4.4160 -2.7395 0.2315 0 7
10.5896 4.5120 -2.7395 0.2315 0 7
10.5483 4.6076 -2.7395 0.2315 0 7
10.5062 4.7029 -2.7395 0.2315 0 7
10.4632 4.7977 -2.7395 0.2315 0 7
10.4194 4.8922 -2.7395 0.2315 0 7
10.3747 4.9862 -2.7395 0.2315 0 7
10.3292 5.0799 -2.7395 0.2315 0 7
10.2828 5.1731 -2.7395 0.2315 0 7
10.2356 5.2660 -2.7395 0.2315 0 7
10.1875 5.3583 -2.7395 0.2315 0 7
10.1386 5.4503 -2.7395 0.2315 0 7
10.0889 5.5418 -2.7395 0.2315 0 7
10.0383 5.6329 -2.7395 0.2315 0 7
9.9869 5.7234 -2.7395 0.2315 0 7
9.9348 5.8136 -2.7395 0.2315 0 7
9.8818 5.9032 -2.7395 0.2315 0 7
9.8279 5.9924 -2.7395 0.2315 0 7
9.7733 6.0810 -2.7395 0.2315 0 7
9.7179 6.1692 -2.7395 0.2315 0 7
9.6617 6.2569 -2.7395 0.2315 0 7
9.6047 6.3440 -2.7395 0.2315 0 7
9.5469 6.4307 -2.7395 0.2315 0 7
9.4883 6.5168 -2.7395 0.2315 0 7
9.4290 6.6024 -2.7395 0.2315 0 7
9.3689 6.6874 -2.7395 0.2315 0 7
9.3080 6.7719 -2.7395 0.2315 0 7
9.2464 6.8558 -2.7395 0.2315 0 7
9.1839 6.9392 -2.7395 0.2315 0 7
9.1208 7.0220 -2.7395 0.2315 0 7
9.0569 7.1042 -2.7395 0.2315 0 6
8.9922 7.1859 -2.7395 0.2315 0 7
8.9269 7.2669 -2.7395 0.2315 0 7
8.8608 7.3474 -2.7395 0.2315 0 7
8.7939 7.4273 -2.7395 0.2315 0 7
8.7264 7.5065 -2.7395 0.2315 0 7
8.6581 7.5851 -2.7395 0.2315 0 7
8.5891 7.6632 -2.7395 0.2315 0 7
8.5194 7.7406 -2.7395 0.2315 0 7
8.4490 7.8173 -2.7395 0.2315 0 7
8.3780 7.8935 -2.7395 0.2315 0 7
8.3062 7.9689 -2.7395 0.2315 0 7
8.2338 8.0437 -2.7395 0.2315 0 7
8.1607 8.1179 -2.7395 0.2315 0 7
8.0869 8.1914 -2.7395 0.2315 0 7
8.0125 8.2642 -2.7395 0.2315 0 7
7.9373 8.3364 -2.7395 0.2315 0 7
7.8616 8.4079 -2.7395 0.2315 0 7
7.7852 8.4786 -2.7395 0.2315 0 7
7.7082 8.5487 -2.7395 0.2315 0 7
7.6305 8.6181 -2.7395 0.2315 0 7
7.5482 8.6821 -2.7380 0.2370 0 8
7.4649 8.7448 -2.7364 0.2371 0 8
7.3811 8.8068 -2.7348 0.2372 0 8
7.2968 8.8680 -2.7332 0.2374 0 8
7.1838 8.8934 -2.7209 0.3913 0 8
6.9600 8.7777 -2.6661 0.3994 0 8
6.7450 8.6664 -2.6136 0.4074 0 8
6.5986 8.6385 -2.5871 0.2315 0 8
6.5202 8.6978 -2.5871 0.2315 0 8
6.4412 8.7565 -2.5871 0.2315 0 8
6.3618 8.8144 -2.5871 0.2315 0 8
6.2818 8.8716 -2.5871 0.2315 0 8
6.2012 8.9280 -2.5871 0.2315 0 8
6.1202 8.9838 -2.5871 0.2315 0 8
6.0387 9.0388 -2.5871 0.2315 0 8
5.9567 9.0930 -2.5871 0.2315 0 8
5.8742 9.1466 -2.5871 0.2315 0 8
5.7912 9.1993 -2.5871 0.2315 0 8
5.7077 9.2514 -2.5871 0.2315 0 8
5.6238 9.3026 -2.5871 0.2315 0 8
5.5394 9.3531 -2.5871 0.2315 0 8
5.4545 9.4029 -2.5871 0.2315 0 8
5.3692 9.4518 -2.5871 0.2315 0 8
5.2835 9.5000 -2.5871 0.2315 0 8
5.1973 9.5474 -2.5871 0.2315 0 8
5.1107 9.5941 -2.5871 0.2315 0 8
5.0237 9.6399 -2.5871 0.2315 0 8
4.9363 9.6850 -2.5871 0.2315 0 8
4.8485 9.7292 -2.5871 0.2315 0 8
4.7603 9.7727 -2.5871 0.2315 0 8
4.6717 9.8153 -2.5871 0.2315 0 8
4.5827 9.8572 -2.5871 0.2315 0 8
4.4933 9.8983 -2.5871 0.2315 0 8
4.4036 9.9385 -2.5871 0.2315 0 8
4.3135 9.9779 -2.5871 0.2315 0 8
4.2230 10.0166 -2.5871 0.2315 0 8
4.1322 10.0544 -2.5871 0.2315 0 8
4.0411 10.0913 -2.5871 0.2315 0 8
3.9496 10.1275 -2.5871 0.2315 0 8
3.8578 10.1628 -2.5871 0.2315 0 8
3.7657 10.1973 -2.5871 0.2315 0 8
3.6733 10.2309 -2.5871 0.2315 0 8
3.5806 10.2637 -2.5871 0.2315 0 8
3.4876 10.2957 -2.5871 0.2315 0 8
10.4592 0.0000 -2.7395 0.2534 0 6
10.4587 0.0946 -2.7395 0.2534 0 7
10.4575 0.1893 -2.7395 0.2534 0 7
10.4553 0.2838 -2.7395 0.2534 0 7
10.4523 0.3784 -2.7395 0.2534 0 7
10.4484 0.4730 -2.7395 0.2534 0 7
10.4438 0.5675 -2.7395 0.2534 0 7
10.4382 0.6620 -2.7395 0.2534 0 7
10.4318 0.7564 -2.7395 0.2534 0 7
10.4245 0.8507 -2.7395 0.2534 0 7
10.4164 0.9450 -2.7395 0.2534 0 7
10.4074 1.0392 -2.7395 0.2534 0 7
10.3976 1.1333 -2.7395 0.2534 0 7
10.3869 1.2273 -2.7395 0.2534 0 7
10.3754 1.3213 -2.7395 0.2534 0 7
10.3630 1.4151 -2.7395 0.2534 0 7
10.3498 1.5088 -2.7395 0.2534 0 7
10.3357 1.6023 -2.7395 0.2534 0 7
10.3208 1.6958 -2.7395 0.2534 0 7
10.3050 1.7891 -2.7395 0.2534 0 7
10.2884 1.8822 -2.7395 0.2534 0 7
10.2709 1.9752 -2.7395 0.2534 0 7
10.2527 2.0681 -2.7395 0.2534 0 7
10.2335 2.1608 -2.7395 0.2534 0 7
10.2136 2.2533 -2.7395 0.2534 0 7
10.1928 2.3456 -2.7395 0.2534 0 7
10.1711 2.4377 -2.7395 0.2534 0 7
10.1486 2.5296 -2.7395 0.2534 0 7
10.1253 2.6213 -2.7395 0.2534 0 7
10.1012 2.7128 -2.7395 0.2534 0 7
10.0763 2.8041 -2.7395 0.2534 0 7
10.0505 2.8951 -2.7395 0.2534 0 7
10.0239 2.9860 -2.7395 0.2534 0 7
9.9965 3.0765 -2.7395 0.2534 0 7
9.9682 3.1668 -2.7395 0.2534 0 7
9.9392 3.2569 -2.7395 0.2534 0 7
9.9093 3.3467 -2.7395 0.2534 0 7
9.8786 3.4362 -2.7395 0.2534 0 7
9.8471 3.5254 -2.7395 0.2534 0 6
9.8148 3.6144 -2.7395 0.2534 0 6
9.7817 3.7030 -2.7395 0.2534 0 7
9.7478 3.7914 -2.7395 0.2534 0 7
9.7131 3.8794 -2.7395 0.2534 0 7
9.6776 3.9671 -2.7395 0.2534 0 7
9.6413 4.0545 -2.7395 0.2534 0 7
9.6043 4.1416 -2.7395 0.2534 0 7
9.5664 4.2283 -2.7395 0.2534 0 7
9.5277 4.3147 -2.7395 0.2534 0 7
9.4883 4.4007 -2.7395 0.2534 0 7
9.4481 4.4864 -2.7395 0.2534 0 7
9.4071 4.5717 -2.7395 0.2534 0 7
9.3654 4.6566 -2.7395 0.2534 0 7
9.3229 4.7411 -2.7395 0.2534 0 7
9.2796 4.8253 -2.7395 0.2534 0 7
9.2356 4.9090 -2.7395 0.2534 0 7
9.1908 4.9924 -2.7395 0.2534 0 7
9.1452 5.0753 -2.7395 0.2534 0 7
9.0989 5.1578 -2.7395 0.2534 0 7
9.0519 5.2400 -2.7395 0.2534 0 7
9.0041 5.3216 -2.7395 0.2534 0 7
8.9556 5.4029 -2.7395 0.2534 0 7
8.9064 5.4837 -2.7395 0.2534 0 7
8.8564 5.5640 -2.7395 0.2534 0 7
8.8057 5.6439 -2.7395 0.2534 0 7
8.7543 5.7234 -2.7395 0.2534 0 7
8.7021 5.8023 -2.7395 0.2534 0 7
8.6493 5.8808 -2.7395 0.2534 0 7
8.5957 5.9588 -2.7395 0.2534 0 7
8.5415 6.0364 -2.7395 0.2534 0 7
8.4865 6.1134 -2.7395 0.2534 0 7
8.4308 6.1899 -2.7395 0.2534 0 7
8.3745 6.2659 -2.7395 0.2534 0 7
8.3175 6.3415 -2.7395 0.2534 0 7
8.2597 6.4164 -2.7395 0.2534 0 7
8.2014 6.4909 -2.7395 0.2534 0 7
8.1423 6.5648 -2.7395 0.2534 0 6
8.0826 6.6382 -2.7395 0.2534 0 6
8.0222 6.7111 -2.7395 0.2534 0 7
7.9611 6.7834 -2.7395 0.2534 0 7
7.8994 6.8551 -2.7395 0.2534 0 7
7.8371 6.9263 -2.7395 0.2534 0 7
7.7741 6.9970 -2.7395 0.2534 0 7
7.7105 7.0670 -2.7395 0.2534 0 7
7.6462 7.1365 -2.7395 0.2534 0 7
7.5814 7.2054 -2.7395 0.2534 0 7
7.5159 7.2737 -2.7395 0.2534 0 7
7.4497 7.3413 -2.7395 0.2534 0 7
7.3830 7.4084 -2.7395 0.2534 0 7
7.3157 7.4749 -2.7395 0.2534 0 7
7.2478 7.5408 -2.7395 0.2534 0 7
7.1792 7.6061 -2.7395 0.2534 0 7
7.1101 7.6707 -2.7395 0.2534 0 7
7.0404 7.7347 -2.7395 0.2534 0 7
6.9702 7.7981 -2.7395 0.2534 0 7
6.8993 7.8608 -2.7395 0.2534 0 7
6.8280 7.9230 -2.7395 0.2534 0 7
6.7560 7.9844 -2.7395 0.2534 0 7
6.6835 8.0452 -2.7395 0.2534 0 7
6.6084 8.1029 -2.7387 0.2593 0 8
6.5313 8.1580 -2.7372 0.2594 0 8
6.4538 8.2124 -2.7358 0.2595 0 8
6.3759 8.2661 -2.7343 0.2597 0 8
6.2975 8.3190 -2.7329 0.2598 0 8
6.1847 8.3254 -2.7165 0.4290 0 8
5.9992 8.2302 -2.6676 0.4368 0 8
5.8202 8.1383 -2.6206 0.4447 0 8
5.6728 8.0858 -2.5871 0.2534 0 8
5.5994 8.1368 -2.5871 0.2534 0 8
5.5256 8.1872 -2.5871 0.2534 0 8
5.4513 8.2368 -2.5871 0.2534 0 8
5.3765 8.2858 -2.5871 0.2534 0 8
5.3013 8.3341 -2.5871 0.2534 0 8
5.2257 8.3817 -2.5871 0.2534 0 8
5.1497 8.4287 -2.5871 0.2534 0 8
5.0732 8.4749 -2.5871 0.2534 0 8
4.9963 8.5205 -2.5871 0.2534 0 8
4.9190 8.5653 -2.5871 0.2534 0 8
4.8413 8.6095 -2.5871 0.2534 0 8
4.7633 8.6529 -2.5871 0.2534 0 8
4.6848 8.6956 -2.5871 0.2534 0 8
4.6059 8.7377 -2.5871 0.2534 0 8
4.5267 8.7790 -2.5871 0.2534 0 8
4.4471 8.8196 -2.5871 0.2534 0 8
4.3671 8.8595 -2.5871 0.2534 0 8
4.2868 8.8986 -2.5871 0.2534 0 8
4.2061 8.9370 -2.5871 0.2534 0 8
4.1250 8.9747 -2.5871 0.2534 0 8
4.0437 9.0117 -2.5871 0.2534 0 8
3.9620 9.0479 -2.5871 0.2534 0 8
3.8800 9.0834 -2.5871 0.2534 0 8
3.7976 9.1181 -2.5871 0.2534 0 8
3.7150 9.1521 -2.5871 0.2534 0 8
3.6320 9.1853 -2.5871 0.2534 0 8
3.5488 9.2178 -2.5871 0.2534 0 8
3.4652 9.2495 -2.5871 0.2534 0 8
3.3814 9.2805 -2.5871 0.2534 0 8
3.2973 9.3107 -2.5871 0.2534 0 8
3.2130 9.3402 -2.5871 0.2534 0 8
3.1283 9.3688 -2.5871 0.2534 0 8
3.0434 9.3968 -2.5871 0.2534 0 8
2.9583 9.4239 -2.5871 0.2534 0 8
2.8729 9.4503 -2.5871 0.2534 0 8
2.7873 9.4759 -2.5871 0.2534 0 8
2.7015 9.5007 -2.5871 0.2534 0 8
2.6154 9.5248 -2.5871 0.2534 0 8
2.5291 9.5480 -2.5871 0.2534 0 8
2.4426 9.5705 -2.5871 0.2534 0 8
2.3559 9.5922 -2.5871 0.2534 0 8
2.2691 9.6132 -2.5871 0.2534 0 8
2.1820 9.6333 -2.5871 0.2534 0 8
2.0948 9.6526 -2.5871 0.2534 0 8
2.0073 9.6712 -2.5871 0.2534 0 8
1.9198 9.6890 -2.5871 0.2534 0 8
1.8320 9.7059 -2.5871 0.2534 0 8
1.7441 9.7221 -2.5871 0.2534 0 8
1.6561 9.7375 -2.5871 0.2534 0 8
1.5679 9.7521 -2.5871 0.2534 0 8
1.4796 9.7659 -2.5871 0.2534 0 8
1.3912 9.7789 -2.5871 0.2534 0 8
1.3027 9.7910 -2.5871 0.2534 0 8
1.2141 9.8024 -2.5871 0.2534 0 8
1.1253 9.8130 -2.5871 0.2534 0 8
1.0365 9.8228 -2.5871 0.2534 0 8
0.9476 9.8317 -2.5871 0.2534 0 8
0.8586 9.8399 -2.5871 0.2534 0 8
0.7696 9.8473 -2.5871 0.2534 0 8
0.6804 9.8538 -2.5871 0.2534 0 8
0.5913 9.8596 -2.5871 0.2534 0 8
0.5020 9.8646 -2.5871 0.2534 0 8
0.4128 9.8687 -2.5871 0.2534 0 8
0.3234 9.8720 -2.5871 0.2534 0 8
0.2341 9.8745 -2.5871 0.2534 0 8
0.1448 9.8763 -2.5871 0.2534 0 8
0.0554 9.8772 -2.5871 0.2534 0 8
-0.0339 9.8773 -2.5871 0.2534 0 8
-0.1233 9.8766 -2.5871 0.2534 0 8
-0.2126 9.8750 -2.5871 0.2534 0 8
-0.3020 9.8727 -2.5871 0.2534 0 8
-0.3913 9.8696 -2.5871 0.2534 0 8
-0.4806 9.8656 -2.5871 0.2534 0 8
-0.5698 9.8609 -2.5871 0.2534 0 8
-0.6590 9.8553 -2.5871 0.2534 0 8
-0.7481 9.8490 -2.5871 0.2534 0 8
-0.8372 9.8418 -2.5871 0.2534 0 8
-0.9262 9.8338 -2.5871 0.2534 0 8
-1.0152 9.8250 -2.5871 0.2534 0 8
-1.1040 9.8154 -2.5871 0.2534 0 8
-1.1928 9.8050 -2.5871 0.2534 0 8
-1.2814 9.7938 -2.5871 0.2534 0 8
-1.3700 9.7819 -2.5871 0.2534 0 8
-1.4584 9.7691 -2.5871 0.2534 0 8
-1.5467 9.7555 -2.5871 0.2534 0 8
-1.6349 9.7411 -2.5871 0.2534 0 8
-1.7230 9.7259 -2.5871 0.2534 0 8
-1.8109 9.7099 -2.5871 0.2534 0 8
-1.8987 9.6931 -2.5871 0.2534 0 8
-1.9863 9.6755 -2.5871 0.2534 0 8
-2.0738 9.6572 -2.5871 0.2534 0 8
-2.1611 9.6380 -2.5871 0.2534 0 8
-2.2481 9.6181 -2.5871 0.2534 0 8
-2.3351 9.5974 -2.5871 0.2534 0 8
-2.4218 9.5758 -2.5871 0.2534 0 8
-2.5083 9.5535 -2.5871 0.2534 0 8
-2.5947 9.5304 -2.5871 0.2534 0 8
-2.6808 9.5066 -2.5871 0.2534 0 8
-2.7667 9.4819 -2.5871 0.2534 0 8
-2.8524 9.4565 -2.5871 0.2534 0 8
-2.9378 9.4303 -2.5871 0.2534 0 8
-3.0230 9.4033 -2.5871 0.2534 0 8
-3.1079 9.3756 -2.5871 0.2534 0 8
-3.1926 9.3471 -2.5871 0.2534 0 8
-3.2771 9.3178 -2.5871 0.2534 0 8
-3.3612 9.2878 -2.5871 0.2534 0 8
-3.4451 9.2570 -2.5871 0.2534 0 8
-3.5287 9.2254 -2.5871 0.2534 0 8
-3.6121 9.1932 -2.5871 0.2534 0 8
-3.6951 9.1601 -2.5871 0.2534 0 8
-3.7778 9.1263 -2.5871 0.2534 0 8
-3.8602 9.0917 -2.5871 0.2534 0 8
-3.9423 9.0564 -2.5871 0.2534 0 8
-4.0241 9.0204 -2.5871 0.2534 0 8
-4.1055 8.9837 -2.5871 0.2534 0 8
-4.1867 8.9461 -2.5871 0.2534 0 8
-4.2674 8.9079 -2.5871 0.2534 0 8
-4.3478 8.8689 -2.5871 0.2534 0 8
-4.4279 8.8292 -2.5871 0.2534 0 8
-3.1459 6.1338 -1.8056 0.3294 0 5
-3.1738 6.0527 -1.7901 0.9082 0 5
-3.2539 6.0713 -1.8042 0.3967 0 5
-4.7444 8.6633 -2.5871 0.2534 0 8
-4.8226 8.6200 -2.5871 0.2534 0 8
-4.9004 8.5760 -2.5871 0.2534 0 8
-4.9778 8.5313 -2.5871 0.2534 0 8
-5.0548 8.4859 -2.5871 0.2534 0 8
-5.1313 8.4398 -2.5871 0.2534 0 8
-5.2075 8.3931 -2.5871 0.2534 0 8
-5.2832 8.3456 -2.5871 0.2534 0 8
-5.3585 8.2975 -2.5871 0.2534 0 8
-5.4334 8.2486 -2.5871 0.2534 0 8
-5.5078 8.1991 -2.5871 0.2534 0 8
-5.5817 8.1490 -2.5871 0.2534 0 8
-5.6552 8.0982 -2.5871 0.2534 0 8
-5.7282 8.0467 -2.5871 0.2534 0 8
-5.8008 7.9945 -2.5871 0.2534 0 8
-5.8729 7.9417 -2.5871 0.2534 0 8
-5.9445 7.8882 -2.5871 0.2534 0 8
-6.0156 7.8342 -2.5871 0.2534 0 8
-6.0863 7.7794 -2.5871 0.2534 0 8
-6.1564 7.7240 -2.5871 0.2534 0 8
-6.2260 7.6680 -2.5871 0.2534 0 8
-6.2951 7.6114 -2.5871 0.2534 0 8
-6.3637 7.5541 -2.5871 0.2534 0 8
-6.4318 7.4962 -2.5871 0.2534 0 8
-6.4994 7.4377 -2.5871 0.2534 0 8
-6.9341 7.7917 -2.7320 0.2527 0 8
-7.0084 7.7332 -2.7336 0.2526 0 8
-7.0823 7.6740 -2.7352 0.2524 0 8
-7.1556 7.6141 -2.7368 0.2523 0 8
-7.2284 7.5535 -2.7384 0.2521 0 8
-7.2994 7.4908 -2.7395 0.2534 0 7
-7.3669 7.4245 -2.7395 0.2534 0 7
-7.4338 7.3575 -2.7395 0.2534 0 7
-7.5000 7.2900 -2.7395 0.2534 0 7
-7.5657 7.2218 -2.7395 0.2534 0 7
-7.6307 7.1531 -2.7395 0.2534 0 7
-7.6951 7.0837 -2.7395 0.2534 0 7
-7.7589 7.0138 -2.7395 0.2534 0 7
-7.8220 6.9433 -2.7395 0.2534 0 7
-7.8845 6.8723 -2.7395 0.2534 0 7
-7.9464 6.8007 -2.7395 0.2534 0 7
-8.0076 6.7285 -2.7395 0.2534 0 7
-8.0681 6.6558 -2.7395 0.2534 0 7
-8.1280 6.5825 -2.7395 0.2534 0 7
-8.1872 6.5087 -2.7395 0.2534 0 7
-8.2458 6.4344 -2.7395 0.2534 0 7
-8.3037 6.3595 -2.7395 0.2534 0 7
-8.3608 6.2841 -2.7395 0.2534 0 7
-8.4174 6.2082 -2.7395 0.2534 0 6
-8.4732 6.1318 -2.7395 0.2534 0 7
-8.5283 6.0549 -2.7395 0.2534 0 7
-8.5827 5.9775 -2.7395 0.2534 0 7
-8.6365 5.8996 -2.7395 0.2534 0 7
-8.6895 5.8212 -2.7395 0.2534 0 7
-8.7418 5.7424 -2.7395 0.2534 0 7
-8.7934 5.6631 -2.7395 0.2534 0 7
-8.8443 5.5833 -2.7395 0.2534 0 7
-8.8944 5.5030 -2.7395 0.2534 0 7
-8.9439 5.4223 -2.7395 0.2534 0 7
-8.9925 5.3412 -2.7395 0.2534 0 7
-9.0405 5.2596 -2.7395 0.2534 0 7
-9.0877 5.1776 -2.7395 0.2534 0 7
-9.1342 5.0952 -2.7395 0.2534 0 7
-9.1799 5.0123 -2.7395 0.2534 0 7
-9.2249 4.9291 -2.7395 0.2534 0 7
-9.2691 4.8454 -2.7395 0.2534 0 7
-9.3125 4.7613 -2.7395 0.2534 0 7
-9.3552 4.6769 -2.7395 0.2534 0 7
-9.3972 4.5921 -2.7395 0.2534 0 7
-9.4383 4.5069 -2.7395 0.2534 0 7
-9.4787 4.4213 -2.7395 0.2534 0 7
-9.5183 4.3354 -2.7395 0.2534 0 7
-9.5572 4.2491 -2.7395 0.2534 0 7
-9.5952 4.1624 -2.7395 0.2534 0 7
-9.6325 4.0754 -2.7395 0.2534 0 7
-9.6690 3.9881 -2.7395 0.2534 0 7
-9.7046 3.9005 -2.7395 0.2534 0 7
-9.7395 3.8125 -2.7395 0.2534 0 7
-9.7736 3.7243 -2.7395 0.2534 0 7
-9.8069 3.6357 -2.7395 0.2534 0 7
-9.8394 3.5468 -2.7395 0.2534 0 7
-9.8711 3.4577 -2.7395 0.2534 0 7
-9.9020 3.3682 -2.7395 0.2534 0 7
-9.9321 3.2785 -2.7395 0.2534 0 7
-9.9613 3.1885 -2.7395 0.2534 0 7
-9.9897 3.0982 -2.7395 0.2534 0 7
-10.0174 3.0077 -2.7395 0.2534 0 7
-10.0442 2.9170 -2.7395 0.2534 0 7
-10.0701 2.8260 -2.7395 0.2534 0 7
-10.0953 2.7348 -2.7395 0.2534 0 7
-10.1196 2.6433 -2.7395 0.2534 0 7
-10.1431 2.5517 -2.7395 0.2534 0 7
-10.1658 2.4598 -2.7395 0.2534 0 7
-10.1876 2.3677 -2.7395 0.2534 0 7
-10.2086 2.2754 -2.7395 0.2534 0 7
-10.2288 2.1830 -2.7395 0.2534 0 7
-10.2481 2.0904 -2.7395 0.2534 0 7
-10.2666 1.9976 -2.7395 0.2534 0 7
-10.2843 1.9046 -2.7395 0.2534 0 7
-10.3011 1.8115 -2.7395 0.2534 0 7
-10.3170 1.7182 -2.7395 0.2534 0 7
-10.3322 1.6248 -2.7395 0.2534 0 7
-10.3465 1.5312 -2.7395 0.2534 0 6
-10.3599 1.4376 -2.7395 0.2534 0 7
-10.3725 1.3438 -2.7395 0.2534 0 7
-10.3842 1.2499 -2.7395 0.2534 0 7
-10.3951 1.1559 -2.7395 0.2534 0 7
-10.4051 1.0618 -2.7395 0.2534 0 7
-10.4143 0.9676 -2.7395 0.2534 0 7
-10.4226 0.8734 -2.7395 0.2534 0 7
-10.4301 0.7790 -2.7395 0.2534 0 7
-10.4367 0.6846 -2.7395 0.2534 0 7
-10.4425 0.5902 -2.7395 0.2534 0 7
-10.4474 0.4957 -2.7395 0.2534 0 7
-10.4515 0.4012 -2.7395 0.2534 0 7
-10.4547 0.3066 -2.7395 0.2534 0 7
-10.4570 0.2120 -2.7395 0.2534 0 7
-10.4585 0.1173 -2.7395 0.2534 0 7
-10.4591 0.0227 -2.7395 0.2534 0 7
-10.4589 -0.0719 -2.7395 0.2534 0 7
-10.4579 -0.1665 -2.7395 0.2534 0 7
-10.4559 -0.2611 -2.7395 0.2534 0 7
-10.4531 -0.3557 -2.7395 0.2534 0 7
-10.4495 -0.4503 -2.7395 0.2534 0 7
-10.4450 -0.5448 -2.7395 0.2534 0 7
-10.4396 -0.6392 -2.7395 0.2534 0 7
-10.4334 -0.7337 -2.7395 0.2534 0 7
-10.4263 -0.8281 -2.7395 0.2534 0 7
-10.4184 -0.9223 -2.7395 0.2534 0 7
-10.4096 -1.0166 -2.7395 0.2534 0 7
-10.4000 -1.1107 -2.7395 0.2534 0 7
-10.3896 -1.2047 -2.7395 0.2534 0 7
-10.3782 -1.2987 -2.7395 0.2534 0 7
-10.3660 -1.3925 -2.7395 0.2534 0 7
-10.3530 -1.4862 -2.7395 0.2534 0 7
-10.3392 -1.5799 -2.7395 0.2534 0 7
-10.3244 -1.6733 -2.7395 0.2534 0 7
-10.3089 -1.7667 -2.7395 0.2534 0 7
-10.2925 -1.8599 -2.7395 0.2534 0 7
-10.2752 -1.9529 -2.7395 0.2534 0 7
-10.2571 -2.0458 -2.7395 0.2534 0 7
-10.2382 -2.1385 -2.7395 0.2534 0 7
-10.2184 -2.2311 -2.7395 0.2534 0 7
-10.1978 -2.3234 -2.7395 0.2534 0 7
-10.1764 -2.4156 -2.7395 0.2534 0 7
-10.1541 -2.5075 -2.7395 0.2534 0 7
-10.1310 -2.5993 -2.7395 0.2534 0 7
-10.1071 -2.6908 -2.7395 0.2534 0 7
-10.0823 -2.7822 -2.7395 0.2534 0 7
-10.0567 -2.8733 -2.7395 0.2534 0 7
-10.0303 -2.9642 -2.7395 0.2534 0 7
-10.0031 -3.0548 -2.7395 0.2534 0 7
-9.9751 -3.1452 -2.7395 0.2534 0 7
-9.9462 -3.2353 -2.7395 0.2534 0 7
-9.9165 -3.3251 -2.7395 0.2534 0 7
-9.8860 -3.4147 -2.7395 0.2534 0 7
-9.8547 -3.5040 -2.7395 0.2534 0 7
-9.8226 -3.5930 -2.7395 0.2534 0 7
-9.7897 -3.6817 -2.7395 0.2534 0 7
-9.7560 -3.7702 -2.7395 0.2534 0 7
-9.7215 -3.8583 -2.7395 0.2534 0 7
-9.6862 -3.9461 -2.7395 0.2534 0 7
-9.6501 -4.0335 -2.7395 0.2534 0 7
-9.6132 -4.1207 -2.7395 0.2534 0 7
-9.5755 -4.2075 -2.7395 0.2534 0 7
-9.5371 -4.2939 -2.7395 0.2534 0 7
-9.4979 -4.3801 -2.7395 0.2534 0 7
-9.4578 -4.4658 -2.7395 0.2534 0 7
-9.4171 -4.5512 -2.7395 0.2534 0 7
-9.3755 -4.6362 -2.7395 0.2534 0 7
-9.3332 -4.7208 -2.7395 0.2534 0 7
-9.2901 -4.8051 -2.7395 0.2534 0 7
-9.2462 -4.8889 -2.7395 0.2534 0 7
-9.2016 -4.9724 -2.7395 0.2534 0 7
-9.1562 -5.0554 -2.7395 0.2534 0 7
-9.1101 -5.1381 -2.7395 0.2534 0 7
-9.0633 -5.2203 -2.7395 0.2534 0 7
-9.0157 -5.3021 -2.7395 0.2534 0 7
-8.9673 -5.3834 -2.7395 0.2534 0 7
-8.9183 -5.4643 -2.7395 0.2534 0 7
-8.8685 -5.5448 -2.7395 0.2534 0 7
-8.8179 -5.6248 -2.7395 0.2534 0 7
-8.7667 -5.7043 -2.7395 0.2534 0 7
-8.7147 -5.7834 -2.7395 0.2534 0 7
-8.6620 -5.8620 -2.7395 0.2534 0 7
-8.6086 -5.9401 -2.7395 0.2534 0 7
-8.5545 -6.0178 -2.7395 0.2534 0 7
-8.4998 -6.0949 -2.7395 0.2534 0 7
-8.4442 -6.1716 -2.7395 0.2534 0 7
-8.3881 -6.2477 -2.7395 0.2534 0 7
-8.3312 -6.3233 -2.7395 0.2534 0 7
-8.2737 -6.3985 -2.7395 0.2534 0 7
-8.2154 -6.4731 -2.7395 0.2534 0 7
-8.1566 -6.5471 -2.7395 0.2534 0 7
-8.0970 -6.6206 -2.7395 0.2534 0 7
-8.0367 -6.6937 -2.7395 0.2534 0 7
-7.9758 -6.7661 -2.7395 0.2534 0 7
-7.9143 -6.8379 -2.7395 0.2534 0 7
-7.8521 -6.9093 -2.7395 0.2534 0 7
-7.7893 -6.9801 -2.7395 0.2534 0 7
-7.7258 -7.0502 -2.7395 0.2534 0 7
-7.6617 -7.1198 -2.7395 0.2534 0 7
-7.5970 -7.1889 -2.7395 0.2534 0 7
-7.5316 -7.2573 -2.7395 0.2534 0 7
-7.4657 -7.3252 -2.7395 0.2534 0 7
-7.3991 -7.3924 -2.7395 0.2534 0 7
-7.3319 -7.4590 -2.7395 0.2534 0 7
-7.2641 -7.5251 -2.7395 0.2534 0 7
-7.1958 -7.5905 -2.7395 0.2534 0 7
-7.1268 -7.6553 -2.7395 0.2534 0 7
-7.0573 -7.7194 -2.7395 0.2534 0 7
-6.9871 -7.7830 -2.7395 0.2534 0 7
-6.9164 -7.8458 -2.7395 0.2534 0 7
-6.8451 -7.9081 -2.7395 0.2534 0 7
-6.7733 -7.9697 -2.7395 0.2534 0 7
-6.7009 -8.0307 -2.7395 0.2534 0 7
-6.6280 -8.0909 -2.7395 0.2534 0 7
-6.5545 -8.1506 -2.7395 0.2534 0 7
-6.4805 -8.2096 -2.7395 0.2534 0 7
-6.4060 -8.2678 -2.7395 0.2534 0 7
-6.3309 -8.3255 -2.7395 0.2534 0 7
-6.2554 -8.3824 -2.7395 0.2534 0 7
-6.1793 -8.4387 -2.7395 0.2534 0 7
-6.1027 -8.4942 -2.7395 0.2534 0 7
-6.0256 -8.5491 -2.7395 0.2534 0 7
-5.9480 -8.6032 -2.7395 0.2534 0 7
-5.8699 -8.6567 -2.7395 0.2534 0 7
-5.7913 -8.7095 -2.7395 0.2534 0 7
-5.7123 -8.7615 -2.7395 0.2534 0 7
-5.6328 -8.8128 -2.7395 0.2534 0 7
-5.5528 -8.8634 -2.7395 0.2534 0 7
-5.4724 -8.9133 -2.7395 0.2534 0 7
-5.3916 -8.9624 -2.7395 0.2534 0 7
-5.3102 -9.0108 -2.7395 0.2534 0 7
-5.2285 -9.0585 -2.7395 0.2534 0 7
-5.1463 -9.1054 -2.7395 0.2534 0 7
-5.0637 -9.1516 -2.7395 0.2534 0 7
-4.9807 -9.1971 -2.7395 0.2534 0 7
-4.8974 -9.2418 -2.7395 0.2534 0 7
-4.8135 -9.2857 -2.7395 0.2534 0 7
-4.7293 -9.3289 -2.7395 0.2534 0 7
-4.6447 -9.3713 -2.7395 0.2534 0 7
-4.5598 -9.4129 -2.7395 0.2534 0 7
-4.4744 -9.4538 -2.7395 0.2534 0 7
-4.3887 -9.4939 -2.7395 0.2534 0 7
-4.3026 -9.5332 -2.7395 0.2534 0 7
-4.2162 -9.5717 -2.7395 0.2534 0 7
-4.1294 -9.6095 -2.7395 0.2534 0 6
-4.0423 -9.6464 -2.7395 0.2534 0 6
-3.9549 -9.6826 -2.7395 0.2534 0 7
-3.8671 -9.7180 -2.7395 0.2534 0 7
-3.7791 -9.7526 -2.7395 0.2534 0 7
-3.6906 -9.7864 -2.7395 0.2534 0 7
-3.6020 -9.8194 -2.7395 0.2534 0 7
-3.5130 -9.8516 -2.7395 0.2534 0 7
-3.4237 -9.8829 -2.7395 0.2534 0 7
-3.3342 -9.9135 -2.7395 0.2534 0 7
-3.2443 -9.9433 -2.7395 0.2534 0 7
-3.1542 -9.9722 -2.7395 0.2534 0 7
-3.0639 -10.0003 -2.7395 0.2534 0 7
-2.9733 -10.0276 -2.7395 0.2534 0 7
-2.8824 -10.0541 -2.7395 0.2534 0 7
-2.7914 -10.0798 -2.7395 0.2534 0 7
-2.7000 -10.1046 -2.7395 0.2534 0 7
-2.6085 -10.1287 -2.7395 0.2534 0 7
-2.5168 -10.1518 -2.7395 0.2534 0 7
-2.4248 -10.1742 -2.7395 0.2534 0 7
-2.3327 -10.1957 -2.7395 0.2534 0 7
-2.2404 -10.2164 -2.7395 0.2534 0 7
