ply
format ascii 1.0
element vertex 1340
property float32 x
property float32 y
property float32 z
property float32 CosAngle
property uint32 ObjIdx
property uint32 ObjTag
end_header
-7.5680 -27.3975 1.6822 0.3867 0 9
-7.2025 -27.0250 1.6553 0.4035 0 9
-7.0034 -27.2669 1.6662 0.2896 0 9
-6.6988 -27.0962 1.6520 0.2921 0 9
-5.6758 -25.9642 1.5730 0.1777 0 9
-5.0503 -24.1482 1.4601 0.6611 0 9
-4.8350 -24.2100 1.4612 0.6606 0 9
-4.6194 -24.2719 1.4623 0.6601 0 9
-4.4363 -24.5154 1.4745 0.2320 0 9
-4.3314 -25.2370 1.5155 0.1366 0 9
-4.3404 -26.7382 1.6032 0.6611 0 9
-4.1007 -26.7927 1.6042 0.6607 0 9
0.0534 -27.3479 1.6186 0.8450 0 5
20.6361 -25.4876 1.9409 0.4380 0 5
21.0521 -25.5257 1.9582 0.3032 0 3
21.4855 -25.5762 1.9770 0.6201 0 3
21.9514 -25.6557 1.9984 0.5700 0 3
22.8897 -18.9352 1.7582 0.5225 0 9
23.0165 -18.6919 1.7549 0.9980 0 9
23.7913 -6.7099 1.4630 0.9580 0 5
29.5239 20.3211 2.1213 0.6856 0 9
29.3658 20.6064 2.1232 0.9630 0 9
33.9987 9.4629 1.2921 0.6710 0 5
33.0727 9.5284 1.2601 0.6050 0 5
27.0586 13.7628 1.1114 0.3344 0 20
26.7238 13.8984 1.1028 0.4444 0 20
26.5748 14.1278 1.1019 0.4447 0 20
26.4262 14.3570 1.1011 0.4451 0 20
26.4591 14.6865 1.1079 0.6840 0 20
29.7828 20.2538 1.3187 0.6830 0 9
29.3985 20.3839 1.3097 0.9667 0 9
29.3714 20.7611 1.3169 0.2687 0 9
5.8005 13.2525 0.5296 0.5956 0 5
7.4713 23.0824 0.8883 0.9691 0 5
-5.6158 8.5198 0.3736 0.3486 0 5
-5.6994 8.4787 0.3740 0.4071 0 5
-22.8973 11.4357 0.9371 0.7710 0 5
-11.4011 -16.1965 0.7252 0.9977 0 5
-8.9776 -24.5223 0.9561 0.6321 0 9
-8.7455 -24.5749 0.9550 0.7048 0 9
-8.5530 -24.7403 0.9584 0.7023 0 9
-8.3558 -24.8973 0.9615 0.3811 0 9
-8.1479 -25.0261 0.9636 0.3803 0 9
-7.9390 -25.1556 0.9658 0.3794 0 9
-8.0639 -27.2608 1.0408 0.3974 0 9
-7.1699 -25.0704 0.9547 0.3171 0 9
-7.7401 -28.0208 1.0643 0.5656 0 9
-6.8386 -25.6595 0.9722 0.8849 0 9
-7.3472 -28.6055 1.0813 0.5952 0 9
-7.0639 -28.5731 1.0776 0.5972 0 9
-6.7825 -28.5408 1.0740 0.5992 0 9
-5.3821 -23.5954 0.8861 0.8914 0 9
-5.1718 -23.6586 0.8866 0.8908 0 9
-4.9612 -23.7220 0.8873 0.8901 0 9
-4.7501 -23.7848 0.8880 0.8838 0 9
-4.5386 -23.8472 0.8888 0.8831 0 9
-4.3267 -23.9096 0.8896 0.8822 0 9
-4.1143 -23.9723 0.8905 0.8813 0 9
-3.9274 -24.1943 0.8974 0.4581 0 9
-3.7682 -24.6202 0.9119 0.3687 0 9
-3.6084 -25.0918 0.9281 0.3622 0 9
0.0534 -27.3462 1.0012 0.8460 0 5
20.6337 -25.4846 1.2005 0.4385 0 5
22.9065 -18.9491 1.0884 0.5227 0 9
23.0198 -18.6945 1.0857 0.9989 0 9
23.1033 -17.7437 1.0665 0.5390 0 20
23.1410 -17.1159 1.0538 0.9858 0 20
23.2608 -16.8811 1.0523 0.9872 0 20
28.0820 -19.9946 1.2621 0.6663 0 5
22.3277 -15.5949 0.9971 0.1806 0 20
22.2398 -15.2360 0.9870 0.3183 0 20
22.3116 -14.9904 0.9841 0.4133 0 20
22.4360 -14.7811 0.9837 0.4572 0 20
22.9390 -14.8165 0.9998 0.1075 0 20
29.7660 -10.1684 1.1516 0.9107 0 5
30.6115 -10.1489 1.1807 0.8888 0 5
23.7900 -6.7095 0.9050 0.9591 0 5
31.5243 -0.3934 1.1543 0.4036 0 5
31.6923 -0.1087 1.1603 0.2442 0 5
34.0401 9.3486 1.2924 0.4985 0 5
33.2700 9.4617 1.2664 0.0755 0 5
27.1925 13.7137 1.1150 0.3333 0 20
26.8413 13.8426 1.1057 0.3361 0 20
26.6313 14.0408 1.1022 0.4446 0 20
26.4825 14.2701 1.1014 0.4450 0 20
26.4206 14.5468 1.1042 0.5806 0 20
26.5317 14.9224 1.1145 0.6799 0 20
29.4926 20.2996 1.3108 0.6871 0 9
29.3244 20.5773 1.3116 0.9653 0 9
27.8449 12.6117 0.4303 0.4742 0 20
27.5794 12.7935 0.4279 0.9632 0 20
27.3946 13.0103 0.4269 0.9656 0 20
26.9406 13.7029 0.4255 0.6946 0 20
29.3930 15.2866 0.4664 0.9491 0 20
29.3939 15.6265 0.4686 0.5360 0 20
28.0462 15.9011 0.4538 0.8893 0 20
28.0327 16.2304 0.4560 0.8851 0 20
29.7511 20.2322 0.5064 0.6841 0 9
29.3573 20.3553 0.5029 0.9686 0 9
29.2495 20.6749 0.5042 0.2700 0 9
5.7995 13.2502 0.2036 0.5961 0 5
7.4705 23.0800 0.3415 0.9697 0 5
-5.6141 8.5173 0.1436 0.3490 0 5
-5.6980 8.4765 0.1438 0.4075 0 5
-22.8944 11.4343 0.3602 0.7715 0 5
-11.3999 -16.1947 0.2788 0.9984 0 5
-7.3207 -25.5975 0.3748 0.9459 0 9
-6.8090 -25.5483 0.3722 0.9216 0 9
-6.6133 -25.7482 0.3742 0.8451 0 9
-6.2808 -25.4058 0.3684 0.7314 0 9
-4.9183 -23.5167 0.3382 0.9560 0 9
-4.7066 -23.5671 0.3383 0.9557 0 9
-4.4949 -23.6176 0.3384 0.9554 0 9
-4.2829 -23.6681 0.3386 0.9549 0 9
-4.0708 -23.7187 0.3388 0.9544 0 9
-3.8593 -23.7745 0.3390 0.8905 0 9
-3.6649 -23.9454 0.3410 0.4638 0 9
-3.4967 -24.3149 0.3458 0.4573 0 9
-0.6970 -5.1793 0.0736 0.9994 0 12
-0.6242 -4.9787 0.0706 0.9990 0 12
-0.5794 -4.9863 0.0707 0.9986 0 12
-0.5345 -4.9938 0.0707 0.9981 0 12
-0.4896 -5.0013 0.0707 0.9975 0 12
-0.4446 -5.0089 0.0708 0.9969 0 12
-0.3996 -5.0165 0.0708 0.9961 0 12
-0.3545 -5.0241 0.0709 0.9953 0 12
-0.3093 -5.0317 0.0710 0.9944 0 12
-0.2640 -5.0393 0.0710 0.9934 0 12
-0.2186 -5.0469 0.0711 0.9923 0 12
-0.1731 -5.0545 0.0712 0.9912 0 12
0.0533 -27.3432 0.3849 0.8465 0 5
20.6299 -25.4800 0.4615 0.4388 0 5
22.9233 -18.9629 0.4188 0.5226 0 9
23.0231 -18.6972 0.4175 0.9993 0 9
23.3861 -18.6434 0.4210 0.4604 0 9
23.1410 -17.1159 0.4052 0.9863 0 20
21.7730 -15.8014 0.3787 0.6318 0 20
21.6754 -15.4330 0.3745 0.6388 0 20
24.2912 -16.9664 0.4171 0.4163 0 20
22.0090 -14.7871 0.3732 0.7516 0 20
22.3200 -14.7046 0.3762 0.7456 0 20
22.6564 -14.6340 0.3797 0.7567 0 20
22.6121 -14.3171 0.3767 0.7626 0 20
22.6439 -14.0519 0.3751 0.9920 0 20
22.7923 -13.8598 0.3755 0.9910 0 20
22.9407 -13.6673 0.3759 0.9904 0 20
23.1839 -13.5295 0.3778 0.6187 0 20
23.5771 -13.4745 0.3823 0.6116 0 20
23.7876 -6.7088 0.3479 0.9597 0 5
33.6456 9.5685 0.4924 0.0799 0 5
28.0663 12.5961 0.4330 0.4712 0 20
27.6498 12.7110 0.4284 0.9623 0 20
27.4646 12.9282 0.4273 0.9647 0 20
30.4430 14.6682 0.4757 0.1351 0 20
27.0839 13.6589 0.4270 0.6921 0 20
26.7083 13.7741 0.4230 0.6986 0 20
29.3412 15.4696 0.4669 0.9480 0 20
29.5621 15.9296 0.4727 0.5367 0 20
28.0379 16.1052 0.4551 0.8867 0 20
29.4614 20.2781 0.5034 0.6882 0 9
29.2833 20.5485 0.5036 0.9673 0 9
27.9283 13.5748 -0.2622 0.9679 0 20
27.7473 13.7986 -0.2617 0.9702 0 20
27.5602 14.0180 -0.2611 0.9723 0 20
27.3739 14.2365 -0.2606 0.9744 0 20
27.4012 14.5672 -0.2621 0.2158 0 20
28.5053 15.4865 -0.2740 0.2070 0 20
29.7195 20.2107 -0.3035 0.6849 0 9
29.3162 20.3268 -0.3012 0.9700 0 9
29.1969 20.6378 -0.3020 0.9678 0 9
5.7985 13.2478 -0.1221 0.5962 0 5
7.4697 23.0774 -0.2049 0.9699 0 5
-5.6124 8.5147 -0.0861 0.3491 0 5
-5.6965 8.4743 -0.0862 0.4076 0 5
-22.8913 11.4327 -0.2161 0.7716 0 5
-11.3987 -16.1930 -0.1672 0.9985 0 5
-7.1058 -25.7244 -0.2254 0.7499 0 9
-6.8132 -25.5641 -0.2234 0.6494 0 9
-6.5356 -25.4457 -0.2219 0.7271 0 9
-0.6970 -5.1793 -0.0441 0.9994 0 12
-0.6242 -4.9787 -0.0424 0.9991 0 12
-0.5794 -4.9863 -0.0424 0.9987 0 12
-0.5345 -4.9938 -0.0424 0.9982 0 12
-0.4896 -5.0013 -0.0424 0.9976 0 12
-0.4446 -5.0089 -0.0425 0.9969 0 12
-0.3996 -5.0165 -0.0425 0.9962 0 12
-0.3545 -5.0241 -0.0425 0.9954 0 12
-0.3093 -5.0317 -0.0426 0.9944 0 12
-0.2640 -5.0393 -0.0426 0.9935 0 12
-0.2186 -5.0469 -0.0427 0.9924 0 12
-0.1731 -5.0545 -0.0427 0.9912 0 12
0.0533 -27.3398 -0.2309 0.8467 0 5
20.6249 -25.4739 -0.2768 0.4389 0 5
22.9401 -18.9768 -0.2514 0.5223 0 9
23.0264 -18.6999 -0.2505 0.9993 0 9
23.3491 -18.6139 -0.2522 0.4612 0 9
21.7730 -15.8014 -0.2272 0.6318 0 20
21.6754 -15.4330 -0.2247 0.6388 0 20
23.2060 -16.2084 -0.2391 0.4164 0 20
22.9001 -15.6884 -0.2344 0.4246 0 20
24.6954 -16.5920 -0.2513 0.4327 0 20
24.3859 -16.0657 -0.2466 0.4409 0 20
22.6564 -14.6340 -0.2278 0.7567 0 20
22.6121 -14.3171 -0.2260 0.7626 0 20
23.7850 -6.7081 -0.2087 0.9599 0 5
33.6458 9.5685 -0.2954 0.0800 0 5
27.8185 13.7151 -0.2619 0.9693 0 20
27.6311 13.9349 -0.2614 0.9715 0 20
27.4445 14.1537 -0.2608 0.9736 0 20
27.2517 14.3680 -0.2602 0.9756 0 20
28.1026 15.1431 -0.2696 0.2103 0 20
29.2209 16.0885 -0.2817 0.1680 0 20
29.4303 20.2567 -0.3017 0.6890 0 9
29.2422 20.5197 -0.3017 0.9687 0 9
27.9283 13.5748 -0.9619 0.9675 0 20
27.7473 13.7986 -0.9599 0.9697 0 20
27.5602 14.0180 -0.9578 0.9719 0 20
27.3739 14.2365 -0.9557 0.9740 0 20
27.4012 14.5671 -0.9613 0.2157 0 20
29.6879 20.1893 -1.1121 0.6853 0 9
29.2752 20.2984 -1.1035 0.9710 0 9
29.1560 20.6089 -1.1060 0.9688 0 9
5.7975 13.2455 -0.4479 0.5961 0 5
7.4689 23.0749 -0.7513 0.9695 0 5
-5.6107 8.5121 -0.3158 0.3490 0 5
-5.6950 8.4721 -0.3162 0.4075 0 5
-22.8881 11.4312 -0.7925 0.7714 0 5
-35.4408 -16.7571 -1.2143 0.4747 0 9
-33.1757 -16.0550 -1.1416 0.1777 0 9
-32.4051 -16.0456 -1.1201 0.4836 0 9
-31.5367 -15.9725 -1.0950 0.7744 0 9
-30.8598 -15.9822 -1.0765 0.7423 0 9
-30.4675 -16.1303 -1.0678 0.4567 0 9
-30.1540 -16.3154 -1.0620 0.5077 0 9
-29.8296 -16.4905 -1.0558 0.4530 0 9
-29.3631 -16.5812 -1.0445 0.3542 0 9
-28.8699 -16.6491 -1.0323 0.2942 0 9
-28.1398 -16.5691 -1.0115 0.7115 0 9
-27.7224 -16.6630 -1.0019 0.2032 0 9
-27.4272 -16.8253 -0.9967 0.7968 0 9
-27.1044 -16.9667 -0.9905 0.4117 0 9
-26.6461 -17.0173 -0.9793 0.6730 0 9
-26.0222 -16.9523 -0.9620 0.7020 0 9
-25.6114 -17.0168 -0.9525 0.6826 0 9
-25.0946 -17.0027 -0.9389 0.6751 0 9
-24.9853 -17.2605 -0.9406 0.1759 0 9
-24.5801 -17.3112 -0.9313 0.2225 0 9
-24.2984 -17.4439 -0.9265 0.8239 0 9
-23.7195 -17.3557 -0.9104 0.3035 0 9
-23.4549 -17.4901 -0.9063 0.3898 0 9
-23.1020 -17.5545 -0.8987 0.3591 0 9
-22.6640 -17.5474 -0.8879 0.6317 0 9
-22.3576 -17.6360 -0.8821 0.5854 0 9
-22.2582 -17.8867 -0.8845 0.5366 0 9
-22.0557 -18.0548 -0.8829 0.9082 0 9
-21.5834 -17.9969 -0.8705 0.7425 0 9
-21.1510 -17.9632 -0.8596 0.3722 0 9
-20.8194 -18.0084 -0.8527 0.4095 0 9
-20.3668 -17.9417 -0.8408 0.3166 0 9
-20.3106 -18.2212 -0.8452 0.4309 0 9
-19.7858 -18.0761 -0.8301 0.6969 0 9
-19.4350 -18.0810 -0.8222 0.4950 0 9
-19.3418 -18.3236 -0.8253 0.8798 0 9
-19.2652 -18.5846 -0.8292 0.8757 0 9
-18.7887 -18.4561 -0.8158 0.7039 0 9
-18.5401 -18.5445 -0.8123 0.6420 0 9
-18.1746 -18.5109 -0.8036 0.4032 0 9
-17.7424 -18.4009 -0.7918 0.5260 0 9
-17.6076 -18.5949 -0.7932 0.3081 0 9
-17.1704 -18.4649 -0.7810 0.5147 0 9
-17.0594 -18.6818 -0.7836 0.4236 0 9
-16.8218 -18.7597 -0.7805 0.9134 0 9
-16.6123 -18.8668 -0.7787 0.4474 0 9
-16.4887 -19.0715 -0.7809 0.8307 0 9
-16.0066 -18.8561 -0.7661 0.6554 0 9
-15.9078 -19.0872 -0.7696 0.6888 0 9
-15.5328 -18.9840 -0.7598 0.3933 0 9
-15.4066 -19.1813 -0.7621 0.8517 0 9
-15.0914 -19.1410 -0.7550 0.5632 0 9
-14.7879 -19.1093 -0.7485 0.2738 0 9
-14.4314 -19.0014 -0.7391 0.4364 0 9
-14.3519 -19.2560 -0.7439 0.9035 0 9
-14.1893 -19.4017 -0.7445 0.6846 0 9
-13.8001 -19.2324 -0.7332 0.3951 0 9
-11.3975 -16.1913 -0.6133 0.9982 0 5
-13.5269 -19.5907 -0.7374 0.1522 0 9
-13.2260 -19.5305 -0.7306 0.3633 0 9
-12.9435 -19.4909 -0.7247 0.5095 0 9
-12.6343 -19.4041 -0.7172 0.1059 0 9
-12.4939 -19.5734 -0.7193 0.6006 0 9
-12.2531 -19.5846 -0.7156 0.6037 0 9
-12.0762 -19.6962 -0.7157 0.1751 0 9
-11.7952 -19.6343 -0.7095 0.9221 0 9
-11.6014 -19.7137 -0.7085 0.9234 0 9
-11.4075 -19.7917 -0.7076 0.4085 0 9
-11.2020 -19.8482 -0.7060 0.8902 0 9
-10.9859 -19.8834 -0.7037 0.7020 0 9
-10.8576 -20.0783 -0.7070 0.3169 0 9
-10.8040 -20.4187 -0.7156 0.8616 0 9
-10.3523 -20.0007 -0.6976 0.5370 0 9
-10.1354 -20.0235 -0.6952 0.4806 0 9
-9.9667 -20.1403 -0.6961 0.9254 0 9
-9.7587 -20.1774 -0.6943 0.9337 0 9
-9.4672 -20.0351 -0.6864 0.6392 0 9
-9.2513 -20.0459 -0.6839 0.6416 0 9
-9.0530 -20.0919 -0.6826 0.9323 0 9
-8.7675 -19.9382 -0.6747 0.8989 0 9
-8.6436 -20.1492 -0.6791 0.3093 0 9
-8.4781 -20.2675 -0.6805 0.7323 0 9
-8.2033 -20.1202 -0.6730 0.2560 0 9
-8.1611 -20.5465 -0.6848 0.6084 0 9
-8.0570 -20.8318 -0.6919 0.3342 0 9
-7.6613 -20.3544 -0.6737 0.2923 0 9
-7.6046 -20.7719 -0.6852 0.3777 0 9
-7.4291 -20.8757 -0.6864 0.9103 0 9
-7.2205 -20.8858 -0.6845 0.7757 0 9
-7.0218 -20.9221 -0.6836 0.7767 0 9
-6.8234 -20.9580 -0.6827 0.7851 0 9
-6.6883 -21.1925 -0.6884 0.7991 0 9
-6.4781 -21.1929 -0.6864 0.8064 0 9
-6.3234 -21.3768 -0.6905 0.9051 0 9
-6.1210 -21.4026 -0.6895 0.7954 0 9
-5.8424 -21.1504 -0.6797 0.8246 0 9
-5.7179 -21.4545 -0.6878 0.4870 0 9
-5.6116 -21.8482 -0.6987 0.7156 0 9
-5.3428 -21.6113 -0.6896 0.1094 0 9
-5.1357 -21.6109 -0.6881 0.8098 0 9
-4.9096 -22.4591 -0.7121 0.9301 0 9
-4.6176 -22.0790 -0.6987 0.3572 0 9
-4.4655 -22.3596 -0.7063 0.4213 0 9
-4.2699 -22.4352 -0.7074 0.7158 0 9
-4.2107 -23.2687 -0.7325 0.7569 0 9
-3.9494 -23.0112 -0.7232 0.3740 0 9
-3.8501 -23.7180 -0.7443 0.3635 0 9
-3.6690 -23.9721 -0.7512 0.5934 0 9
-3.5406 -24.6208 -0.7705 0.7871 0 9
-0.6970 -5.1793 -0.1619 0.9990 0 12
-0.6242 -4.9787 -0.1554 0.9986 0 12
-0.5794 -4.9863 -0.1555 0.9982 0 12
-0.5345 -4.9938 -0.1556 0.9977 0 12
-0.4896 -5.0013 -0.1557 0.9971 0 12
-0.4446 -5.0089 -0.1558 0.9965 0 12
-0.3996 -5.0165 -0.1559 0.9957 0 12
-0.3545 -5.0241 -0.1560 0.9949 0 12
-0.3093 -5.0317 -0.1562 0.9940 0 12
-0.2640 -5.0393 -0.1563 0.9930 0 12
-0.2186 -5.0469 -0.1565 0.9919 0 12
-0.1731 -5.0545 -0.1567 0.9908 0 12
0.0533 -27.3364 -0.8467 0.8464 0 5
20.6200 -25.4677 -1.0150 0.4388 0 5
22.9569 -18.9907 -0.9229 0.5217 0 9
23.0297 -18.7026 -0.9190 0.9987 0 9
23.3123 -18.5846 -0.9235 0.4617 0 9
23.8211 -17.2877 -0.9117 0.3997 0 20
23.8474 -16.9795 -0.9068 0.9125 0 20
24.0985 -16.8318 -0.9105 0.9088 0 20
24.0879 -16.5021 -0.9044 0.4244 0 20
24.6520 -16.5628 -0.9199 0.4326 0 20
24.3429 -16.0374 -0.9030 0.4407 0 20
23.7823 -6.7074 -0.7654 0.9595 0 5
33.6457 9.5685 -1.0835 0.0799 0 5
27.8185 13.7151 -0.9607 0.9689 0 20
27.6311 13.9349 -0.9586 0.9711 0 20
27.4445 14.1537 -0.9565 0.9732 0 20
27.2517 14.3680 -0.9543 0.9752 0 20
29.3992 20.2353 -1.1055 0.6894 0 9
29.2013 20.4909 -1.1050 0.9696 0 9
31.3682 9.6554 -1.7571 0.2515 0 19
31.2509 9.9297 -1.7555 0.2720 0 19
31.2288 10.2347 -1.7594 0.1416 0 19
32.2428 13.9061 -1.8799 0.4668 0 19
31.9743 14.1348 -1.8716 0.0535 0 19
31.8451 14.4235 -1.8716 0.0535 0 19
31.7397 14.7233 -1.8732 0.8697 0 19
27.9283 13.5748 -1.6625 0.9666 0 20
27.7380 13.7940 -1.6585 0.9688 0 20
27.5509 14.0133 -1.6548 0.9710 0 20
27.3646 14.2317 -1.6513 0.9730 0 20
27.3934 14.5630 -1.6609 0.2155 0 20
28.4547 15.4591 -1.7337 0.2067 0 20
33.1425 19.1889 -2.0503 0.6234 0 19
32.7851 19.3802 -2.0389 0.8775 0 19
32.6467 19.6992 -2.0413 0.8833 0 19
29.6564 20.1678 -1.9201 0.6854 0 9
29.2343 20.2700 -1.9045 0.9714 0 9
29.1151 20.5800 -1.9088 0.9692 0 9
5.7964 13.2431 -0.7739 0.5956 0 5
7.4680 23.0724 -1.2983 0.9687 0 5
-5.6090 8.5095 -0.5456 0.3488 0 5
-5.6935 8.4699 -0.5464 0.4072 0 5
-27.9567 17.2824 -1.7596 0.9942 0 19
-22.8850 11.4296 -1.3695 0.7708 0 5
-35.8238 -16.5433 -2.1125 0.1715 0 1
-35.1329 -16.6116 -2.0806 0.0535 0 1
-33.0615 -15.9997 -1.9664 0.7441 0 9
-32.1702 -15.9293 -1.9219 0.6154 0 9
-31.6511 -16.0305 -1.8994 0.4001 0 9
-31.4257 -16.2753 -1.8947 0.4417 0 9
-30.4864 -16.1403 -1.8468 0.0469 0 9
-30.0787 -16.2746 -1.8309 0.7012 0 9
-29.7409 -16.4415 -1.8193 0.4460 0 9
-29.1977 -16.4879 -1.7952 0.6089 0 9
-28.5847 -16.4846 -1.7666 0.3550 0 9
-28.2232 -16.6182 -1.7535 0.5973 0 9
-27.6856 -16.6409 -1.7293 0.4662 0 9
-27.3850 -16.7994 -1.7200 0.4960 0 9
-26.9137 -16.8473 -1.6999 0.4405 0 9
-26.4464 -16.8898 -1.6800 0.3187 0 9
-26.0005 -16.9381 -1.6613 0.7030 0 9
-25.6100 -17.0158 -1.6461 0.3614 0 9
-25.0214 -16.9531 -1.6181 0.6832 0 9
-25.0188 -17.2837 -1.6280 0.6411 0 9
-24.6378 -17.3519 -1.6133 0.2229 0 9
-24.2656 -17.4203 -1.5992 0.3745 0 9
-23.7210 -17.3568 -1.5736 0.6325 0 9
-23.3786 -17.4332 -1.5613 0.2189 0 9
-23.0857 -17.5421 -1.5523 0.5379 0 9
-22.6078 -17.5038 -1.5307 0.6400 0 9
-22.3267 -17.6116 -1.5224 0.6360 0 9
-22.1231 -17.7781 -1.5194 0.5138 0 9
-21.7449 -17.8004 -1.5045 0.5443 0 9
-21.5248 -17.9480 -1.5004 0.7430 0 9
-21.0247 -17.8560 -1.4768 0.5981 0 9
-20.8430 -18.0288 -1.4754 0.6007 0 9
-20.4448 -18.0103 -1.4587 0.3216 0 9
-20.2860 -18.1991 -1.4590 0.4649 0 9
-19.7928 -18.0825 -1.4353 0.5624 0 9
-19.5960 -18.2308 -1.4329 0.2543 0 9
-19.2080 -18.1968 -1.4165 0.6203 0 9
-19.0932 -18.4188 -1.4203 0.0943 0 9
-18.6076 -18.2781 -1.3964 0.5011 0 9
-18.5289 -18.5333 -1.4030 0.3705 0 9
-18.0872 -18.4218 -1.3822 0.2903 0 9
-17.7415 -18.3999 -1.3684 0.5272 0 9
-17.5185 -18.5008 -1.3641 0.3517 0 9
-17.1524 -18.4456 -1.3485 0.5232 0 9
-17.0480 -18.6693 -1.3535 0.5307 0 9
-16.8062 -18.7423 -1.3477 0.6393 0 9
-16.4586 -18.6922 -1.3334 0.4193 0 9
-16.2363 -18.7796 -1.3291 0.4941 0 9
-15.8732 -18.6990 -1.3131 0.5277 0 9
-15.7359 -18.8810 -1.3159 0.2489 0 9
-15.3440 -18.7531 -1.2972 0.8135 0 9
-15.1945 -18.9172 -1.2990 0.8124 0 9
-14.9269 -18.9323 -1.2907 0.4417 0 9
-14.8889 -19.2397 -1.3024 0.4696 0 9
-14.4297 -18.9990 -1.2773 0.4450 0 9
-14.1988 -19.0505 -1.2720 0.4379 0 9
-14.0293 -19.1830 -1.2723 0.8041 0 9
-13.6563 -19.0321 -1.2541 0.4734 0 9
-11.3963 -16.1896 -1.0599 0.9973 0 5
-13.2514 -19.1916 -1.2486 0.2443 0 9
-13.0452 -19.2635 -1.2455 0.1014 0 9
-12.8691 -19.3788 -1.2454 0.2177 0 9
-12.5725 -19.3091 -1.2336 0.7959 0 9
-12.4265 -19.4679 -1.2365 0.7941 0 9
-12.1468 -19.4148 -1.2261 0.5618 0 9
-11.9644 -19.5138 -1.2254 0.4570 0 9
-11.7142 -19.4994 -1.2178 0.6783 0 9
-11.4468 -19.4510 -1.2083 0.3475 0 9
-11.3193 -19.6387 -1.2135 0.8530 0 9
-11.0251 -19.5348 -1.2009 0.4895 0 9
-10.8255 -19.5931 -1.1984 0.3166 0 9
-10.6038 -19.6090 -1.1935 0.6864 0 9
-10.4267 -19.7055 -1.1936 0.3119 0 9
-10.2550 -19.8127 -1.1944 0.2153 0 9
-10.0521 -19.8588 -1.1916 0.2158 0 9
-9.8146 -19.8329 -1.1847 0.7668 0 9
-9.6684 -19.9906 -1.1888 0.7641 0 9
-9.3871 -19.8655 -1.1763 0.5642 0 9
-9.2060 -19.9476 -1.1762 0.8416 0 9
-9.0002 -19.9749 -1.1729 0.7501 0 9
-8.7447 -19.8861 -1.1630 0.3418 0 9
-8.6217 -20.0981 -1.1708 0.8944 0 9
-8.4079 -20.0997 -1.1664 0.5624 0 9
-8.1506 -19.9908 -1.1558 0.2711 0 9
-7.9930 -20.1234 -1.1592 0.3391 0 9
-7.8128 -20.2004 -1.1595 0.6112 0 9
-7.6647 -20.3632 -1.1649 0.2440 0 9
-7.4969 -20.4777 -1.1675 0.1602 0 9
-7.2604 -20.4014 -1.1593 0.4703 0 9
-7.0912 -20.5118 -1.1619 0.4197 0 9
-7.0777 -21.0889 -1.1909 0.7977 0 9
-6.7280 -20.6649 -1.1635 0.5816 0 9
-6.5574 -20.7779 -1.1665 0.6365 0 9
-6.4062 -20.9575 -1.1732 0.4788 0 9
-6.2337 -21.0736 -1.1765 0.8418 0 9
-6.0488 -21.1502 -1.1777 0.4073 0 9
-5.8409 -21.1450 -1.1744 0.4085 0 9
-5.6670 -21.2636 -1.1781 0.4967 0 9
-5.5343 -21.5470 -1.1910 0.3402 0 9
-5.2962 -21.4229 -1.1815 0.1237 0 9
-5.1366 -21.6151 -1.1894 0.0967 0 9
-4.9882 -21.8683 -1.2008 0.3993 0 9
-4.7752 -21.8442 -1.1971 0.4005 0 9
-4.6297 -22.1370 -1.2108 0.9689 0 9
-4.4295 -22.1793 -1.2109 0.3545 0 9
-4.2567 -22.3659 -1.2189 0.9950 0 9
-4.1205 -22.7706 -1.2389 0.4613 0 9
-3.9193 -22.8358 -1.2404 0.6833 0 9
-3.7270 -22.9595 -1.2453 0.7602 0 9
-3.5887 -23.4473 -1.2699 0.6002 0 9
-3.4205 -23.7854 -1.2865 0.6617 0 9
-0.6970 -5.1793 -0.2798 0.9980 0 12
-0.6242 -4.9787 -0.2686 0.9977 0 12
-0.5794 -4.9863 -0.2687 0.9973 0 12
-0.5345 -4.9938 -0.2689 0.9968 0 12
-0.4896 -5.0013 -0.2690 0.9962 0 12
-0.4446 -5.0089 -0.2692 0.9955 0 12
-0.3996 -5.0165 -0.2694 0.9948 0 12
-0.3545 -5.0241 -0.2696 0.9940 0 12
-0.3093 -5.0317 -0.2699 0.9931 0 12
-0.2640 -5.0393 -0.2702 0.9921 0 12
-0.2186 -5.0469 -0.2704 0.9910 0 12
-0.1731 -5.0545 -0.2708 0.9899 0 12
0.0533 -27.3330 -1.4633 0.8457 0 5
20.6150 -25.4616 -1.7539 0.4385 0 5
20.9706 -23.2036 -1.6744 0.9784 0 19
22.9738 -19.0047 -1.5962 0.5208 0 9
23.0330 -18.7053 -1.5885 0.9976 0 9
23.2756 -18.5553 -1.5936 0.4620 0 9
23.8172 -17.2849 -1.5755 0.3993 0 20
23.5003 -16.7324 -1.5445 0.4075 0 20
23.1825 -16.1920 -1.5139 0.4158 0 20
23.0873 -15.8166 -1.4983 0.0535 0 20
23.2294 -15.6071 -1.4983 0.0535 0 20
23.3697 -15.3962 -1.4983 0.0535 0 20
23.3489 -15.0813 -1.4881 0.8923 0 20
23.0828 -14.6151 -1.4627 0.7670 0 20
23.7797 -6.7066 -1.3228 0.9587 0 5
33.6458 9.5686 -1.8727 0.0798 0 5
31.5514 9.5934 -1.7655 0.4504 0 19
31.2153 9.8006 -1.7516 0.2740 0 19
31.1675 10.0963 -1.7540 0.3788 0 19
32.5014 13.8855 -1.8922 0.4638 0 19
32.0226 14.0250 -1.8716 0.0535 0 19
31.8944 14.3141 -1.8716 0.0535 0 19
31.7635 14.6021 -1.8716 0.0535 0 19
31.8900 15.0113 -1.8870 0.5031 0 19
27.8092 13.7105 -1.6599 0.9680 0 20
27.6218 13.9302 -1.6562 0.9702 0 20
27.4352 14.1489 -1.6526 0.9723 0 20
27.2517 14.3680 -1.6493 0.9743 0 20
28.0237 15.1006 -1.7043 0.2101 0 20
29.1112 16.0282 -1.7791 0.2012 0 20
32.8845 19.2870 -2.0410 0.8767 0 19
32.6845 19.5693 -2.0395 0.8841 0 19
32.7048 19.9857 -2.0520 0.6413 0 19
29.3682 20.2140 -1.9087 0.6895 0 9
29.1604 20.4622 -1.9072 0.9700 0 9
29.3551 20.9979 -1.9323 0.2676 0 9
34.6897 0.0000 -2.6417 0.0700 0 8
34.6837 0.3139 -2.6414 0.0700 0 8
34.6747 0.6276 -2.6410 0.0700 0 8
34.6629 0.9412 -2.6407 0.0701 0 8
34.6480 1.2546 -2.6403 0.0701 0 8
34.6300 1.5679 -2.6399 0.0701 0 8
34.6089 1.8809 -2.6395 0.0701 0 8
34.5848 2.1936 -2.6390 0.0701 0 8
34.5577 2.5060 -2.6386 0.0701 0 8
34.5274 2.8181 -2.6381 0.0701 0 8
34.4942 3.1298 -2.6376 0.0701 0 8
34.4579 3.4412 -2.6371 0.0701 0 8
34.4185 3.7521 -2.6366 0.0702 0 8
34.3761 4.0625 -2.6361 0.0702 0 8
34.3307 4.3725 -2.6355 0.0702 0 8
34.2823 4.6819 -2.6349 0.0702 0 8
34.2308 4.9908 -2.6343 0.0702 0 8
34.1764 5.2991 -2.6337 0.0702 0 8
34.1189 5.6068 -2.6331 0.0703 0 8
34.0585 5.9139 -2.6325 0.0703 0 8
33.9950 6.2202 -2.6318 0.0703 0 8
33.9285 6.5259 -2.6311 0.0703 0 8
33.8589 6.8308 -2.6304 0.0704 0 8
33.7865 7.1349 -2.6297 0.0704 0 8
33.7113 7.4383 -2.6290 0.0704 0 8
33.6331 7.7408 -2.6282 0.0704 0 8
33.5520 8.0425 -2.6275 0.0704 0 8
33.4679 8.3433 -2.6267 0.0704 0 8
33.3810 8.6432 -2.6259 0.0705 0 8
33.2912 8.9422 -2.6251 0.0705 0 8
33.1985 9.2401 -2.6243 0.0705 0 8
33.1029 9.5371 -2.6234 0.0705 0 8
33.0044 9.8331 -2.6226 0.0705 0 8
31.7590 9.7757 -2.5305 0.7790 0 19
31.2437 9.9274 -2.4965 0.6153 0 19
31.4279 10.3000 -2.5186 0.9888 0 19
32.5825 11.0058 -2.6190 0.0707 0 8
32.4700 11.2962 -2.6180 0.0707 0 8
32.3547 11.5853 -2.6171 0.0707 0 8
32.2367 11.8733 -2.6161 0.0707 0 8
32.1159 12.1599 -2.6152 0.0708 0 8
32.0021 12.4491 -2.6150 0.0759 0 8
31.8882 12.7381 -2.6150 0.0759 0 8
31.7716 13.0262 -2.6150 0.0759 0 8
26.4953 11.1440 -2.1889 0.9970 0 19
26.4483 11.4070 -2.1935 0.1237 0 19
31.4064 13.8837 -2.6150 0.0759 0 8
31.2794 14.1673 -2.6150 0.0759 0 8
31.1500 14.4498 -2.6150 0.0759 0 8
26.2490 12.4662 -2.2129 0.5738 0 5
26.2113 12.7402 -2.2194 0.8146 0 5
27.7403 13.7951 -2.3593 0.9674 0 20
27.5533 14.0145 -2.3541 0.9696 0 20
27.3670 14.2329 -2.3491 0.9716 0 20
27.4218 14.5781 -2.3650 0.2152 0 20
28.0729 15.2517 -2.4330 0.8534 0 20
30.0233 16.6649 -2.6150 0.0759 0 8
29.8713 16.9359 -2.6150 0.0759 0 8
29.7168 17.2055 -2.6150 0.0759 0 8
29.5599 17.4736 -2.6150 0.0759 0 8
29.4006 17.7404 -2.6150 0.0759 0 8
29.2388 18.0057 -2.6150 0.0759 0 8
29.0747 18.2696 -2.6150 0.0759 0 8
28.9082 18.5319 -2.6150 0.0759 0 8
28.7394 18.7927 -2.6150 0.0759 0 8
28.5681 19.0520 -2.6150 0.0759 0 8
28.3946 19.3097 -2.6150 0.0759 0 8
28.2187 19.5658 -2.6150 0.0759 0 8
28.0405 19.8204 -2.6150 0.0759 0 8
27.8600 20.0733 -2.6150 0.0759 0 8
27.6772 20.3246 -2.6150 0.0759 0 8
27.4922 20.5742 -2.6150 0.0759 0 8
27.3049 20.8221 -2.6150 0.0759 0 8
27.2574 21.1787 -2.6287 0.6857 0 8
27.3232 21.6291 -2.6538 0.6792 0 8
27.3902 22.0882 -2.6796 0.6727 0 8
27.4586 22.5564 -2.7061 0.6661 0 8
27.5282 23.0339 -2.7334 0.6594 0 8
27.5840 23.5082 -2.7600 0.0869 0 8
27.4068 23.7887 -2.7637 0.0868 0 8
27.2268 24.0679 -2.7674 0.0759 0 7
27.0079 24.3132 -2.7674 0.0759 0 7
26.7868 24.5566 -2.7674 0.0759 0 7
26.5635 24.7980 -2.7674 0.0759 0 7
26.3380 25.0373 -2.7674 0.0759 0 7
26.1104 25.2746 -2.7674 0.0759 0 7
25.8806 25.5098 -2.7674 0.0759 0 7
25.6488 25.7430 -2.7674 0.0759 0 7
25.4148 25.9740 -2.7674 0.0759 0 7
25.1787 26.2029 -2.7674 0.0759 0 7
24.9406 26.4296 -2.7674 0.0759 0 7
24.7004 26.6542 -2.7674 0.0759 0 7
24.4582 26.8767 -2.7674 0.0759 0 7
24.2140 27.0969 -2.7674 0.0759 0 7
23.9678 27.3149 -2.7674 0.0759 0 7
23.7197 27.5306 -2.7674 0.0759 0 7
23.4696 27.7441 -2.7674 0.0759 0 7
23.2175 27.9554 -2.7674 0.0759 0 7
22.9637 28.1643 -2.7674 0.0759 0 7
22.7079 28.3709 -2.7674 0.0759 0 7
22.4503 28.5752 -2.7674 0.0759 0 7
22.1908 28.7772 -2.7674 0.0759 0 7
21.9295 28.9768 -2.7674 0.0759 0 7
21.6664 29.1741 -2.7674 0.0759 0 7
21.4015 29.3689 -2.7674 0.0759 0 7
21.1349 29.5614 -2.7674 0.0759 0 7
20.8666 29.7514 -2.7674 0.0759 0 7
20.5965 29.9390 -2.7674 0.0759 0 7
20.3248 30.1241 -2.7674 0.0759 0 7
20.0513 30.3068 -2.7674 0.0759 0 7
19.7763 30.4870 -2.7674 0.0759 0 7
19.4996 30.6647 -2.7674 0.0759 0 7
19.2213 30.8399 -2.7674 0.0759 0 7
18.9415 31.0126 -2.7674 0.0759 0 7
18.6601 31.1827 -2.7674 0.0759 0 7
18.3772 31.3502 -2.7674 0.0759 0 7
18.0928 31.5153 -2.7674 0.0759 0 7
17.8068 31.6777 -2.7674 0.0759 0 7
17.5195 31.8375 -2.7674 0.0759 0 7
17.2307 31.9947 -2.7674 0.0759 0 7
16.9405 32.1493 -2.7674 0.0759 0 7
16.6489 32.3013 -2.7674 0.0759 0 7
16.3559 32.4506 -2.7674 0.0759 0 7
16.0616 32.5973 -2.7674 0.0759 0 7
15.7660 32.7413 -2.7674 0.0759 0 7
15.4691 32.8826 -2.7674 0.0759 0 7
15.1710 33.0212 -2.7674 0.0759 0 7
14.8715 33.1571 -2.7674 0.0759 0 7
5.7954 13.2408 -1.1007 0.5949 0 5
14.2691 33.4208 -2.7674 0.0759 0 7
13.9661 33.5486 -2.7674 0.0759 0 7
13.6620 33.6736 -2.7674 0.0759 0 7
13.3567 33.7958 -2.7674 0.0759 0 7
13.0504 33.9153 -2.7674 0.0759 0 7
12.7429 34.0320 -2.7674 0.0759 0 7
12.4345 34.1459 -2.7674 0.0759 0 7
12.1250 34.2570 -2.7674 0.0759 0 7
11.8145 34.3653 -2.7674 0.0759 0 7
11.5031 34.4708 -2.7674 0.0759 0 7
7.4672 23.0699 -1.8466 0.9674 0 5
10.8774 34.6733 -2.7674 0.0759 0 7
10.5551 34.7437 -2.7652 0.0736 0 8
9.6838 32.9445 -2.6150 0.0759 0 8
9.3853 33.0308 -2.6150 0.0759 0 8
9.0860 33.1143 -2.6150 0.0759 0 8
8.7860 33.1952 -2.6150 0.0759 0 8
8.4853 33.2733 -2.6150 0.0759 0 8
8.1839 33.3488 -2.6150 0.0759 0 8
7.8818 33.4214 -2.6150 0.0759 0 8
7.5791 33.4914 -2.6150 0.0759 0 8
7.2757 33.5586 -2.6150 0.0759 0 8
6.9717 33.6231 -2.6150 0.0759 0 8
6.6672 33.6848 -2.6150 0.0759 0 8
6.3621 33.7437 -2.6150 0.0759 0 8
6.0565 33.7999 -2.6150 0.0759 0 8
5.7505 33.8533 -2.6150 0.0759 0 8
5.4439 33.9040 -2.6150 0.0759 0 8
5.1369 33.9518 -2.6150 0.0759 0 8
4.8295 33.9969 -2.6150 0.0759 0 8
4.5217 34.0392 -2.6150 0.0759 0 8
4.2135 34.0788 -2.6150 0.0759 0 8
3.9049 34.1155 -2.6150 0.0759 0 8
3.5961 34.1494 -2.6150 0.0759 0 8
3.2869 34.1806 -2.6150 0.0759 0 8
2.9775 34.2089 -2.6150 0.0759 0 8
2.6678 34.2345 -2.6150 0.0759 0 8
2.3580 34.2572 -2.6150 0.0759 0 8
2.0479 34.2771 -2.6150 0.0759 0 8
1.7377 34.2943 -2.6150 0.0759 0 8
1.4273 34.3086 -2.6150 0.0759 0 8
1.1168 34.3201 -2.6150 0.0759 0 8
0.8062 34.3288 -2.6150 0.0759 0 8
0.4955 34.3346 -2.6150 0.0759 0 8
0.1848 34.3377 -2.6150 0.0759 0 8
-0.1259 34.3380 -2.6150 0.0759 0 8
-0.4366 34.3354 -2.6150 0.0759 0 8
-0.7473 34.3301 -2.6150 0.0759 0 8
-1.0579 34.3220 -2.6150 0.0759 0 8
-1.3684 34.3110 -2.6150 0.0759 0 8
-1.6788 34.2972 -2.6150 0.0759 0 8
-1.9891 34.2806 -2.6150 0.0759 0 8
-2.2992 34.2612 -2.6150 0.0759 0 8
-2.6091 34.2390 -2.6150 0.0759 0 8
-2.9188 34.2140 -2.6150 0.0759 0 8
-3.2283 34.1862 -2.6150 0.0759 0 8
-3.5375 34.1555 -2.6150 0.0759 0 8
-3.8464 34.1221 -2.6150 0.0759 0 8
-4.1550 34.0859 -2.6150 0.0759 0 8
-4.4632 34.0469 -2.6150 0.0759 0 8
-4.7711 34.0052 -2.6150 0.0759 0 8
-5.0786 33.9606 -2.6150 0.0759 0 8
-5.3857 33.9133 -2.6150 0.0759 0 8
-5.6923 33.8631 -2.6150 0.0759 0 8
-5.9985 33.8102 -2.6150 0.0759 0 8
-6.3042 33.7546 -2.6150 0.0759 0 8
-6.6094 33.6962 -2.6150 0.0759 0 8
-6.9140 33.6350 -2.6150 0.0759 0 8
-7.2181 33.5710 -2.6150 0.0759 0 8
-7.5216 33.5044 -2.6150 0.0759 0 8
-7.8244 33.4349 -2.6150 0.0759 0 8
-8.1266 33.3628 -2.6150 0.0759 0 8
-8.4282 33.2879 -2.6150 0.0759 0 8
-8.7290 33.2102 -2.6150 0.0759 0 8
-9.0292 33.1299 -2.6150 0.0759 0 8
-9.3286 33.0468 -2.6150 0.0759 0 8
-9.6272 32.9611 -2.6150 0.0759 0 8
-9.9251 32.8726 -2.6150 0.0759 0 8
-10.2221 32.7814 -2.6150 0.0759 0 8
-10.5183 32.6876 -2.6150 0.0759 0 8
-10.8137 32.5911 -2.6150 0.0759 0 8
-11.1081 32.4919 -2.6150 0.0759 0 8
-11.4017 32.3901 -2.6150 0.0759 0 8
-11.6943 32.2856 -2.6150 0.0759 0 8
-11.9860 32.1784 -2.6150 0.0759 0 8
-12.2766 32.0687 -2.6150 0.0759 0 8
-12.5663 31.9563 -2.6150 0.0759 0 8
-12.8550 31.8413 -2.6150 0.0759 0 8
-13.1425 31.7236 -2.6150 0.0759 0 8
-13.4291 31.6034 -2.6150 0.0759 0 8
-13.7145 31.4806 -2.6150 0.0759 0 8
-13.9988 31.3552 -2.6150 0.0759 0 8
-14.2819 31.2273 -2.6150 0.0759 0 8
-14.5639 31.0968 -2.6150 0.0759 0 8
-14.8447 30.9637 -2.6150 0.0759 0 8
-15.1242 30.8281 -2.6150 0.0759 0 8
-15.4026 30.6900 -2.6150 0.0759 0 8
-15.6796 30.5494 -2.6150 0.0759 0 8
-15.9554 30.4063 -2.6150 0.0759 0 8
-16.2299 30.2606 -2.6150 0.0759 0 8
-16.5030 30.1125 -2.6150 0.0759 0 8
-16.7748 29.9620 -2.6150 0.0759 0 8
-17.0452 29.8090 -2.6150 0.0759 0 8
-17.3143 29.6535 -2.6150 0.0759 0 8
-17.5819 29.4956 -2.6150 0.0759 0 8
-17.8481 29.3353 -2.6150 0.0759 0 8
-18.1128 29.1726 -2.6150 0.0759 0 8
-18.3760 29.0075 -2.6150 0.0759 0 8
-18.6377 28.8401 -2.6150 0.0759 0 8
-5.6080 8.5080 -0.7760 0.9072 0 5
-5.6921 8.4677 -0.7770 0.4067 0 5
-19.4136 28.3236 -2.6150 0.0759 0 8
-19.6691 28.1467 -2.6150 0.0759 0 8
-19.9230 27.9676 -2.6150 0.0759 0 8
-20.1753 27.7862 -2.6150 0.0759 0 8
-20.4259 27.6025 -2.6150 0.0759 0 8
-20.6748 27.4165 -2.6150 0.0759 0 8
-20.9220 27.2284 -2.6150 0.0759 0 8
-21.1675 27.0379 -2.6150 0.0759 0 8
-21.4113 26.8453 -2.6150 0.0759 0 8
-21.6534 26.6504 -2.6150 0.0759 0 8
-21.8936 26.4534 -2.6150 0.0759 0 8
-22.1321 26.2542 -2.6150 0.0759 0 8
-22.3688 26.0529 -2.6150 0.0759 0 8
-22.6036 25.8494 -2.6150 0.0759 0 8
-22.8366 25.6438 -2.6150 0.0759 0 8
-23.0677 25.4361 -2.6150 0.0759 0 8
-23.2970 25.2265 -2.6150 0.0759 0 8
-23.5242 25.0145 -2.6150 0.0759 0 8
-23.7496 24.8007 -2.6150 0.0759 0 8
-23.9729 24.5846 -2.6150 0.0759 0 8
-24.1945 24.3668 -2.6150 0.0759 0 8
-24.4140 24.1469 -2.6150 0.0759 0 8
-24.6315 23.9250 -2.6150 0.0759 0 8
-24.8469 23.7011 -2.6150 0.0759 0 8
-25.0604 23.4754 -2.6150 0.0759 0 8
-25.2718 23.2476 -2.6150 0.0759 0 8
-25.4811 23.0180 -2.6150 0.0759 0 8
-25.6883 22.7865 -2.6150 0.0759 0 8
-25.8935 22.5531 -2.6150 0.0759 0 8
-26.0965 22.3179 -2.6150 0.0759 0 8
-26.2974 22.0808 -2.6150 0.0759 0 8
-26.4961 21.8420 -2.6150 0.0759 0 8
-26.6926 21.6013 -2.6150 0.0759 0 8
-26.8870 21.3589 -2.6150 0.0759 0 8
-27.0792 21.1148 -2.6150 0.0759 0 8
-27.2691 20.8689 -2.6150 0.0759 0 8
-27.4568 20.6213 -2.6150 0.0759 0 8
-27.6423 20.3720 -2.6150 0.0759 0 8
-27.8255 20.1210 -2.6150 0.0759 0 8
-28.0065 19.8685 -2.6150 0.0759 0 8
-28.1851 19.6142 -2.6150 0.0759 0 8
-28.3614 19.3584 -2.6150 0.0759 0 8
-28.5354 19.1009 -2.6150 0.0759 0 8
-28.7071 18.8420 -2.6150 0.0759 0 8
-28.8764 18.5814 -2.6150 0.0759 0 8
-29.0433 18.3194 -2.6150 0.0759 0 8
-29.2079 18.0558 -2.6150 0.0759 0 8
-29.3701 17.7908 -2.6150 0.0759 0 8
-29.5298 17.5243 -2.6150 0.0759 0 8
-29.6872 17.2564 -2.6150 0.0759 0 8
-29.8421 16.9871 -2.6150 0.0759 0 8
-29.9947 16.7163 -2.6150 0.0759 0 8
-30.1447 16.4442 -2.6150 0.0759 0 8
-30.2922 16.1708 -2.6150 0.0759 0 8
-30.4373 15.8961 -2.6150 0.0759 0 8
-30.5799 15.6200 -2.6150 0.0759 0 8
-22.8151 11.3947 -1.9421 0.9559 0 5
-30.8576 15.0641 -2.6150 0.0759 0 8
-30.9926 14.7842 -2.6150 0.0759 0 8
-31.1251 14.5032 -2.6150 0.0759 0 8
-31.2550 14.2210 -2.6150 0.0759 0 8
-31.3825 13.9376 -2.6150 0.0759 0 8
-33.3435 14.4487 -2.7674 0.0759 0 7
-33.4729 14.1464 -2.7674 0.0759 0 7
-33.5995 13.8430 -2.7674 0.0759 0 7
-33.7234 13.5384 -2.7674 0.0759 0 7
-33.8445 13.2327 -2.7674 0.0759 0 7
-33.9629 12.9259 -2.7674 0.0759 0 7
-34.0785 12.6180 -2.7674 0.0759 0 7
-34.1913 12.3092 -2.7674 0.0759 0 7
-34.3012 11.9993 -2.7674 0.0759 0 7
-34.4084 11.6884 -2.7674 0.0759 0 7
-34.5127 11.3766 -2.7674 0.0759 0 7
-34.6143 11.0639 -2.7674 0.0759 0 7
-34.7130 10.7502 -2.7674 0.0759 0 7
-34.8088 10.4356 -2.7674 0.0759 0 7
-34.9018 10.1202 -2.7674 0.0759 0 7
-34.9920 9.8040 -2.7674 0.0759 0 7
-35.0793 9.4870 -2.7674 0.0759 0 7
-35.1637 9.1692 -2.7674 0.0759 0 7
-35.2452 8.8506 -2.7674 0.0759 0 7
-35.3238 8.5314 -2.7674 0.0759 0 7
-35.3996 8.2114 -2.7674 0.0759 0 7
-35.4724 7.8907 -2.7674 0.0759 0 7
-35.5424 7.5694 -2.7674 0.0759 0 7
-35.6094 7.2475 -2.7674 0.0759 0 7
-35.6735 6.9250 -2.7674 0.0759 0 7
-35.7347 6.6019 -2.7674 0.0759 0 7
-35.7930 6.2783 -2.7674 0.0759 0 7
-35.8484 5.9542 -2.7674 0.0759 0 7
-35.9008 5.6296 -2.7674 0.0759 0 7
-35.9502 5.3045 -2.7674 0.0759 0 7
-35.9968 4.9790 -2.7674 0.0759 0 7
-36.0403 4.6530 -2.7674 0.0759 0 7
-36.0810 4.3267 -2.7674 0.0759 0 7
-36.1186 4.0001 -2.7674 0.0759 0 7
-36.1533 3.6731 -2.7674 0.0759 0 7
-36.1851 3.3458 -2.7674 0.0759 0 7
-36.2139 3.0183 -2.7674 0.0759 0 7
-36.2397 2.6905 -2.7674 0.0759 0 7
-36.2626 2.3624 -2.7674 0.0759 0 7
-36.2825 2.0342 -2.7674 0.0759 0 7
-36.2994 1.7058 -2.7674 0.0759 0 7
-36.3134 1.3773 -2.7674 0.0759 0 7
-36.3243 1.0487 -2.7674 0.0759 0 7
-36.3323 0.7199 -2.7674 0.0759 0 7
-36.3374 0.3911 -2.7674 0.0759 0 7
-36.3394 0.0623 -2.7674 0.0759 0 7
-36.3385 -0.2665 -2.7674 0.0759 0 7
-36.3346 -0.5953 -2.7674 0.0759 0 7
-36.3277 -0.9240 -2.7674 0.0759 0 7
-36.3179 -1.2527 -2.7674 0.0759 0 7
-36.3051 -1.5813 -2.7674 0.0759 0 7
-36.2893 -1.9097 -2.7674 0.0759 0 7
-36.2705 -2.2380 -2.7674 0.0759 0 7
-36.2488 -2.5661 -2.7674 0.0759 0 7
-36.2241 -2.8940 -2.7674 0.0759 0 7
-36.1964 -3.2216 -2.7674 0.0759 0 7
-36.1658 -3.5490 -2.7674 0.0759 0 7
-36.1321 -3.8761 -2.7674 0.0759 0 7
-36.0956 -4.2029 -2.7674 0.0759 0 7
-36.0561 -4.5294 -2.7674 0.0759 0 7
-36.0136 -4.8554 -2.7674 0.0759 0 7
-35.9682 -5.1811 -2.7674 0.0759 0 7
-35.9199 -5.5064 -2.7674 0.0759 0 7
-35.8686 -5.8312 -2.7674 0.0759 0 7
-35.8143 -6.1555 -2.7674 0.0759 0 7
-35.7572 -6.4793 -2.7674 0.0759 0 7
-35.6971 -6.8026 -2.7674 0.0759 0 7
-35.6341 -7.1253 -2.7674 0.0759 0 7
-35.5681 -7.4474 -2.7674 0.0759 0 7
-35.4993 -7.7690 -2.7674 0.0759 0 7
-35.4275 -8.0899 -2.7674 0.0759 0 7
-35.3529 -8.4101 -2.7674 0.0759 0 7
-35.2754 -8.7296 -2.7674 0.0759 0 7
-35.1949 -9.0485 -2.7674 0.0759 0 7
-35.1116 -9.3666 -2.7674 0.0759 0 7
-35.0254 -9.6839 -2.7674 0.0759 0 7
-34.9363 -10.0004 -2.7674 0.0759 0 7
-34.8444 -10.3161 -2.7674 0.0759 0 7
-34.7497 -10.6310 -2.7674 0.0759 0 7
-34.6520 -10.9450 -2.7674 0.0759 0 7
-34.5516 -11.2581 -2.7674 0.0759 0 7
-34.4483 -11.5703 -2.7674 0.0759 0 7
-34.3058 -11.8689 -2.7644 0.0801 0 8
-34.0876 -12.1399 -2.7556 0.3583 0 8
-33.2575 -12.1845 -2.6973 0.4540 0 8
-32.5925 -12.2765 -2.6523 0.5036 0 8
-32.0234 -12.3941 -2.6150 0.0759 0 8
-31.9100 -12.6834 -2.6150 0.0759 0 8
-31.7939 -12.9716 -2.6150 0.0759 0 8
-31.0603 -13.0014 -2.5642 0.5348 0 5
-31.5539 -13.5448 -2.6150 0.0759 0 8
-31.4301 -13.8298 -2.6150 0.0759 0 8
-31.3037 -14.1136 -2.6150 0.0759 0 8
-31.1747 -14.3963 -2.6150 0.0759 0 8
-31.0431 -14.6778 -2.6150 0.0759 0 8
-30.9091 -14.9581 -2.6150 0.0759 0 8
-30.7725 -15.2372 -2.6150 0.0759 0 8
-30.6333 -15.5150 -2.6150 0.0759 0 8
-30.4917 -15.7915 -2.6150 0.0759 0 8
-30.0569 -15.9129 -2.5899 0.6091 0 1
-29.5662 -15.9973 -2.5600 0.6162 0 1
-29.0866 -16.0797 -2.5310 0.6233 0 1
-28.6177 -16.1603 -2.5028 0.6303 0 1
-28.1592 -16.2392 -2.4754 0.6373 0 1
-27.7105 -16.3163 -2.4489 0.6442 0 1
-27.2713 -16.3918 -2.4231 0.6511 0 1
-26.8412 -16.4658 -2.3980 0.6579 0 1
-26.4199 -16.5382 -2.3736 0.6646 0 1
-26.0070 -16.6092 -2.3499 0.6713 0 1
-25.6023 -16.6788 -2.3269 0.6780 0 1
-25.2054 -16.7470 -2.3045 0.6845 0 1
-24.8160 -16.8139 -2.2827 0.6911 0 1
-24.4339 -16.8796 -2.2616 0.6976 0 1
-24.0588 -16.9441 -2.2409 0.7040 0 1
-23.6904 -17.0074 -2.2209 0.7103 0 1
-23.3286 -17.0697 -2.2013 0.7166 0 1
-22.9730 -17.1308 -2.1823 0.7229 0 1
-22.6235 -17.1909 -2.1638 0.7291 0 1
-22.2799 -17.2500 -2.1458 0.7352 0 1
-21.9419 -17.3081 -2.1282 0.7413 0 1
-21.6093 -17.3652 -2.1111 0.7473 0 1
-21.2820 -17.4215 -2.0945 0.7532 0 1
-20.9834 -17.4965 -2.0806 0.0759 0 1
-20.8242 -17.6857 -2.0806 0.0759 0 1
-21.1032 -18.2539 -2.1249 0.1425 0 9
-20.6065 -18.1528 -2.0913 0.3084 0 9
-20.1926 -18.1153 -2.0658 0.2770 0 9
-20.2093 -18.4631 -2.0846 0.9562 0 9
-19.6082 -18.2421 -2.0395 0.4569 0 9
-19.2970 -18.2811 -2.0243 0.9916 0 9
-19.1404 -18.4642 -2.0253 0.5265 0 9
-18.8195 -18.4863 -2.0089 0.2639 0 9
-18.3749 -18.3792 -1.9791 0.5690 0 9
-18.1653 -18.5014 -1.9745 0.5533 0 9
-17.9068 -18.5713 -1.9646 0.4052 0 9
-17.5720 -18.5572 -1.9462 0.4148 0 9
-17.3661 -18.6754 -1.9421 0.5236 0 9
-17.1190 -18.7470 -1.9333 0.5218 0 9
-16.8465 -18.7872 -1.9217 0.6379 0 9
-16.3220 -18.5371 -1.8809 0.4089 0 9
-16.2088 -18.7478 -1.8873 0.5066 0 9
-15.8868 -18.7151 -1.8695 0.4540 0 9
-15.6675 -18.7989 -1.8636 0.2214 0 9
-15.3316 -18.7380 -1.8437 0.4084 0 9
-15.1957 -18.9187 -1.8479 0.4143 0 9
-14.9986 -19.0233 -1.8448 0.4666 0 9
-14.7716 -19.0881 -1.8380 0.7079 0 9
-14.5030 -19.0956 -1.8260 0.5955 0 9
-14.2751 -19.1529 -1.8191 0.4838 0 9
-13.8552 -18.9450 -1.7874 0.2433 0 9
-13.6696 -19.0506 -1.7856 0.2435 0 9
-11.3951 -16.1879 -1.5076 0.9960 0 5
-13.2477 -19.1862 -1.7755 0.1044 0 9
-13.0385 -19.2536 -1.7708 0.1057 0 9
-12.9268 -19.4658 -1.7795 0.5470 0 9
-12.5660 -19.2991 -1.7538 0.5158 0 9
-12.3479 -19.3447 -1.7477 0.4277 0 9
-12.1152 -19.3643 -1.7395 0.4400 0 9
-11.9287 -19.4555 -1.7379 0.4404 0 9
-11.7248 -19.5171 -1.7339 0.5172 0 9
-11.4341 -19.4293 -1.7168 0.2274 0 9
-11.3233 -19.6455 -1.7268 0.6107 0 9
-11.0651 -19.6057 -1.7144 0.6135 0 9
-10.8223 -19.5874 -1.7042 0.0844 0 9
-10.6551 -19.7038 -1.7058 0.4635 0 9
-10.4853 -19.8164 -1.7073 0.2068 0 9
-10.2354 -19.7748 -1.6957 0.4780 0 9
-10.0623 -19.8791 -1.6967 0.4972 0 9
-9.7921 -19.7875 -1.6813 0.3579 0 9
-9.6046 -19.8586 -1.6799 0.3651 0 9
-9.3765 -19.8431 -1.6713 0.5507 0 9
-9.1818 -19.8952 -1.6686 0.5436 0 9
-8.9703 -19.9084 -1.6629 0.5455 0 9
-8.6980 -19.7801 -1.6455 0.2539 0 9
-8.5908 -20.0262 -1.6595 0.1801 0 9
-8.3690 -20.0067 -1.6515 0.1809 0 9
-8.1856 -20.0766 -1.6511 0.6006 0 9
-8.0423 -20.2473 -1.6591 0.6495 0 9
-7.8269 -20.2370 -1.6524 0.3326 0 9
-7.6417 -20.3024 -1.6520 0.1699 0 9
-7.4880 -20.4534 -1.6587 0.4775 0 9
-7.3022 -20.5189 -1.6586 0.5758 0 9
-7.0971 -20.5288 -1.6541 0.3616 0 9
-7.0486 -21.0023 -1.6871 0.8602 0 9
-6.7196 -20.6392 -1.6529 0.2865 0 9
-6.5801 -20.8499 -1.6650 0.4552 0 9
-6.3908 -20.9071 -1.6649 0.0851 0 9
-6.2208 -21.0298 -1.6701 0.2517 0 9
-6.1133 -21.3758 -1.6931 0.5958 0 9
-5.8421 -21.1495 -1.6709 0.0949 0 9
-5.6590 -21.2336 -1.6734 0.4837 0 9
-5.4844 -21.3530 -1.6789 0.0945 0 9
-5.3050 -21.4586 -1.6833 0.1321 0 9
-5.1225 -21.5555 -1.6872 0.3826 0 9
-4.9561 -21.7275 -1.6971 0.2943 0 9
-4.7883 -21.9041 -1.7075 0.5876 0 9
-4.5887 -21.9407 -1.7070 0.5611 0 9
-4.4340 -22.2020 -1.7241 0.7126 0 9
-4.2313 -22.2325 -1.7235 0.7129 0 9
-4.1213 -22.7749 -1.7625 0.4401 0 9
-3.9190 -22.8343 -1.7643 0.4355 0 9
-3.7355 -23.0117 -1.7754 0.7495 0 9
-3.5258 -23.0360 -1.7747 0.0791 0 9
-3.4419 -23.9345 -1.8414 0.4721 0 9
-0.6970 -5.1793 -0.3980 0.9966 0 12
-0.6242 -4.9787 -0.3821 0.9962 0 12
-0.5794 -4.9863 -0.3823 0.9958 0 12
-0.5345 -4.9938 -0.3825 0.9953 0 12
-0.4896 -5.0013 -0.3827 0.9947 0 12
-0.4446 -5.0089 -0.3829 0.9941 0 12
-0.3996 -5.0165 -0.3832 0.9933 0 12
-0.3545 -5.0241 -0.3835 0.9925 0 12
-0.3093 -5.0317 -0.3839 0.9916 0 12
-0.2640 -5.0393 -0.3843 0.9906 0 12
-0.2186 -5.0469 -0.3847 0.9896 0 12
-0.1731 -5.0545 -0.3851 0.9884 0 12
-0.8651 -34.3274 -2.6150 0.0759 0 8
-0.5862 -36.3024 -2.7649 0.0736 0 8
-0.2579 -36.3386 -2.7674 0.0759 0 7
0.0532 -27.2626 -2.0761 0.9853 0 5
0.3997 -36.3373 -2.7674 0.0759 0 7
0.7285 -36.3322 -2.7674 0.0759 0 7
1.0572 -36.3241 -2.7674 0.0759 0 7
1.3858 -36.3130 -2.7674 0.0759 0 7
1.7144 -36.2990 -2.7674 0.0759 0 7
2.0427 -36.2820 -2.7674 0.0759 0 7
2.3710 -36.2621 -2.7674 0.0759 0 7
2.6990 -36.2391 -2.7674 0.0759 0 7
3.0268 -36.2132 -2.7674 0.0759 0 7
3.3544 -36.1843 -2.7674 0.0759 0 7
3.6817 -36.1525 -2.7674 0.0759 0 7
4.0086 -36.1177 -2.7674 0.0759 0 7
4.3353 -36.0800 -2.7674 0.0759 0 7
4.6615 -36.0393 -2.7674 0.0759 0 7
4.9875 -35.9956 -2.7674 0.0759 0 7
5.3129 -35.9490 -2.7674 0.0759 0 7
5.6380 -35.8995 -2.7674 0.0759 0 7
5.9626 -35.8470 -2.7674 0.0759 0 7
6.2867 -35.7916 -2.7674 0.0759 0 7
6.6104 -35.7332 -2.7674 0.0759 0 7
6.9334 -35.6719 -2.7674 0.0759 0 7
7.2559 -35.6077 -2.7674 0.0759 0 7
7.5778 -35.5406 -2.7674 0.0759 0 7
7.8990 -35.4706 -2.7674 0.0759 0 7
8.2197 -35.3977 -2.7674 0.0759 0 7
8.5397 -35.3219 -2.7674 0.0759 0 7
8.8589 -35.2431 -2.7674 0.0759 0 7
9.1774 -35.1615 -2.7674 0.0759 0 7
9.4952 -35.0770 -2.7674 0.0759 0 7
9.8122 -34.9897 -2.7674 0.0759 0 7
10.1284 -34.8995 -2.7674 0.0759 0 7
10.4438 -34.8064 -2.7674 0.0759 0 7
10.7583 -34.7105 -2.7674 0.0759 0 7
11.0720 -34.6117 -2.7674 0.0759 0 7
11.3847 -34.5101 -2.7674 0.0759 0 7
11.6965 -34.4057 -2.7674 0.0759 0 7
12.0073 -34.2984 -2.7674 0.0759 0 7
12.3172 -34.1884 -2.7674 0.0759 0 7
12.6261 -34.0755 -2.7674 0.0759 0 7
12.9339 -33.9599 -2.7674 0.0759 0 7
13.2406 -33.8415 -2.7674 0.0759 0 7
13.5463 -33.7203 -2.7674 0.0759 0 7
13.8509 -33.5963 -2.7674 0.0759 0 7
14.1543 -33.4696 -2.7674 0.0759 0 7
14.4566 -33.3402 -2.7674 0.0759 0 7
14.7577 -33.2080 -2.7674 0.0759 0 7
15.0575 -33.0731 -2.7674 0.0759 0 7
15.3562 -32.9355 -2.7674 0.0759 0 7
15.6536 -32.7952 -2.7674 0.0759 0 7
15.9497 -32.6522 -2.7674 0.0759 0 7
16.2445 -32.5065 -2.7674 0.0759 0 7
16.5380 -32.3582 -2.7674 0.0759 0 7
16.8300 -32.2073 -2.7674 0.0759 0 7
17.1208 -32.0537 -2.7674 0.0759 0 7
17.4101 -31.8974 -2.7674 0.0759 0 7
17.6980 -31.7386 -2.7674 0.0759 0 7
17.9845 -31.5771 -2.7674 0.0759 0 7
18.2695 -31.4131 -2.7674 0.0759 0 7
18.5530 -31.2465 -2.7674 0.0759 0 7
18.8114 -31.0384 -2.7639 0.0868 0 8
19.0659 -30.8256 -2.7602 0.0869 0 8
19.1680 -30.3729 -2.7351 0.6590 0 8
19.2477 -29.8963 -2.7077 0.6657 0 8
19.3258 -29.4292 -2.6812 0.6723 0 8
19.4024 -28.9710 -2.6553 0.6788 0 8
19.4775 -28.5215 -2.6301 0.6853 0 8
19.6208 -28.1805 -2.6150 0.0759 0 8
19.8750 -28.0018 -2.6150 0.0759 0 8
20.1276 -27.8208 -2.6150 0.0759 0 8
20.3785 -27.6375 -2.6150 0.0759 0 8
20.6277 -27.4520 -2.6150 0.0759 0 8
20.8753 -27.2642 -2.6150 0.0759 0 8
21.1211 -27.0742 -2.6150 0.0759 0 8
21.3653 -26.8820 -2.6150 0.0759 0 8
20.5430 -25.3727 -2.4861 0.7497 0 5
21.8482 -26.4910 -2.6150 0.0759 0 8
22.0870 -26.2922 -2.6150 0.0759 0 8
22.3241 -26.0912 -2.6150 0.0759 0 8
22.5592 -25.8882 -2.6150 0.0759 0 8
22.7926 -25.6830 -2.6150 0.0759 0 8
23.0240 -25.4757 -2.6150 0.0759 0 8
23.2536 -25.2663 -2.6150 0.0759 0 8
23.4812 -25.0549 -2.6150 0.0759 0 8
23.7070 -24.8414 -2.6150 0.0759 0 8
23.9308 -24.6259 -2.6150 0.0759 0 8
24.1526 -24.4083 -2.6150 0.0759 0 8
24.3725 -24.1888 -2.6150 0.0759 0 8
24.5904 -23.9673 -2.6150 0.0759 0 8
24.8062 -23.7438 -2.6150 0.0759 0 8
25.0201 -23.5183 -2.6150 0.0759 0 8
25.2319 -23.2910 -2.6150 0.0759 0 8
25.4416 -23.0617 -2.6150 0.0759 0 8
25.6492 -22.8306 -2.6150 0.0759 0 8
22.2250 -19.4251 -2.2479 0.8631 0 9
22.2981 -19.1358 -2.2376 0.8675 0 9
22.3566 -18.8375 -2.2263 0.8719 0 9
22.4145 -18.5421 -2.2153 0.8763 0 9
22.4719 -18.2496 -2.2045 0.8806 0 9
22.5288 -17.9599 -2.1941 0.8848 0 9
22.6948 -17.7588 -2.1945 0.4518 0 9
23.2697 -17.8716 -2.2344 0.4437 0 9
23.8660 -17.9885 -2.2759 0.4356 0 9
24.4849 -18.1100 -2.3192 0.4275 0 9
23.8313 -17.2951 -2.2424 0.3987 0 20
23.2719 -16.5697 -2.1755 0.8563 0 20
23.1825 -16.1920 -2.1534 0.4152 0 20
22.8635 -15.6633 -2.1105 0.4234 0 20
22.8428 -15.3473 -2.0957 0.8989 0 20
23.0819 -15.2066 -2.1049 0.8950 0 20
23.3232 -15.0647 -2.1144 0.8909 0 20
23.5667 -14.9215 -2.1242 0.8869 0 20
29.3087 -18.1877 -2.6268 0.0704 0 8
29.4809 -17.9272 -2.6276 0.0704 0 8
29.6506 -17.6648 -2.6283 0.0703 0 8
29.8177 -17.4008 -2.6291 0.0703 0 8
29.9823 -17.1350 -2.6298 0.0703 0 8
30.1444 -16.8677 -2.6305 0.0703 0 8
30.3038 -16.5986 -2.6312 0.0703 0 8
30.4607 -16.3280 -2.6319 0.0702 0 8
30.6150 -16.0558 -2.6326 0.0702 0 8
30.7666 -15.7820 -2.6332 0.0702 0 8
30.9156 -15.5067 -2.6339 0.0702 0 8
31.0616 -15.2298 -2.6345 0.0702 0 8
31.2050 -14.9513 -2.6350 0.0701 0 8
31.3458 -14.6716 -2.6356 0.0702 0 8
31.4840 -14.3904 -2.6362 0.0701 0 8
31.6194 -14.1078 -2.6367 0.0701 0 8
31.7521 -13.8239 -2.6372 0.0701 0 8
31.8821 -13.5386 -2.6378 0.0701 0 8
32.0092 -13.2521 -2.6382 0.0701 0 8
32.1336 -12.9642 -2.6387 0.0701 0 8
32.2551 -12.6751 -2.6392 0.0701 0 8
32.3739 -12.3848 -2.6396 0.0700 0 8
32.4897 -12.0932 -2.6400 0.0700 0 8
32.6028 -11.8006 -2.6404 0.0700 0 8
32.7130 -11.5067 -2.6408 0.0700 0 8
32.8203 -11.2118 -2.6412 0.0700 0 8
30.3513 -10.0626 -2.4351 0.6239 0 5
33.0262 -10.6188 -2.6418 0.0700 0 8
33.1249 -10.3207 -2.6422 0.0700 0 8
33.2206 -10.0216 -2.6425 0.0700 0 8
33.3133 -9.7216 -2.6427 0.0700 0 8
23.7771 -6.7059 -1.8813 0.9574 0 5
33.4900 -9.1189 -2.6432 0.0700 0 8
33.5739 -8.8162 -2.6434 0.0699 0 8
33.6548 -8.5127 -2.6436 0.0699 0 8
33.7328 -8.2084 -2.6438 0.0699 0 8
33.8077 -7.9033 -2.6440 0.0699 0 8
33.8794 -7.5974 -2.6441 0.0699 0 8
33.9480 -7.2908 -2.6442 0.0699 0 8
34.0138 -6.9836 -2.6443 0.0699 0 8
34.0767 -6.6757 -2.6444 0.0699 0 8
34.1366 -6.3673 -2.6444 0.0699 0 8
34.1935 -6.0582 -2.6445 0.0699 0 8
34.2473 -5.7487 -2.6445 0.0699 0 8
34.2981 -5.4386 -2.6445 0.0699 0 8
34.3458 -5.1280 -2.6445 0.0699 0 8
34.3905 -4.8169 -2.6445 0.0699 0 8
34.4322 -4.5055 -2.6445 0.0699 0 8
34.4707 -4.1937 -2.6444 0.0699 0 8
34.5062 -3.8815 -2.6443 0.0699 0 8
34.5385 -3.5689 -2.6442 0.0699 0 8
34.5676 -3.2561 -2.6441 0.0700 0 8
34.5936 -2.9430 -2.6439 0.0700 0 8
34.6166 -2.6297 -2.6438 0.0700 0 8
34.6367 -2.3162 -2.6436 0.0700 0 8
34.6538 -2.0026 -2.6434 0.0700 0 8
34.6677 -1.6888 -2.6432 0.0700 0 8
34.6786 -1.3749 -2.6430 0.0700 0 8
34.6864 -1.0610 -2.6427 0.0700 0 8
34.6911 -0.7470 -2.6424 0.0700 0 8
31.8897 -0.3980 -2.4287 0.6242 0 5
34.6912 -0.1190 -2.6419 0.0700 0 8
34.6864 0.1949 -2.6415 0.0700 0 8
34.6785 0.5086 -2.6412 0.0700 0 8
34.6677 0.8223 -2.6408 0.0700 0 8
34.6540 1.1358 -2.6404 0.0701 0 8
34.6372 1.4491 -2.6400 0.0701 0 8
34.6173 1.7622 -2.6396 0.0701 0 8
34.5943 2.0750 -2.6392 0.0701 0 8
34.5683 2.3876 -2.6388 0.0701 0 8
34.5393 2.6998 -2.6383 0.0701 0 8
34.5072 3.0116 -2.6378 0.0701 0 8
34.4720 3.3231 -2.6373 0.0701 0 8
34.4338 3.6342 -2.6368 0.0702 0 8
34.3925 3.9448 -2.6363 0.0702 0 8
34.3483 4.2550 -2.6357 0.0702 0 8
34.3010 4.5646 -2.6352 0.0702 0 8
34.2507 4.8737 -2.6346 0.0702 0 8
34.1974 5.1823 -2.6340 0.0702 0 8
34.1410 5.4902 -2.6333 0.0702 0 8
34.0817 5.7975 -2.6327 0.0703 0 8
34.0195 6.1041 -2.6321 0.0703 0 8
33.9541 6.4101 -2.6314 0.0703 0 8
33.8856 6.7152 -2.6307 0.0703 0 8
33.8143 7.0197 -2.6300 0.0703 0 8
33.7401 7.3233 -2.6292 0.0704 0 8
33.6631 7.6262 -2.6285 0.0704 0 8
33.5831 7.9282 -2.6278 0.0704 0 8
33.5001 8.2294 -2.6270 0.0704 0 8
33.4143 8.5296 -2.6262 0.0704 0 8
33.3256 8.8289 -2.6254 0.0705 0 8
33.2340 9.1272 -2.6246 0.0705 0 8
33.1395 9.4246 -2.6237 0.0705 0 8
33.0422 9.7209 -2.6229 0.0705 0 8
32.9420 10.0162 -2.6220 0.0706 0 8
31.2156 9.8007 -2.4916 0.9903 0 19
31.4794 10.1974 -2.5199 0.7881 0 19
32.6243 10.8954 -2.6193 0.0706 0 8
32.5129 11.1862 -2.6184 0.0707 0 8
32.3987 11.4758 -2.6175 0.0707 0 8
32.2818 11.7642 -2.6165 0.0707 0 8
32.1620 12.0514 -2.6155 0.0707 0 8
32.0447 12.3392 -2.6150 0.0759 0 8
31.9317 12.6286 -2.6150 0.0759 0 8
31.8161 12.9171 -2.6150 0.0759 0 8
31.6979 13.2044 -2.6150 0.0759 0 8
26.3989 11.2784 -2.1861 0.1241 0 19
31.4538 13.7759 -2.6150 0.0759 0 8
31.3279 14.0599 -2.6150 0.0759 0 8
31.1994 14.3428 -2.6150 0.0759 0 8
26.4208 12.4369 -2.2238 0.5710 0 5
26.1913 12.6196 -2.2140 0.8166 0 5
27.8115 13.7116 -2.3613 0.9666 0 20
27.6241 13.9314 -2.3560 0.9688 0 20
27.4375 14.1501 -2.3510 0.9708 0 20
27.2517 14.3680 -2.3461 0.9729 0 20
27.8181 14.9898 -2.4064 0.2097 0 20
30.0803 16.5617 -2.6150 0.0759 0 8
29.9292 16.8333 -2.6150 0.0759 0 8
29.7757 17.1034 -2.6150 0.0759 0 8
29.6197 17.3721 -2.6150 0.0759 0 8
29.4613 17.6394 -2.6150 0.0759 0 8
29.3005 17.9053 -2.6150 0.0759 0 8
29.1373 18.1697 -2.6150 0.0759 0 8
28.9716 18.4326 -2.6150 0.0759 0 8
28.8037 18.6940 -2.6150 0.0759 0 8
28.6334 18.9538 -2.6150 0.0759 0 8
28.4607 19.2121 -2.6150 0.0759 0 8
28.2857 19.4689 -2.6150 0.0759 0 8
28.1084 19.7240 -2.6150 0.0759 0 8
27.9287 19.9776 -2.6150 0.0759 0 8
27.7468 20.2295 -2.6150 0.0759 0 8
27.5626 20.4797 -2.6150 0.0759 0 8
27.3762 20.7282 -2.6150 0.0759 0 8
27.2355 21.0121 -2.6196 0.5384 0 8
27.2981 21.4573 -2.6442 0.6817 0 8
27.3647 21.9130 -2.6697 0.6752 0 8
27.4325 22.3778 -2.6960 0.6686 0 8
27.5016 22.8517 -2.7230 0.6619 0 8
27.5721 23.3352 -2.7508 0.6553 0 8
27.4743 23.6824 -2.7623 0.0869 0 8
27.2956 23.9623 -2.7660 0.0867 0 8
27.0912 24.2204 -2.7674 0.0759 0 7
26.8709 24.4645 -2.7674 0.0759 0 7
26.6484 24.7067 -2.7674 0.0759 0 7
26.4238 24.9468 -2.7674 0.0759 0 7
26.1970 25.1848 -2.7674 0.0759 0 7
25.9680 25.4209 -2.7674 0.0759 0 7
25.7370 25.6548 -2.7674 0.0759 0 7
25.5038 25.8866 -2.7674 0.0759 0 6
25.2685 26.1163 -2.7674 0.0759 0 7
25.0311 26.3439 -2.7674 0.0759 0 7
24.7917 26.5693 -2.7674 0.0759 0 7
24.5503 26.7926 -2.7674 0.0759 0 7
24.3069 27.0136 -2.7674 0.0759 0 7
24.0614 27.2324 -2.7674 0.0759 0 7
