ply
format ascii 1.0
element vertex 1411
property float32 x
property float32 y
property float32 z
property float32 CosAngle
property uint32 ObjIdx
property uint32 ObjTag
end_header
-7.1740 2.3653 -2.7253 0.3394 0 7
-7.1951 2.3003 -2.7253 0.3394 0 7
-7.2157 2.2351 -2.7253 0.3394 0 7
-7.2356 2.1697 -2.7253 0.3394 0 7
-7.2549 2.1041 -2.7253 0.3394 0 7
-7.2737 2.0384 -2.7253 0.3394 0 7
-7.2918 1.9725 -2.7253 0.3394 0 7
-7.3094 1.9065 -2.7253 0.3394 0 7
-7.3263 1.8402 -2.7253 0.3394 0 7
-7.3427 1.7739 -2.7253 0.3394 0 7
-7.3584 1.7074 -2.7253 0.3394 0 7
-7.3736 1.6407 -2.7253 0.3394 0 7
-7.3881 1.5739 -2.7253 0.3394 0 7
-7.4021 1.5070 -2.7253 0.3394 0 7
-7.4154 1.4400 -2.7253 0.3394 0 7
-7.4281 1.3728 -2.7253 0.3394 0 7
-7.4402 1.3056 -2.7253 0.3394 0 7
-7.4517 1.2382 -2.7253 0.3394 0 7
-7.4626 1.1707 -2.7253 0.3394 0 7
-7.4729 1.1031 -2.7253 0.3394 0 7
-7.4826 1.0355 -2.7253 0.3394 0 7
-7.4917 0.9677 -2.7253 0.3394 0 7
-7.5001 0.8999 -2.7253 0.3394 0 7
-7.5079 0.8320 -2.7253 0.3394 0 7
-7.5152 0.7640 -2.7253 0.3394 0 7
-7.5218 0.6960 -2.7253 0.3394 0 7
-7.5278 0.6279 -2.7253 0.3394 0 7
-7.5331 0.5598 -2.7253 0.3394 0 7
-7.5379 0.4916 -2.7253 0.3394 0 7
-7.5420 0.4233 -2.7253 0.3394 0 7
-7.5456 0.3551 -2.7253 0.3394 0 7
-7.5485 0.2868 -2.7253 0.3394 0 7
-7.5507 0.2185 -2.7253 0.3394 0 7
-7.5524 0.1502 -2.7253 0.3394 0 7
-7.5535 0.0818 -2.7253 0.3394 0 7
-7.5539 0.0135 -2.7253 0.3394 0 7
-7.5537 -0.0549 -2.7253 0.3394 0 7
-7.5529 -0.1232 -2.7253 0.3394 0 7
-7.5515 -0.1916 -2.7253 0.3394 0 7
-7.5494 -0.2599 -2.7253 0.3394 0 7
-7.5468 -0.3282 -2.7253 0.3394 0 7
-7.5435 -0.3965 -2.7253 0.3394 0 7
-7.5396 -0.4647 -2.7253 0.3394 0 7
-7.5351 -0.5329 -2.7253 0.3394 0 7
-7.5300 -0.6010 -2.7253 0.3394 0 7
-7.5242 -0.6692 -2.7253 0.3394 0 7
-7.5178 -0.7372 -2.7253 0.3394 0 7
-7.5109 -0.8052 -2.7253 0.3394 0 7
-7.5033 -0.8731 -2.7253 0.3394 0 7
-7.4951 -0.9410 -2.7253 0.3394 0 7
-7.4862 -1.0088 -2.7253 0.3394 0 7
-7.4768 -1.0765 -2.7253 0.3394 0 7
-7.4668 -1.1441 -2.7253 0.3394 0 7
-7.4561 -1.2116 -2.7253 0.3394 0 7
-7.4448 -1.2790 -2.7253 0.3394 0 7
-7.4330 -1.3463 -2.7253 0.3394 0 7
-7.4205 -1.4135 -2.7253 0.3394 0 7
-7.4074 -1.4806 -2.7253 0.3394 0 7
-7.3937 -1.5476 -2.7253 0.3394 0 7
-7.3794 -1.6144 -2.7253 0.3394 0 7
-7.3645 -1.6811 -2.7253 0.3394 0 7
-7.3490 -1.7477 -2.7253 0.3394 0 7
-7.3328 -1.8141 -2.7253 0.3394 0 7
-7.3161 -1.8804 -2.7253 0.3394 0 7
-7.2988 -1.9465 -2.7253 0.3394 0 7
-7.2809 -2.0125 -2.7253 0.3394 0 7
-7.2624 -2.0783 -2.7253 0.3394 0 7
-7.2433 -2.1439 -2.7253 0.3394 0 6
-7.2236 -2.2093 -2.7253 0.3394 0 6
-7.2033 -2.2746 -2.7253 0.3394 0 7
-7.1824 -2.3397 -2.7253 0.3394 0 7
-7.1610 -2.4046 -2.7253 0.3394 0 6
-7.1389 -2.4693 -2.7253 0.3394 0 6
-7.1163 -2.5338 -2.7253 0.3394 0 7
-7.0931 -2.5981 -2.7253 0.3394 0 7
-7.0693 -2.6621 -2.7253 0.3394 0 7
-7.0449 -2.7260 -2.7253 0.3394 0 7
-7.0199 -2.7896 -2.7253 0.3394 0 7
-6.9944 -2.8530 -2.7253 0.3394 0 7
-6.9683 -2.9162 -2.7253 0.3394 0 7
-6.9416 -2.9791 -2.7253 0.3394 0 7
-6.9144 -3.0418 -2.7253 0.3394 0 7
-6.8866 -3.1043 -2.7253 0.3394 0 7
-6.8582 -3.1664 -2.7253 0.3394 0 7
-6.8293 -3.2284 -2.7253 0.3394 0 7
-6.7998 -3.2900 -2.7253 0.3394 0 7
-6.7697 -3.3514 -2.7253 0.3394 0 7
-6.7391 -3.4125 -2.7253 0.3394 0 7
-6.7080 -3.4734 -2.7253 0.3394 0 7
-6.6763 -3.5339 -2.7253 0.3394 0 7
-6.6440 -3.5942 -2.7253 0.3394 0 7
-6.6112 -3.6542 -2.7253 0.3394 0 7
-6.5779 -3.7138 -2.7253 0.3394 0 7
-6.5440 -3.7732 -2.7253 0.3394 0 7
-6.5096 -3.8323 -2.7253 0.3394 0 7
-6.4747 -3.8910 -2.7253 0.3394 0 7
-6.4392 -3.9494 -2.7253 0.3394 0 7
-6.4032 -4.0075 -2.7253 0.3394 0 7
-6.3667 -4.0653 -2.7253 0.3394 0 7
-6.3296 -4.1227 -2.7253 0.3394 0 7
-6.2921 -4.1799 -2.7253 0.3394 0 7
-6.2540 -4.2366 -2.7253 0.3394 0 7
-6.2154 -4.2930 -2.7253 0.3394 0 7
-6.1763 -4.3491 -2.7253 0.3394 0 7
-6.1367 -4.4048 -2.7253 0.3394 0 7
-6.0966 -4.4602 -2.7253 0.3394 0 7
-6.0560 -4.5151 -2.7253 0.3394 0 7
-6.0149 -4.5697 -2.7253 0.3394 0 7
-5.9733 -4.6240 -2.7253 0.3394 0 7
-5.9312 -4.6778 -2.7253 0.3394 0 7
-5.8886 -4.7313 -2.7253 0.3394 0 7
-5.8456 -4.7844 -2.7253 0.3394 0 7
-5.8021 -4.8371 -2.7253 0.3394 0 7
-5.7581 -4.8894 -2.7253 0.3394 0 7
-5.7136 -4.9413 -2.7253 0.3394 0 7
-5.6686 -4.9928 -2.7253 0.3394 0 7
-5.6232 -5.0439 -2.7253 0.3394 0 7
-5.5774 -5.0946 -2.7253 0.3394 0 7
-5.5310 -5.1448 -2.7253 0.3394 0 7
-5.4843 -5.1946 -2.7253 0.3394 0 7
-5.4370 -5.2441 -2.7253 0.3394 0 7
-5.3894 -5.2930 -2.7253 0.3394 0 7
-5.3412 -5.3416 -2.7253 0.3394 0 7
-5.2927 -5.3897 -2.7253 0.3394 0 7
-5.2437 -5.4374 -2.7253 0.3394 0 7
-5.1943 -5.4846 -2.7253 0.3394 0 7
-5.1445 -5.5314 -2.7253 0.3394 0 7
-5.0942 -5.5777 -2.7253 0.3394 0 7
-5.0435 -5.6235 -2.7253 0.3394 0 7
-4.9924 -5.6690 -2.7253 0.3394 0 7
-4.9409 -5.7139 -2.7253 0.3394 0 7
-4.8890 -5.7584 -2.7253 0.3394 0 7
-4.8367 -5.8024 -2.7253 0.3394 0 7
-4.7840 -5.8459 -2.7253 0.3394 0 7
-4.7309 -5.8890 -2.7253 0.3394 0 7
-4.6774 -5.9315 -2.7253 0.3394 0 7
-4.6236 -5.9736 -2.7253 0.3394 0 7
-4.5693 -6.0152 -2.7253 0.3394 0 7
-4.5147 -6.0563 -2.7253 0.3394 0 7
-4.4597 -6.0969 -2.7253 0.3394 0 7
-4.4044 -6.1370 -2.7253 0.3394 0 7
-4.3487 -6.1766 -2.7253 0.3394 0 7
-4.2926 -6.2157 -2.7253 0.3394 0 7
-4.2362 -6.2543 -2.7253 0.3394 0 7
-4.1794 -6.2923 -2.7253 0.3394 0 7
-4.1223 -6.3299 -2.7253 0.3394 0 7
-4.0649 -6.3669 -2.7253 0.3394 0 7
-4.0071 -6.4035 -2.7253 0.3394 0 7
-3.9490 -6.4395 -2.7253 0.3394 0 7
-3.8906 -6.4749 -2.7253 0.3394 0 7
-3.8318 -6.5099 -2.7253 0.3394 0 7
-3.7728 -6.5443 -2.7253 0.3394 0 7
-3.7134 -6.5781 -2.7253 0.3394 0 7
-3.6537 -6.6115 -2.7253 0.3394 0 7
-3.5938 -6.6443 -2.7253 0.3394 0 7
-3.5335 -6.6765 -2.7253 0.3394 0 7
-3.4729 -6.7082 -2.7253 0.3394 0 6
-3.4121 -6.7394 -2.7253 0.3394 0 6
-3.3510 -6.7700 -2.7253 0.3394 0 6
-3.2896 -6.8000 -2.7253 0.3394 0 6
-3.2279 -6.8295 -2.7253 0.3394 0 6
-3.1660 -6.8584 -2.7253 0.3394 0 6
-3.1038 -6.8868 -2.7253 0.3394 0 6
-3.0414 -6.9146 -2.7253 0.3394 0 6
-2.9787 -6.9418 -2.7253 0.3394 0 7
-2.9157 -6.9685 -2.7253 0.3394 0 7
-2.8526 -6.9946 -2.7253 0.3394 0 7
-2.7892 -7.0201 -2.7253 0.3394 0 7
-2.7255 -7.0451 -2.7253 0.3394 0 7
-2.6617 -7.0694 -2.7253 0.3394 0 7
-2.5976 -7.0932 -2.7253 0.3394 0 7
-2.5333 -7.1164 -2.7253 0.3394 0 7
-2.4688 -7.1391 -2.7253 0.3394 0 7
-2.4041 -7.1611 -2.7253 0.3394 0 7
-2.3392 -7.1826 -2.7253 0.3394 0 7
-2.2741 -7.2034 -2.7253 0.3394 0 7
-2.2089 -7.2237 -2.7253 0.3394 0 7
-2.1434 -7.2434 -2.7253 0.3394 0 7
-2.0778 -7.2625 -2.7253 0.3394 0 7
-2.0120 -7.2810 -2.7253 0.3394 0 7
-1.9460 -7.2989 -2.7253 0.3394 0 7
-1.8799 -7.3162 -2.7253 0.3394 0 7
-1.8136 -7.3330 -2.7253 0.3394 0 7
-1.7472 -7.3491 -2.7253 0.3394 0 7
-1.6806 -7.3646 -2.7253 0.3394 0 7
-1.6139 -7.3795 -2.7253 0.3394 0 7
-1.5471 -7.3938 -2.7253 0.3394 0 7
-1.4801 -7.4075 -2.7253 0.3394 0 7
-1.4130 -7.4206 -2.7253 0.3394 0 7
-1.3458 -7.4330 -2.7253 0.3394 0 7
-1.2785 -7.4449 -2.7253 0.3394 0 7
-1.2111 -7.4562 -2.7253 0.3394 0 7
-1.1436 -7.4668 -2.7253 0.3394 0 7
-1.0760 -7.4769 -2.7253 0.3394 0 7
-1.0083 -7.4863 -2.7253 0.3394 0 7
-0.9405 -7.4951 -2.7253 0.3394 0 7
-0.8726 -7.5033 -2.7253 0.3394 0 7
-0.8047 -7.5109 -2.7253 0.3394 0 7
-0.7367 -7.5179 -2.7253 0.3394 0 7
-0.6687 -7.5242 -2.7253 0.3394 0 7
-0.6006 -7.5300 -2.7253 0.3394 0 7
-0.5324 -7.5351 -2.7253 0.3394 0 7
-0.4642 -7.5396 -2.7253 0.3394 0 7
-0.3960 -7.5435 -2.7253 0.3394 0 7
-0.3277 -7.5468 -2.7253 0.3394 0 7
-0.2594 -7.5494 -2.7253 0.3394 0 7
-0.1911 -7.5515 -2.7253 0.3394 0 7
-0.1227 -7.5529 -2.7253 0.3394 0 7
-0.0544 -7.5537 -2.7253 0.3394 0 7
0.0140 -7.5539 -2.7253 0.3394 0 7
0.0823 -7.5534 -2.7253 0.3394 0 7
0.1507 -7.5524 -2.7253 0.3394 0 7
0.2190 -7.5507 -2.7253 0.3394 0 7
0.2873 -7.5484 -2.7253 0.3394 0 7
0.3556 -7.5455 -2.7253 0.3394 0 7
0.4239 -7.5420 -2.7253 0.3394 0 7
0.4921 -7.5379 -2.7253 0.3394 0 7
0.5603 -7.5331 -2.7253 0.3394 0 7
0.6284 -7.5277 -2.7253 0.3394 0 7
0.6965 -7.5217 -2.7253 0.3394 0 7
0.7645 -7.5151 -2.7253 0.3394 0 7
0.8325 -7.5079 -2.7253 0.3394 0 7
0.9004 -7.5000 -2.7253 0.3394 0 7
0.9682 -7.4916 -2.7253 0.3394 0 7
1.0360 -7.4825 -2.7253 0.3394 0 7
1.1036 -7.4728 -2.7253 0.3394 0 7
1.1712 -7.4626 -2.7253 0.3394 0 7
1.2387 -7.4517 -2.7253 0.3394 0 7
1.3060 -7.4401 -2.7253 0.3394 0 7
1.3733 -7.4280 -2.7253 0.3394 0 7
1.4405 -7.4153 -2.7253 0.3394 0 7
1.5075 -7.4019 -2.7253 0.3394 0 7
1.5744 -7.3880 -2.7253 0.3394 0 7
1.6412 -7.3735 -2.7253 0.3394 0 7
1.7078 -7.3583 -2.7253 0.3394 0 7
1.7744 -7.3426 -2.7253 0.3394 0 7
1.8407 -7.3262 -2.7253 0.3394 0 7
1.9069 -7.3092 -2.7253 0.3394 0 7
1.9730 -7.2917 -2.7253 0.3394 0 7
2.0389 -7.2735 -2.7253 0.3394 0 7
2.1046 -7.2548 -2.7253 0.3394 0 7
2.1702 -7.2354 -2.7253 0.3394 0 7
2.2356 -7.2155 -2.7253 0.3394 0 7
2.3008 -7.1950 -2.7253 0.3394 0 7
2.3658 -7.1739 -2.7253 0.3394 0 7
2.4306 -7.1522 -2.7253 0.3394 0 7
2.4952 -7.1299 -2.7253 0.3394 0 7
2.5596 -7.1070 -2.7253 0.3394 0 7
2.6238 -7.0836 -2.7253 0.3394 0 7
2.6878 -7.0596 -2.7253 0.3394 0 7
2.7516 -7.0349 -2.7253 0.3394 0 7
2.8151 -7.0098 -2.7253 0.3394 0 7
2.8784 -6.9840 -2.7253 0.3394 0 7
2.9415 -6.9577 -2.7253 0.3394 0 7
3.0043 -6.9308 -2.7253 0.3394 0 7
3.0669 -6.9033 -2.7253 0.3394 0 7
3.1293 -6.8753 -2.7253 0.3394 0 7
3.1913 -6.8467 -2.7253 0.3394 0 7
3.2531 -6.8175 -2.7253 0.3394 0 7
3.3147 -6.7878 -2.7253 0.3394 0 7
3.3760 -6.7575 -2.7253 0.3394 0 7
3.4370 -6.7267 -2.7253 0.3394 0 7
3.4977 -6.6953 -2.7253 0.3394 0 7
3.5582 -6.6634 -2.7253 0.3394 0 7
3.6183 -6.6309 -2.7253 0.3394 0 7
3.6782 -6.5979 -2.7253 0.3394 0 7
3.7377 -6.5644 -2.7253 0.3394 0 7
3.7969 -6.5303 -2.7253 0.3394 0 7
3.8559 -6.4957 -2.7253 0.3394 0 7
3.9145 -6.4605 -2.7253 0.3394 0 7
3.9728 -6.4248 -2.7253 0.3394 0 7
4.0308 -6.3886 -2.7253 0.3394 0 7
4.0884 -6.3519 -2.7253 0.3394 0 7
4.1457 -6.3146 -2.7253 0.3394 0 6
4.2027 -6.2769 -2.7253 0.3394 0 6
4.2593 -6.2386 -2.7253 0.3394 0 6
4.3156 -6.1998 -2.7253 0.3394 0 6
4.3715 -6.1605 -2.7253 0.3394 0 6
4.4271 -6.1207 -2.7253 0.3394 0 6
4.4823 -6.0804 -2.7253 0.3394 0 6
4.5371 -6.0395 -2.7253 0.3394 0 7
4.5916 -5.9982 -2.7253 0.3394 0 7
4.6456 -5.9565 -2.7253 0.3394 0 7
4.6994 -5.9142 -2.7253 0.3394 0 7
4.7527 -5.8714 -2.7253 0.3394 0 7
4.8056 -5.8282 -2.7253 0.3394 0 7
4.8581 -5.7845 -2.7253 0.3394 0 7
4.9103 -5.7403 -2.7253 0.3394 0 7
4.9620 -5.6956 -2.7253 0.3394 0 7
5.0134 -5.6505 -2.7253 0.3394 0 7
5.0643 -5.6049 -2.7253 0.3394 0 6
5.1148 -5.5588 -2.7253 0.3394 0 6
5.1649 -5.5123 -2.7253 0.3394 0 6
5.2145 -5.4653 -2.7253 0.3394 0 6
5.2638 -5.4179 -2.7253 0.3394 0 6
5.3126 -5.3701 -2.7253 0.3394 0 6
5.3610 -5.3218 -2.7253 0.3394 0 6
5.4089 -5.2731 -2.7253 0.3394 0 6
5.4564 -5.2239 -2.7253 0.3394 0 7
5.5034 -5.1743 -2.7253 0.3394 0 7
5.5500 -5.1243 -2.7253 0.3394 0 7
5.5962 -5.0739 -2.7253 0.3394 0 7
5.6418 -5.0231 -2.7253 0.3394 0 7
5.6871 -4.9718 -2.7253 0.3394 0 7
5.7318 -4.9201 -2.7253 0.3394 0 7
5.7761 -4.8681 -2.7253 0.3394 0 7
5.8199 -4.8156 -2.7253 0.3394 0 7
5.8632 -4.7628 -2.7253 0.3394 0 6
5.9061 -4.7095 -2.7253 0.3394 0 6
5.9485 -4.6559 -2.7253 0.3394 0 6
5.9904 -4.6019 -2.7253 0.3394 0 6
6.0317 -4.5475 -2.7253 0.3394 0 6
6.0727 -4.4927 -2.7253 0.3394 0 6
6.1131 -4.4376 -2.7253 0.3394 0 6
6.1530 -4.3821 -2.7253 0.3394 0 6
6.1923 -4.3262 -2.7253 0.3394 0 7
6.2312 -4.2700 -2.7253 0.3394 0 7
6.2696 -4.2135 -2.7253 0.3394 0 7
6.3075 -4.1566 -2.7253 0.3394 0 7
6.3448 -4.0993 -2.7253 0.3394 0 7
6.3817 -4.0417 -2.7253 0.3394 0 7
6.4180 -3.9838 -2.7253 0.3394 0 7
6.4538 -3.9256 -2.7253 0.3394 0 7
6.4890 -3.8670 -2.7253 0.3394 0 6
6.5238 -3.8082 -2.7253 0.3394 0 6
6.5579 -3.7490 -2.7253 0.3394 0 6
6.5916 -3.6895 -2.7253 0.3394 0 6
6.6247 -3.6297 -2.7253 0.3394 0 6
6.6573 -3.5696 -2.7253 0.3394 0 6
6.6893 -3.5092 -2.7253 0.3394 0 6
6.7208 -3.4485 -2.7253 0.3394 0 6
6.7517 -3.3876 -2.7253 0.3394 0 7
6.7821 -3.3264 -2.7253 0.3394 0 7
6.8119 -3.2649 -2.7253 0.3394 0 7
6.8412 -3.2031 -2.7253 0.3394 0 7
6.8699 -3.1411 -2.7253 0.3394 0 7
6.8980 -3.0788 -2.7253 0.3394 0 7
6.9256 -3.0162 -2.7253 0.3394 0 7
6.9526 -2.9534 -2.7253 0.3394 0 7
6.9790 -2.8904 -2.7253 0.3394 0 6
7.0049 -2.8272 -2.7253 0.3394 0 6
7.0302 -2.7636 -2.7253 0.3394 0 6
7.0549 -2.6999 -2.7253 0.3394 0 6
7.0791 -2.6360 -2.7253 0.3394 0 6
7.1026 -2.5718 -2.7253 0.3394 0 6
7.1256 -2.5074 -2.7253 0.3394 0 6
7.1480 -2.4429 -2.7253 0.3394 0 7
7.1698 -2.3781 -2.7253 0.3394 0 7
7.1910 -2.3131 -2.7253 0.3394 0 7
7.2117 -2.2479 -2.7253 0.3394 0 7
7.2317 -2.1826 -2.7253 0.3394 0 7
7.2512 -2.1171 -2.7253 0.3394 0 7
7.2700 -2.0514 -2.7253 0.3394 0 7
7.2883 -1.9855 -2.7253 0.3394 0 7
7.3060 -1.9195 -2.7253 0.3394 0 6
7.3230 -1.8533 -2.7253 0.3394 0 6
7.3395 -1.7870 -2.7253 0.3394 0 6
7.3554 -1.7205 -2.7253 0.3394 0 6
7.3706 -1.6539 -2.7253 0.3394 0 6
7.3853 -1.5871 -2.7253 0.3394 0 6
7.3994 -1.5202 -2.7253 0.3394 0 6
7.4128 -1.4532 -2.7253 0.3394 0 7
7.4256 -1.3861 -2.7253 0.3394 0 7
7.4379 -1.3188 -2.7253 0.3394 0 7
7.4495 -1.2515 -2.7253 0.3394 0 7
7.4605 -1.1840 -2.7253 0.3394 0 7
7.4709 -1.1165 -2.7253 0.3394 0 7
7.4807 -1.0488 -2.7253 0.3394 0 7
7.4899 -0.9811 -2.7253 0.3394 0 7
7.4985 -0.9133 -2.7253 0.3394 0 6
7.5065 -0.8454 -2.7253 0.3394 0 6
7.5138 -0.7774 -2.7253 0.3394 0 6
7.5205 -0.7094 -2.7253 0.3394 0 6
7.5266 -0.6413 -2.7253 0.3394 0 6
7.5321 -0.5732 -2.7253 0.3394 0 6
7.5370 -0.5050 -2.7253 0.3394 0 6
7.5413 -0.4368 -2.7253 0.3394 0 7
7.5449 -0.3685 -2.7253 0.3394 0 7
7.5479 -0.3003 -2.7253 0.3394 0 7
7.5503 -0.2319 -2.7253 0.3394 0 7
7.5521 -0.1636 -2.7253 0.3394 0 7
7.5533 -0.0953 -2.7253 0.3394 0 7
7.5539 -0.0269 -2.7253 0.3394 0 7
7.5538 0.0414 -2.7253 0.3394 0 7
7.5531 0.1098 -2.7253 0.3394 0 6
7.5518 0.1781 -2.7253 0.3394 0 6
7.5499 0.2464 -2.7253 0.3394 0 6
7.5473 0.3147 -2.7253 0.3394 0 6
7.5442 0.3830 -2.7253 0.3394 0 6
7.5404 0.4512 -2.7253 0.3394 0 6
7.5360 0.5195 -2.7253 0.3394 0 6
7.5310 0.5876 -2.7253 0.3394 0 7
7.5254 0.6557 -2.7253 0.3394 0 7
7.5191 0.7238 -2.7253 0.3394 0 7
7.5123 0.7918 -2.7253 0.3394 0 7
7.5048 0.8598 -2.7253 0.3394 0 7
7.4967 0.9276 -2.7253 0.3394 0 7
7.4880 0.9954 -2.7253 0.3394 0 7
7.4787 1.0631 -2.7253 0.3394 0 7
7.4688 1.1308 -2.7253 0.3394 0 6
7.4583 1.1983 -2.7253 0.3394 0 6
7.4471 1.2657 -2.7253 0.3394 0 6
7.4353 1.3331 -2.7253 0.3394 0 6
7.4230 1.4003 -2.7253 0.3394 0 6
7.4100 1.4674 -2.7253 0.3394 0 6
7.3964 1.5344 -2.7253 0.3394 0 6
7.3822 1.6012 -2.7253 0.3394 0 6
7.3675 1.6680 -2.7253 0.3394 0 7
7.3521 1.7346 -2.7253 0.3394 0 7
7.3361 1.8010 -2.7253 0.3394 0 7
7.3195 1.8673 -2.7253 0.3394 0 7
7.3023 1.9335 -2.7253 0.3394 0 7
7.2845 1.9995 -2.7253 0.3394 0 7
7.2661 2.0653 -2.7253 0.3394 0 7
7.2471 2.1310 -2.7253 0.3394 0 7
7.2275 2.1964 -2.7253 0.3394 0 7
7.2074 2.2618 -2.7253 0.3394 0 6
7.1866 2.3269 -2.7253 0.3394 0 6
7.1652 2.3918 -2.7253 0.3394 0 6
7.1433 2.4565 -2.7253 0.3394 0 6
7.1208 2.5211 -2.7253 0.3394 0 6
7.0977 2.5854 -2.7253 0.3394 0 6
7.0740 2.6495 -2.7253 0.3394 0 6
7.0497 2.7134 -2.7253 0.3394 0 6
7.0249 2.7771 -2.7253 0.3394 0 6
6.9995 2.8406 -2.7253 0.3394 0 7
6.9735 2.9038 -2.7253 0.3394 0 7
6.9469 2.9667 -2.7253 0.3394 0 7
6.9198 3.0295 -2.7253 0.3394 0 7
6.8921 3.0920 -2.7253 0.3394 0 7
6.8638 3.1542 -2.7253 0.3394 0 7
6.8350 3.2162 -2.7253 0.3394 0 7
6.8056 3.2779 -2.7253 0.3394 0 7
6.7757 3.3393 -2.7253 0.3394 0 7
6.7452 3.4005 -2.7253 0.3394 0 6
6.7142 3.4614 -2.7253 0.3394 0 6
6.6826 3.5220 -2.7253 0.3394 0 6
6.6504 3.5823 -2.7253 0.3394 0 6
6.6177 3.6424 -2.7253 0.3394 0 6
6.5845 3.7021 -2.7253 0.3394 0 6
6.5508 3.7615 -2.7253 0.3394 0 6
6.5165 3.8207 -2.7253 0.3394 0 6
6.4816 3.8795 -2.7253 0.3394 0 6
6.4462 3.9379 -2.7253 0.3394 0 6
6.4104 3.9961 -2.7253 0.3394 0 7
6.3739 4.0540 -2.7253 0.3394 0 7
6.3370 4.1115 -2.7253 0.3394 0 7
6.2995 4.1686 -2.7253 0.3394 0 7
6.2616 4.2255 -2.7253 0.3394 0 7
6.2215 4.2808 -2.7246 0.3474 0 8
6.1803 4.3354 -2.7237 0.3476 0 8
6.1386 4.3896 -2.7227 0.3477 0 8
6.0965 4.4434 -2.7217 0.3478 0 8
6.0539 4.4968 -2.7208 0.3479 0 8
6.0109 4.5498 -2.7198 0.3481 0 8
5.9674 4.6024 -2.7189 0.3482 0 8
5.9235 4.6547 -2.7180 0.3494 0 8
5.8409 4.6759 -2.6994 0.6514 0 8
5.7418 4.6824 -2.6730 0.6578 0 8
5.6445 4.6887 -2.6474 0.6642 0 8
5.5490 4.6948 -2.6224 0.6705 0 8
5.4552 4.7008 -2.5981 0.6768 0 8
5.3667 4.7099 -2.5761 0.6869 0 8
5.3173 4.7524 -2.5729 0.3394 0 8
5.2740 4.8003 -2.5729 0.3394 0 8
5.2304 4.8478 -2.5729 0.3394 0 8
5.1863 4.8949 -2.5729 0.3394 0 8
5.1418 4.9417 -2.5729 0.3394 0 8
5.0969 4.9880 -2.5729 0.3394 0 8
5.0515 5.0339 -2.5729 0.3394 0 8
5.0058 5.0794 -2.5729 0.3394 0 8
4.9596 5.1245 -2.5729 0.3394 0 8
4.9131 5.1692 -2.5729 0.3394 0 8
4.8661 5.2134 -2.5729 0.3394 0 8
4.8187 5.2572 -2.5729 0.3394 0 8
4.7709 5.3006 -2.5729 0.3394 0 8
4.7228 5.3435 -2.5729 0.3394 0 8
4.6742 5.3861 -2.5729 0.3394 0 8
4.6253 5.4281 -2.5729 0.3394 0 8
4.5760 5.4698 -2.5729 0.3394 0 8
4.5263 5.5109 -2.5729 0.3394 0 8
4.4763 5.5517 -2.5729 0.3394 0 8
4.4259 5.5920 -2.5729 0.3394 0 8
4.3751 5.6318 -2.5729 0.3394 0 8
4.3240 5.6711 -2.5729 0.3394 0 8
4.2725 5.7100 -2.5729 0.3394 0 8
4.2206 5.7484 -2.5729 0.3394 0 8
4.1684 5.7864 -2.5729 0.3394 0 8
4.1159 5.8239 -2.5729 0.3394 0 8
4.0630 5.8609 -2.5729 0.3394 0 8
4.0098 5.8974 -2.5729 0.3394 0 8
3.9563 5.9334 -2.5729 0.3394 0 8
3.9025 5.9690 -2.5729 0.3394 0 8
3.8483 6.0041 -2.5729 0.3394 0 8
3.7938 6.0386 -2.5729 0.3394 0 8
3.7390 6.0727 -2.5729 0.3394 0 8
3.6839 6.1063 -2.5729 0.3394 0 8
3.6285 6.1394 -2.5729 0.3394 0 8
3.5728 6.1720 -2.5729 0.3394 0 8
3.5168 6.2040 -2.5729 0.3394 0 8
3.4605 6.2356 -2.5729 0.3394 0 8
3.4040 6.2667 -2.5729 0.3394 0 8
3.3471 6.2972 -2.5729 0.3394 0 8
3.2900 6.3272 -2.5729 0.3394 0 8
3.2326 6.3567 -2.5729 0.3394 0 8
3.1750 6.3857 -2.5729 0.3394 0 8
3.1171 6.4142 -2.5729 0.3394 0 8
3.0589 6.4421 -2.5729 0.3394 0 8
3.0005 6.4696 -2.5729 0.3394 0 8
2.9418 6.4964 -2.5729 0.3394 0 8
2.8829 6.5228 -2.5729 0.3394 0 8
2.8238 6.5486 -2.5729 0.3394 0 8
2.5693 6.1098 -2.3913 0.9403 0 5
2.5101 6.1235 -2.3877 0.9417 0 5
2.4511 6.1372 -2.3843 0.9431 0 5
2.3922 6.1509 -2.3811 0.9443 0 5
2.3335 6.1645 -2.3781 0.9455 0 5
2.3046 6.2587 -2.4063 0.1334 0 5
2.4036 6.7142 -2.5729 0.3394 0 8
7.0522 0.0000 -2.7253 0.3605 0 7
7.0519 0.0638 -2.7253 0.3605 0 7
7.0511 0.1276 -2.7253 0.3605 0 7
7.0496 0.1914 -2.7253 0.3605 0 6
7.0476 0.2552 -2.7253 0.3605 0 6
7.0450 0.3190 -2.7253 0.3605 0 6
7.0419 0.3827 -2.7253 0.3605 0 6
7.0381 0.4464 -2.7253 0.3605 0 6
7.0338 0.5101 -2.7253 0.3605 0 6
7.0289 0.5737 -2.7253 0.3605 0 6
7.0234 0.6372 -2.7253 0.3605 0 6
7.0173 0.7008 -2.7253 0.3605 0 7
7.0107 0.7642 -2.7253 0.3605 0 7
7.0035 0.8276 -2.7253 0.3605 0 7
6.9957 0.8910 -2.7253 0.3605 0 7
6.9874 0.9542 -2.7253 0.3605 0 7
6.9785 1.0174 -2.7253 0.3605 0 7
6.9690 1.0805 -2.7253 0.3605 0 7
6.9589 1.1435 -2.7253 0.3605 0 7
6.9483 1.2065 -2.7253 0.3605 0 7
6.9371 1.2693 -2.7253 0.3605 0 6
6.9253 1.3320 -2.7253 0.3605 0 6
6.9130 1.3946 -2.7253 0.3605 0 6
6.9001 1.4571 -2.7253 0.3605 0 6
6.8866 1.5195 -2.7253 0.3605 0 6
6.8726 1.5817 -2.7253 0.3605 0 6
6.8580 1.6438 -2.7253 0.3605 0 6
6.8428 1.7058 -2.7253 0.3605 0 6
6.8271 1.7677 -2.7253 0.3605 0 6
6.8108 1.8294 -2.7253 0.3605 0 7
6.7940 1.8909 -2.7253 0.3605 0 7
6.7766 1.9523 -2.7253 0.3605 0 7
6.7587 2.0136 -2.7253 0.3605 0 7
6.7402 2.0746 -2.7253 0.3605 0 7
6.7211 2.1355 -2.7253 0.3605 0 7
6.7015 2.1963 -2.7253 0.3605 0 7
6.6814 2.2568 -2.7253 0.3605 0 7
6.6607 2.3172 -2.7253 0.3605 0 7
6.6394 2.3773 -2.7253 0.3605 0 6
6.6177 2.4373 -2.7253 0.3605 0 6
6.5953 2.4971 -2.7253 0.3605 0 6
6.5725 2.5567 -2.7253 0.3605 0 6
6.5491 2.6161 -2.7253 0.3605 0 6
6.5251 2.6752 -2.7253 0.3605 0 6
6.5007 2.7341 -2.7253 0.3605 0 6
6.4757 2.7928 -2.7253 0.3605 0 6
6.4501 2.8513 -2.7253 0.3605 0 6
6.4241 2.9096 -2.7253 0.3605 0 6
6.3975 2.9676 -2.7253 0.3605 0 7
6.3704 3.0253 -2.7253 0.3605 0 7
6.3427 3.0829 -2.7253 0.3605 0 7
6.3146 3.1401 -2.7253 0.3605 0 7
6.2859 3.1971 -2.7253 0.3605 0 7
6.2567 3.2539 -2.7253 0.3605 0 7
6.2270 3.3104 -2.7253 0.3605 0 7
6.1968 3.3666 -2.7253 0.3605 0 7
6.1661 3.4225 -2.7253 0.3605 0 7
6.1349 3.4781 -2.7253 0.3605 0 7
6.1031 3.5335 -2.7253 0.3605 0 7
6.0709 3.5886 -2.7253 0.3605 0 7
6.0382 3.6434 -2.7253 0.3605 0 7
6.0050 3.6979 -2.7253 0.3605 0 7
5.9713 3.7521 -2.7253 0.3605 0 7
5.9371 3.8059 -2.7253 0.3605 0 7
5.9024 3.8595 -2.7253 0.3605 0 7
5.8673 3.9127 -2.7253 0.3605 0 7
5.8316 3.9657 -2.7253 0.3605 0 7
5.7955 4.0183 -2.7253 0.3605 0 7
5.7589 4.0705 -2.7253 0.3605 0 7
5.7218 4.1225 -2.7253 0.3605 0 7
5.6843 4.1741 -2.7253 0.3605 0 7
5.6463 4.2254 -2.7253 0.3605 0 7
5.6061 4.2750 -2.7245 0.3702 0 8
5.5655 4.3242 -2.7237 0.3703 0 8
5.5245 4.3731 -2.7229 0.3704 0 8
5.4831 4.4216 -2.7221 0.3705 0 8
5.4413 4.4697 -2.7213 0.3707 0 8
5.3990 4.5174 -2.7205 0.3708 0 8
5.3564 4.5648 -2.7197 0.3709 0 8
5.3133 4.6117 -2.7189 0.3710 0 8
5.2698 4.6583 -2.7181 0.3711 0 8
5.2043 4.6849 -2.7061 0.6902 0 8
5.1169 4.6907 -2.6825 0.6962 0 8
5.0359 4.7011 -2.6623 0.7560 0 8
4.9575 4.7125 -2.6433 0.7614 0 8
4.8802 4.7238 -2.6248 0.7668 0 8
4.8056 4.7366 -2.6076 0.7970 0 8
4.7309 4.7482 -2.5903 0.7740 0 8
4.6600 4.7623 -2.5749 0.3794 0 8
4.6144 4.8019 -2.5736 0.3796 0 8
4.5731 4.8460 -2.5750 0.3568 0 8
4.5285 4.8865 -2.5746 0.3569 0 8
4.4856 4.9290 -2.5755 0.7876 0 8
4.4364 4.9644 -2.5729 0.3605 0 8
4.3913 5.0044 -2.5729 0.3605 0 8
4.3459 5.0439 -2.5729 0.3605 0 8
4.3000 5.0830 -2.5729 0.3605 0 8
4.2539 5.1217 -2.5729 0.3605 0 8
4.2074 5.1600 -2.5729 0.3605 0 8
4.1605 5.1979 -2.5729 0.3605 0 8
4.1133 5.2353 -2.5729 0.3605 0 8
4.0658 5.2723 -2.5729 0.3605 0 8
4.0179 5.3089 -2.5729 0.3605 0 8
3.9697 5.3450 -2.5729 0.3605 0 8
3.9211 5.3807 -2.5729 0.3605 0 8
3.8723 5.4160 -2.5729 0.3605 0 8
3.8231 5.4508 -2.5729 0.3605 0 8
3.7737 5.4852 -2.5729 0.3605 0 8
3.7239 5.5191 -2.5729 0.3605 0 8
3.6738 5.5525 -2.5729 0.3605 0 8
3.6234 5.5856 -2.5729 0.3605 0 8
3.5727 5.6181 -2.5729 0.3605 0 8
3.5217 5.6502 -2.5729 0.3605 0 8
3.4705 5.6818 -2.5729 0.3605 0 8
3.4189 5.7130 -2.5729 0.3605 0 8
3.3671 5.7437 -2.5729 0.3605 0 8
3.3150 5.7739 -2.5729 0.3605 0 8
3.2626 5.8037 -2.5729 0.3605 0 8
3.2099 5.8330 -2.5729 0.3605 0 8
3.1570 5.8618 -2.5729 0.3605 0 8
3.1039 5.8901 -2.5729 0.3605 0 8
3.0504 5.9180 -2.5729 0.3605 0 8
2.9968 5.9453 -2.5729 0.3605 0 8
2.9428 5.9722 -2.5729 0.3605 0 8
2.8887 5.9986 -2.5729 0.3605 0 8
2.8343 6.0245 -2.5729 0.3605 0 8
2.7797 6.0499 -2.5729 0.3605 0 8
2.7248 6.0748 -2.5729 0.3605 0 8
2.6697 6.0992 -2.5729 0.3605 0 8
2.6144 6.1231 -2.5729 0.3605 0 8
2.5431 6.1086 -2.5571 0.9340 0 5
2.4841 6.1223 -2.5533 0.9354 0 5
2.4252 6.1360 -2.5497 0.9367 0 5
2.3665 6.1496 -2.5464 0.9379 0 5
2.3079 6.1632 -2.5433 0.9391 0 5
2.2783 6.2559 -2.5729 0.3605 0 8
2.2216 6.2763 -2.5729 0.3605 0 8
2.1647 6.2961 -2.5729 0.3605 0 8
2.1077 6.3155 -2.5729 0.3605 0 8
2.0505 6.3343 -2.5729 0.3605 0 8
1.9931 6.3526 -2.5729 0.3605 0 8
1.9355 6.3704 -2.5729 0.3605 0 8
1.8778 6.3876 -2.5729 0.3605 0 8
1.8199 6.4043 -2.5729 0.3605 0 8
1.7619 6.4205 -2.5729 0.3605 0 8
1.7037 6.4362 -2.5729 0.3605 0 8
1.6454 6.4514 -2.5729 0.3605 0 8
1.5870 6.4660 -2.5729 0.3605 0 8
1.5284 6.4801 -2.5729 0.3605 0 8
1.4697 6.4936 -2.5729 0.3605 0 8
1.4109 6.5067 -2.5729 0.3605 0 8
1.3519 6.5192 -2.5729 0.3605 0 8
1.2929 6.5311 -2.5729 0.3605 0 8
1.2337 6.5426 -2.5729 0.3605 0 8
1.1745 6.5535 -2.5729 0.3605 0 8
1.1152 6.5638 -2.5729 0.3605 0 8
1.0557 6.5737 -2.5729 0.3605 0 8
0.9962 6.5829 -2.5729 0.3605 0 8
0.9366 6.5917 -2.5729 0.3605 0 8
0.8769 6.5999 -2.5729 0.3605 0 8
0.8172 6.6075 -2.5729 0.3605 0 8
0.7573 6.6147 -2.5729 0.3605 0 8
0.6975 6.6212 -2.5729 0.3605 0 8
0.6375 6.6273 -2.5729 0.3605 0 8
0.5775 6.6328 -2.5729 0.3605 0 8
0.5175 6.6377 -2.5729 0.3605 0 8
0.4574 6.6422 -2.5729 0.3605 0 8
0.3973 6.6460 -2.5729 0.3605 0 8
0.3371 6.6494 -2.5729 0.3605 0 8
0.2769 6.6521 -2.5729 0.3605 0 8
0.2167 6.6544 -2.5729 0.3605 0 8
0.1565 6.6560 -2.5729 0.3605 0 8
0.0963 6.6572 -2.5729 0.3605 0 8
0.0361 6.6578 -2.5729 0.3605 0 8
-0.0242 6.6578 -2.5729 0.3605 0 8
-0.0844 6.6573 -2.5729 0.3605 0 8
-0.1447 6.6563 -2.5729 0.3605 0 8
-0.2049 6.6547 -2.5729 0.3605 0 8
-0.2651 6.6526 -2.5729 0.3605 0 8
-0.3253 6.6499 -2.5729 0.3605 0 8
-0.3854 6.6467 -2.5729 0.3605 0 8
-0.4456 6.6430 -2.5729 0.3605 0 8
-0.5056 6.6387 -2.5729 0.3605 0 8
-0.5657 6.6338 -2.5729 0.3605 0 8
-0.6257 6.6284 -2.5729 0.3605 0 8
-0.6856 6.6225 -2.5729 0.3605 0 8
-0.7455 6.6160 -2.5729 0.3605 0 8
-0.8054 6.6090 -2.5729 0.3605 0 8
-0.8651 6.6014 -2.5729 0.3605 0 8
-0.9248 6.5933 -2.5729 0.3605 0 8
-0.9845 6.5847 -2.5729 0.3605 0 8
-1.0440 6.5755 -2.5729 0.3605 0 8
-1.1034 6.5658 -2.5729 0.3605 0 8
-1.1628 6.5556 -2.5729 0.3605 0 8
-1.2221 6.5448 -2.5729 0.3605 0 8
-1.2812 6.5334 -2.5729 0.3605 0 8
-1.3403 6.5216 -2.5729 0.3605 0 8
-1.3993 6.5092 -2.5729 0.3605 0 8
-1.4581 6.4962 -2.5729 0.3605 0 8
-1.5168 6.4828 -2.5729 0.3605 0 8
-1.5754 6.4688 -2.5729 0.3605 0 8
-1.6339 6.4543 -2.5729 0.3605 0 8
-1.6922 6.4392 -2.5729 0.3605 0 8
-1.7504 6.4237 -2.5729 0.3605 0 8
-1.8085 6.4076 -2.5729 0.3605 0 8
-1.8664 6.3909 -2.5729 0.3605 0 8
-1.9241 6.3738 -2.5729 0.3605 0 8
-1.9817 6.3561 -2.5729 0.3605 0 8
-2.0392 6.3379 -2.5729 0.3605 0 8
-2.0964 6.3192 -2.5729 0.3605 0 8
-2.1535 6.3000 -2.5729 0.3605 0 8
-2.2104 6.2802 -2.5729 0.3605 0 8
-2.2743 6.2798 -2.5811 0.8344 0 8
-2.3439 6.2933 -2.5952 0.8298 0 8
-2.4142 6.3069 -2.6098 0.8252 0 8
-2.4852 6.3207 -2.6247 0.8205 0 8
-2.5571 6.3346 -2.6399 0.8158 0 8
-2.6298 6.3486 -2.6556 0.8110 0 8
-2.7034 6.3627 -2.6716 0.8061 0 8
-2.7778 6.3770 -2.6880 0.8012 0 8
-2.8532 6.3915 -2.7049 0.7954 0 8
-2.9249 6.3959 -2.7179 0.3729 0 8
-2.9833 6.3707 -2.7185 0.3728 0 8
-3.0416 6.3449 -2.7192 0.3727 0 8
-3.0996 6.3187 -2.7198 0.3726 0 8
-3.1574 6.2919 -2.7205 0.3725 0 8
-3.2150 6.2647 -2.7212 0.3725 0 8
-3.2724 6.2369 -2.7219 0.3724 0 8
-3.3295 6.2086 -2.7225 0.3723 0 8
-3.3864 6.1798 -2.7232 0.3722 0 8
-3.4431 6.1505 -2.7239 0.3721 0 8
-3.4995 6.1207 -2.7247 0.3720 0 8
-3.5557 6.0903 -2.7253 0.3605 0 7
-3.6106 6.0579 -2.7253 0.3605 0 7
-3.6653 6.0249 -2.7253 0.3605 0 7
-3.7197 5.9915 -2.7253 0.3605 0 7
-3.7737 5.9576 -2.7253 0.3605 0 7
-3.8275 5.9232 -2.7253 0.3605 0 7
-3.8809 5.8884 -2.7253 0.3605 0 7
-3.9340 5.8530 -2.7253 0.3605 0 7
-3.9868 5.8172 -2.7253 0.3605 0 7
-4.0393 5.7808 -2.7253 0.3605 0 7
-4.0914 5.7441 -2.7253 0.3605 0 7
-4.1432 5.7068 -2.7253 0.3605 0 7
-4.1947 5.6691 -2.7253 0.3605 0 7
-4.2458 5.6309 -2.7253 0.3605 0 7
-4.2966 5.5923 -2.7253 0.3605 0 7
-4.3470 5.5531 -2.7253 0.3605 0 7
-4.3971 5.5136 -2.7253 0.3605 0 7
-4.4468 5.4736 -2.7253 0.3605 0 7
-4.4962 5.4331 -2.7253 0.3605 0 7
-4.5451 5.3922 -2.7253 0.3605 0 7
-4.5937 5.3509 -2.7253 0.3605 0 7
-4.6420 5.3091 -2.7253 0.3605 0 7
-4.6898 5.2669 -2.7253 0.3605 0 7
-4.7373 5.2242 -2.7253 0.3605 0 7
-4.7844 5.1811 -2.7253 0.3605 0 7
-4.8310 5.1376 -2.7253 0.3605 0 7
-4.8773 5.0937 -2.7253 0.3605 0 7
-4.9232 5.0494 -2.7253 0.3605 0 7
-4.9687 5.0046 -2.7253 0.3605 0 7
-5.0138 4.9595 -2.7253 0.3605 0 7
-5.0585 4.9139 -2.7253 0.3605 0 7
-5.1027 4.8679 -2.7253 0.3605 0 7
-5.1465 4.8215 -2.7253 0.3605 0 7
-5.1900 4.7748 -2.7253 0.3605 0 7
-5.2330 4.7276 -2.7253 0.3605 0 7
-5.2755 4.6801 -2.7253 0.3605 0 7
-5.3176 4.6321 -2.7253 0.3605 0 7
-5.3593 4.5838 -2.7253 0.3605 0 7
-5.4006 4.5352 -2.7253 0.3605 0 6
-5.4414 4.4861 -2.7253 0.3605 0 6
-5.4818 4.4367 -2.7253 0.3605 0 6
-5.5217 4.3869 -2.7253 0.3605 0 7
-5.5612 4.3368 -2.7253 0.3605 0 7
-5.6002 4.2863 -2.7253 0.3605 0 7
-5.6387 4.2354 -2.7253 0.3605 0 7
-5.6768 4.1842 -2.7253 0.3605 0 7
-5.7145 4.1327 -2.7253 0.3605 0 7
-5.7516 4.0808 -2.7253 0.3605 0 7
-5.7883 4.0286 -2.7253 0.3605 0 7
-5.8245 3.9761 -2.7253 0.3605 0 7
-5.8603 3.9232 -2.7253 0.3605 0 7
-5.8955 3.8700 -2.7253 0.3605 0 7
-5.9303 3.8165 -2.7253 0.3605 0 7
-5.9646 3.7627 -2.7253 0.3605 0 7
-5.9984 3.7086 -2.7253 0.3605 0 7
-6.0317 3.6541 -2.7253 0.3605 0 7
-6.0645 3.5994 -2.7253 0.3605 0 7
-6.0968 3.5444 -2.7253 0.3605 0 7
-6.1287 3.4891 -2.7253 0.3605 0 7
-6.1600 3.4335 -2.7253 0.3605 0 7
-6.1908 3.3776 -2.7253 0.3605 0 7
-6.2211 3.3214 -2.7253 0.3605 0 7
-6.2509 3.2650 -2.7253 0.3605 0 7
-6.2802 3.2083 -2.7253 0.3605 0 7
-6.3090 3.1514 -2.7253 0.3605 0 7
-6.3372 3.0942 -2.7253 0.3605 0 7
-6.3650 3.0367 -2.7253 0.3605 0 7
-6.3922 2.9790 -2.7253 0.3605 0 7
-6.4189 2.9210 -2.7253 0.3605 0 7
-6.4450 2.8628 -2.7253 0.3605 0 7
-6.4707 2.8044 -2.7253 0.3605 0 7
-6.4958 2.7457 -2.7253 0.3605 0 7
-6.5204 2.6868 -2.7253 0.3605 0 7
-6.5444 2.6277 -2.7253 0.3605 0 7
-6.5679 2.5684 -2.7253 0.3605 0 7
-6.5909 2.5089 -2.7253 0.3605 0 7
-6.6133 2.4491 -2.7253 0.3605 0 7
-6.6352 2.3892 -2.7253 0.3605 0 7
-6.6565 2.3290 -2.7253 0.3605 0 7
-6.6773 2.2687 -2.7253 0.3605 0 7
-6.6976 2.2082 -2.7253 0.3605 0 7
-6.7173 2.1475 -2.7253 0.3605 0 7
-6.7365 2.0867 -2.7253 0.3605 0 7
-6.7551 2.0256 -2.7253 0.3605 0 7
-6.7731 1.9644 -2.7253 0.3605 0 7
-6.7906 1.9030 -2.7253 0.3605 0 7
-6.8076 1.8415 -2.7253 0.3605 0 7
-6.8239 1.7799 -2.7253 0.3605 0 7
-6.8398 1.7180 -2.7253 0.3605 0 7
-6.8550 1.6561 -2.7253 0.3605 0 7
-6.8697 1.5940 -2.7253 0.3605 0 7
-6.8839 1.5318 -2.7253 0.3605 0 7
-6.8975 1.4694 -2.7253 0.3605 0 7
-6.9105 1.4069 -2.7253 0.3605 0 7
-6.9229 1.3443 -2.7253 0.3605 0 7
-6.9348 1.2817 -2.7253 0.3605 0 7
-6.9461 1.2188 -2.7253 0.3605 0 7
-6.9569 1.1559 -2.7253 0.3605 0 7
-6.9670 1.0929 -2.7253 0.3605 0 7
-6.9766 1.0299 -2.7253 0.3605 0 7
-6.9857 0.9667 -2.7253 0.3605 0 7
-6.9941 0.9035 -2.7253 0.3605 0 7
-7.0020 0.8401 -2.7253 0.3605 0 7
-7.0093 0.7767 -2.7253 0.3605 0 7
-7.0161 0.7133 -2.7253 0.3605 0 7
-7.0222 0.6498 -2.7253 0.3605 0 7
-7.0278 0.5862 -2.7253 0.3605 0 7
-7.0329 0.5226 -2.7253 0.3605 0 7
-7.0373 0.4589 -2.7253 0.3605 0 7
-7.0412 0.3952 -2.7253 0.3605 0 7
-7.0444 0.3315 -2.7253 0.3605 0 7
-7.0472 0.2678 -2.7253 0.3605 0 7
-7.0493 0.2040 -2.7253 0.3605 0 7
-7.0508 0.1402 -2.7253 0.3605 0 7
-7.0518 0.0764 -2.7253 0.3605 0 7
-7.0522 0.0126 -2.7253 0.3605 0 7
-7.0521 -0.0512 -2.7253 0.3605 0 7
-7.0513 -0.1150 -2.7253 0.3605 0 7
-7.0500 -0.1788 -2.7253 0.3605 0 7
-7.0481 -0.2426 -2.7253 0.3605 0 7
-7.0456 -0.3064 -2.7253 0.3605 0 7
-7.0425 -0.3701 -2.7253 0.3605 0 7
-7.0389 -0.4338 -2.7253 0.3605 0 7
-7.0347 -0.4975 -2.7253 0.3605 0 7
-7.0299 -0.5611 -2.7253 0.3605 0 7
-7.0245 -0.6247 -2.7253 0.3605 0 7
-7.0186 -0.6882 -2.7253 0.3605 0 7
-7.0121 -0.7517 -2.7253 0.3605 0 7
-7.0050 -0.8152 -2.7253 0.3605 0 7
-6.9973 -0.8785 -2.7253 0.3605 0 7
-6.9891 -0.9418 -2.7253 0.3605 0 7
-6.9803 -1.0050 -2.7253 0.3605 0 7
-6.9709 -1.0681 -2.7253 0.3605 0 7
-6.9609 -1.1311 -2.7253 0.3605 0 7
-6.9504 -1.1941 -2.7253 0.3605 0 7
-6.9393 -1.2569 -2.7253 0.3605 0 7
-6.9277 -1.3196 -2.7253 0.3605 0 7
-6.9154 -1.3823 -2.7253 0.3605 0 7
-6.9027 -1.4448 -2.7253 0.3605 0 7
-6.8893 -1.5072 -2.7253 0.3605 0 7
-6.8754 -1.5695 -2.7253 0.3605 0 7
-6.8609 -1.6316 -2.7253 0.3605 0 7
-6.8458 -1.6936 -2.7253 0.3605 0 7
-6.8302 -1.7555 -2.7253 0.3605 0 7
-6.8141 -1.8172 -2.7253 0.3605 0 7
-6.7974 -1.8788 -2.7253 0.3605 0 7
-6.7801 -1.9402 -2.7253 0.3605 0 7
-6.7622 -2.0015 -2.7253 0.3605 0 7
-6.7439 -2.0626 -2.7253 0.3605 0 7
-6.7249 -2.1235 -2.7253 0.3605 0 7
-6.7054 -2.1843 -2.7253 0.3605 0 7
-6.6854 -2.2449 -2.7253 0.3605 0 6
-6.6648 -2.3053 -2.7253 0.3605 0 6
-6.6437 -2.3655 -2.7253 0.3605 0 7
-6.6220 -2.4255 -2.7253 0.3605 0 7
-6.5998 -2.4853 -2.7253 0.3605 0 7
-6.5770 -2.5450 -2.7253 0.3605 0 6
-6.5537 -2.6044 -2.7253 0.3605 0 6
-6.5299 -2.6635 -2.7253 0.3605 0 7
-6.5055 -2.7225 -2.7253 0.3605 0 7
-6.4806 -2.7813 -2.7253 0.3605 0 7
-6.4552 -2.8398 -2.7253 0.3605 0 7
-6.4292 -2.8981 -2.7253 0.3605 0 7
-6.4028 -2.9562 -2.7253 0.3605 0 7
-6.3757 -3.0140 -2.7253 0.3605 0 7
-6.3482 -3.0715 -2.7253 0.3605 0 7
-6.3202 -3.1288 -2.7253 0.3605 0 7
-6.2916 -3.1859 -2.7253 0.3605 0 7
-6.2625 -3.2427 -2.7253 0.3605 0 7
-6.2329 -3.2992 -2.7253 0.3605 0 7
-6.2028 -3.3555 -2.7253 0.3605 0 7
-6.1722 -3.4115 -2.7253 0.3605 0 7
-6.1411 -3.4672 -2.7253 0.3605 0 7
-6.1094 -3.5226 -2.7253 0.3605 0 7
-6.0773 -3.5778 -2.7253 0.3605 0 7
-6.0447 -3.6326 -2.7253 0.3605 0 7
-6.0116 -3.6871 -2.7253 0.3605 0 7
-5.9780 -3.7414 -2.7253 0.3605 0 7
-5.9439 -3.7953 -2.7253 0.3605 0 7
-5.9093 -3.8490 -2.7253 0.3605 0 7
-5.8742 -3.9023 -2.7253 0.3605 0 7
-5.8387 -3.9553 -2.7253 0.3605 0 7
-5.8026 -4.0079 -2.7253 0.3605 0 7
-5.7661 -4.0603 -2.7253 0.3605 0 7
-5.7292 -4.1123 -2.7253 0.3605 0 7
-5.6917 -4.1639 -2.7253 0.3605 0 7
-5.6538 -4.2153 -2.7253 0.3605 0 7
-5.6154 -4.2663 -2.7253 0.3605 0 7
-5.5766 -4.3169 -2.7253 0.3605 0 7
-5.5373 -4.3672 -2.7253 0.3605 0 7
-5.4976 -4.4171 -2.7253 0.3605 0 7
-5.4574 -4.4667 -2.7253 0.3605 0 7
-5.4167 -4.5159 -2.7253 0.3605 0 7
-5.3757 -4.5647 -2.7253 0.3605 0 7
-5.3341 -4.6131 -2.7253 0.3605 0 7
-5.2922 -4.6612 -2.7253 0.3605 0 7
-5.2498 -4.7089 -2.7253 0.3605 0 7
-5.2070 -4.7562 -2.7253 0.3605 0 7
-5.1637 -4.8031 -2.7253 0.3605 0 7
-5.1200 -4.8497 -2.7253 0.3605 0 7
-5.0759 -4.8958 -2.7253 0.3605 0 7
-5.0314 -4.9415 -2.7253 0.3605 0 7
-4.9865 -4.9869 -2.7253 0.3605 0 7
-4.9412 -5.0318 -2.7253 0.3605 0 7
-4.8955 -5.0763 -2.7253 0.3605 0 7
-4.8493 -5.1203 -2.7253 0.3605 0 7
-4.8028 -5.1640 -2.7253 0.3605 0 7
-4.7559 -5.2073 -2.7253 0.3605 0 7
-4.7086 -5.2501 -2.7253 0.3605 0 7
-4.6609 -5.2925 -2.7253 0.3605 0 7
-4.6128 -5.3344 -2.7253 0.3605 0 7
-4.5643 -5.3760 -2.7253 0.3605 0 7
-4.5155 -5.4170 -2.7253 0.3605 0 7
-4.4663 -5.4577 -2.7253 0.3605 0 7
-4.4167 -5.4979 -2.7253 0.3605 0 7
-4.3668 -5.5376 -2.7253 0.3605 0 7
-4.3165 -5.5769 -2.7253 0.3605 0 7
-4.2659 -5.6157 -2.7253 0.3605 0 7
-4.2149 -5.6541 -2.7253 0.3605 0 7
-4.1636 -5.6920 -2.7253 0.3605 0 7
-4.1119 -5.7294 -2.7253 0.3605 0 7
-4.0599 -5.7664 -2.7253 0.3605 0 7
-4.0075 -5.8029 -2.7253 0.3605 0 7
-3.9549 -5.8389 -2.7253 0.3605 0 7
-3.9019 -5.8745 -2.7253 0.3605 0 7
-3.8486 -5.9095 -2.7253 0.3605 0 7
-3.7949 -5.9441 -2.7253 0.3605 0 7
-3.7410 -5.9782 -2.7253 0.3605 0 7
-3.6868 -6.0118 -2.7253 0.3605 0 7
-3.6322 -6.0449 -2.7253 0.3605 0 7
-3.5774 -6.0775 -2.7253 0.3605 0 7
-3.5222 -6.1097 -2.7253 0.3605 0 7
-3.4668 -6.1413 -2.7253 0.3605 0 7
-3.4111 -6.1724 -2.7253 0.3605 0 7
-3.3551 -6.2030 -2.7253 0.3605 0 7
-3.2988 -6.2331 -2.7253 0.3605 0 7
-3.2423 -6.2627 -2.7253 0.3605 0 7
-3.1855 -6.2918 -2.7253 0.3605 0 7
-3.1284 -6.3204 -2.7253 0.3605 0 7
-3.0711 -6.3484 -2.7253 0.3605 0 7
-3.0136 -6.3759 -2.7253 0.3605 0 7
-2.9557 -6.4029 -2.7253 0.3605 0 7
-2.8977 -6.4294 -2.7253 0.3605 0 7
-2.8394 -6.4554 -2.7253 0.3605 0 7
-2.7809 -6.4808 -2.7253 0.3605 0 7
-2.7221 -6.5057 -2.7253 0.3605 0 7
-2.6631 -6.5301 -2.7253 0.3605 0 7
-2.6039 -6.5539 -2.7253 0.3605 0 7
-2.5445 -6.5772 -2.7253 0.3605 0 7
-2.4849 -6.5999 -2.7253 0.3605 0 7
-2.4251 -6.6222 -2.7253 0.3605 0 7
-2.3651 -6.6438 -2.7253 0.3605 0 7
-2.3049 -6.6650 -2.7253 0.3605 0 7
-2.2445 -6.6855 -2.7253 0.3605 0 7
-2.1839 -6.7056 -2.7253 0.3605 0 7
-2.1231 -6.7251 -2.7253 0.3605 0 7
-2.0622 -6.7440 -2.7253 0.3605 0 7
-2.0011 -6.7624 -2.7253 0.3605 0 7
-1.9398 -6.7802 -2.7253 0.3605 0 7
-1.8784 -6.7975 -2.7253 0.3605 0 7
-1.8168 -6.8142 -2.7253 0.3605 0 7
-1.7551 -6.8304 -2.7253 0.3605 0 7
-1.6932 -6.8460 -2.7253 0.3605 0 7
-1.6312 -6.8610 -2.7253 0.3605 0 7
-1.5690 -6.8755 -2.7253 0.3605 0 7
-1.5067 -6.8894 -2.7253 0.3605 0 7
-1.4443 -6.9027 -2.7253 0.3605 0 7
-1.3818 -6.9155 -2.7253 0.3605 0 7
-1.3192 -6.9277 -2.7253 0.3605 0 7
-1.2565 -6.9394 -2.7253 0.3605 0 7
-1.1936 -6.9505 -2.7253 0.3605 0 7
-1.1307 -6.9610 -2.7253 0.3605 0 7
-1.0676 -6.9710 -2.7253 0.3605 0 7
-1.0045 -6.9803 -2.7253 0.3605 0 7
-0.9413 -6.9891 -2.7253 0.3605 0 7
-0.8780 -6.9974 -2.7253 0.3605 0 7
-0.8147 -7.0050 -2.7253 0.3605 0 7
-0.7513 -7.0121 -2.7253 0.3605 0 7
-0.6878 -7.0186 -2.7253 0.3605 0 7
-0.6243 -7.0246 -2.7253 0.3605 0 7
-0.5607 -7.0299 -2.7253 0.3605 0 7
-0.4970 -7.0347 -2.7253 0.3605 0 7
-0.4334 -7.0389 -2.7253 0.3605 0 7
-0.3697 -7.0425 -2.7253 0.3605 0 7
-0.3059 -7.0456 -2.7253 0.3605 0 7
-0.2422 -7.0481 -2.7253 0.3605 0 7
-0.1784 -7.0500 -2.7253 0.3605 0 7
-0.1146 -7.0513 -2.7253 0.3605 0 7
-0.0508 -7.0521 -2.7253 0.3605 0 7
0.0130 -7.0522 -2.7253 0.3605 0 7
0.0769 -7.0518 -2.7253 0.3605 0 7
0.1407 -7.0508 -2.7253 0.3605 0 7
0.2044 -7.0493 -2.7253 0.3605 0 7
0.2682 -7.0471 -2.7253 0.3605 0 7
0.3320 -7.0444 -2.7253 0.3605 0 7
0.3957 -7.0411 -2.7253 0.3605 0 7
0.4594 -7.0373 -2.7253 0.3605 0 7
0.5231 -7.0328 -2.7253 0.3605 0 7
0.5867 -7.0278 -2.7253 0.3605 0 7
0.6502 -7.0222 -2.7253 0.3605 0 7
0.7138 -7.0160 -2.7253 0.3605 0 7
0.7772 -7.0093 -2.7253 0.3605 0 7
0.8406 -7.0020 -2.7253 0.3605 0 7
0.9039 -6.9941 -2.7253 0.3605 0 7
0.9672 -6.9856 -2.7253 0.3605 0 7
1.0303 -6.9766 -2.7253 0.3605 0 7
1.0934 -6.9670 -2.7253 0.3605 0 7
1.1564 -6.9568 -2.7253 0.3605 0 7
1.2193 -6.9460 -2.7253 0.3605 0 7
1.2821 -6.9347 -2.7253 0.3605 0 7
1.3448 -6.9228 -2.7253 0.3605 0 7
1.4074 -6.9104 -2.7253 0.3605 0 7
1.4698 -6.8974 -2.7253 0.3605 0 7
1.5322 -6.8838 -2.7253 0.3605 0 7
1.5944 -6.8696 -2.7253 0.3605 0 7
1.6565 -6.8549 -2.7253 0.3605 0 7
1.7185 -6.8396 -2.7253 0.3605 0 7
1.7803 -6.8238 -2.7253 0.3605 0 7
1.8420 -6.8074 -2.7253 0.3605 0 7
1.9035 -6.7905 -2.7253 0.3605 0 7
1.9649 -6.7730 -2.7253 0.3605 0 7
2.0261 -6.7549 -2.7253 0.3605 0 7
2.0871 -6.7363 -2.7253 0.3605 0 7
2.1480 -6.7172 -2.7253 0.3605 0 7
2.2087 -6.6974 -2.7253 0.3605 0 7
2.2692 -6.6772 -2.7253 0.3605 0 7
2.3295 -6.6564 -2.7253 0.3605 0 7
2.3896 -6.6350 -2.7253 0.3605 0 7
2.4496 -6.6131 -2.7253 0.3605 0 7
2.5093 -6.5907 -2.7253 0.3605 0 7
2.5688 -6.5677 -2.7253 0.3605 0 7
2.6282 -6.5442 -2.7253 0.3605 0 7
2.6873 -6.5202 -2.7253 0.3605 0 7
2.7461 -6.4956 -2.7253 0.3605 0 7
2.8048 -6.4705 -2.7253 0.3605 0 7
2.8632 -6.4448 -2.7253 0.3605 0 7
2.9214 -6.4187 -2.7253 0.3605 0 7
2.9794 -6.3920 -2.7253 0.3605 0 7
3.0371 -6.3648 -2.7253 0.3605 0 7
3.0946 -6.3370 -2.7253 0.3605 0 7
3.1518 -6.3087 -2.7253 0.3605 0 7
3.2087 -6.2800 -2.7253 0.3605 0 7
3.2654 -6.2507 -2.7253 0.3605 0 7
3.3219 -6.2209 -2.7253 0.3605 0 7
3.3780 -6.1906 -2.7253 0.3605 0 7
3.4339 -6.1597 -2.7253 0.3605 0 7
3.4895 -6.1284 -2.7253 0.3605 0 7
3.5448 -6.0966 -2.7253 0.3605 0 7
3.5998 -6.0643 -2.7253 0.3605 0 7
3.6545 -6.0315 -2.7253 0.3605 0 7
3.7090 -5.9981 -2.7253 0.3605 0 7
3.7631 -5.9643 -2.7253 0.3605 0 7
3.8169 -5.9300 -2.7253 0.3605 0 7
3.8704 -5.8953 -2.7253 0.3605 0 7
3.9236 -5.8600 -2.7253 0.3605 0 7
3.9764 -5.8243 -2.7253 0.3605 0 7
4.0290 -5.7880 -2.7253 0.3605 0 7
4.0812 -5.7513 -2.7253 0.3605 0 7
4.1331 -5.7142 -2.7253 0.3605 0 7
4.1846 -5.6765 -2.7253 0.3605 0 7
4.2358 -5.6385 -2.7253 0.3605 0 7
4.2866 -5.5999 -2.7253 0.3605 0 7
4.3371 -5.5609 -2.7253 0.3605 0 7
4.3873 -5.5214 -2.7253 0.3605 0 7
4.4370 -5.4815 -2.7253 0.3605 0 6
4.4865 -5.4411 -2.7253 0.3605 0 6
4.5355 -5.4003 -2.7253 0.3605 0 6
4.5842 -5.3590 -2.7253 0.3605 0 6
4.6325 -5.3173 -2.7253 0.3605 0 6
4.6804 -5.2752 -2.7253 0.3605 0 6
4.7279 -5.2326 -2.7253 0.3605 0 6
4.7751 -5.1896 -2.7253 0.3605 0 6
4.8219 -5.1462 -2.7253 0.3605 0 6
4.8682 -5.1024 -2.7253 0.3605 0 7
4.9142 -5.0581 -2.7253 0.3605 0 7
4.9598 -5.0134 -2.7253 0.3605 0 7
5.0049 -4.9684 -2.7253 0.3605 0 7
5.0497 -4.9229 -2.7253 0.3605 0 7
5.0940 -4.8770 -2.7253 0.3605 0 7
5.1379 -4.8307 -2.7253 0.3605 0 7
5.1814 -4.7840 -2.7253 0.3605 0 7
5.2245 -4.7369 -2.7253 0.3605 0 7
5.2672 -4.6895 -2.7253 0.3605 0 7
5.3094 -4.6416 -2.7253 0.3605 0 6
5.3512 -4.5934 -2.7253 0.3605 0 6
5.3925 -4.5448 -2.7253 0.3605 0 6
5.4334 -4.4958 -2.7253 0.3605 0 6
5.4739 -4.4465 -2.7253 0.3605 0 6
5.5139 -4.3967 -2.7253 0.3605 0 6
5.5534 -4.3467 -2.7253 0.3605 0 6
5.5925 -4.2962 -2.7253 0.3605 0 6
5.6312 -4.2455 -2.7253 0.3605 0 6
5.6694 -4.1943 -2.7253 0.3605 0 7
5.7071 -4.1429 -2.7253 0.3605 0 7
5.7443 -4.0910 -2.7253 0.3605 0 7
5.7811 -4.0389 -2.7253 0.3605 0 7
5.8174 -3.9864 -2.7253 0.3605 0 7
5.8532 -3.9336 -2.7253 0.3605 0 7
5.8886 -3.8805 -2.7253 0.3605 0 7
5.9235 -3.8271 -2.7253 0.3605 0 7
5.9579 -3.7733 -2.7253 0.3605 0 7
5.9918 -3.7193 -2.7253 0.3605 0 6
6.0252 -3.6649 -2.7253 0.3605 0 6
6.0581 -3.6102 -2.7253 0.3605 0 6
6.0905 -3.5552 -2.7253 0.3605 0 6
6.1224 -3.5000 -2.7253 0.3605 0 6
6.1538 -3.4445 -2.7253 0.3605 0 6
6.1848 -3.3886 -2.7253 0.3605 0 6
6.2152 -3.3325 -2.7253 0.3605 0 6
6.2451 -3.2762 -2.7253 0.3605 0 7
6.2744 -3.2195 -2.7253 0.3605 0 7
6.3033 -3.1626 -2.7253 0.3605 0 7
6.3317 -3.1055 -2.7253 0.3605 0 7
6.3595 -3.0480 -2.7253 0.3605 0 7
6.3868 -2.9904 -2.7253 0.3605 0 7
6.4136 -2.9325 -2.7253 0.3605 0 7
6.4399 -2.8743 -2.7253 0.3605 0 7
6.4657 -2.8159 -2.7253 0.3605 0 6
6.4909 -2.7573 -2.7253 0.3605 0 6
6.5156 -2.6985 -2.7253 0.3605 0 6
6.5397 -2.6394 -2.7253 0.3605 0 6
6.5633 -2.5801 -2.7253 0.3605 0 6
6.5864 -2.5206 -2.7253 0.3605 0 6
6.6089 -2.4609 -2.7253 0.3605 0 6
6.6309 -2.4010 -2.7253 0.3605 0 6
6.6524 -2.3409 -2.7253 0.3605 0 7
6.6733 -2.2806 -2.7253 0.3605 0 7
6.6937 -2.2202 -2.7253 0.3605 0 7
6.7135 -2.1595 -2.7253 0.3605 0 7
6.7327 -2.0987 -2.7253 0.3605 0 7
6.7514 -2.0377 -2.7253 0.3605 0 7
6.7696 -1.9765 -2.7253 0.3605 0 7
6.7872 -1.9151 -2.7253 0.3605 0 7
6.8043 -1.8537 -2.7253 0.3605 0 6
6.8208 -1.7920 -2.7253 0.3605 0 6
6.8367 -1.7302 -2.7253 0.3605 0 6
6.8521 -1.6683 -2.7253 0.3605 0 6
6.8669 -1.6062 -2.7253 0.3605 0 6
6.8811 -1.5440 -2.7253 0.3605 0 6
6.8948 -1.4817 -2.7253 0.3605 0 6
6.9079 -1.4193 -2.7253 0.3605 0 6
6.9205 -1.3567 -2.7253 0.3605 0 7
6.9325 -1.2940 -2.7253 0.3605 0 7
6.9439 -1.2312 -2.7253 0.3605 0 7
6.9548 -1.1684 -2.7253 0.3605 0 7
6.9651 -1.1054 -2.7253 0.3605 0 7
6.9748 -1.0423 -2.7253 0.3605 0 7
6.9839 -0.9792 -2.7253 0.3605 0 7
6.9925 -0.9159 -2.7253 0.3605 0 7
7.0005 -0.8526 -2.7253 0.3605 0 6
7.0079 -0.7892 -2.7253 0.3605 0 6
7.0148 -0.7258 -2.7253 0.3605 0 6
7.0211 -0.6623 -2.7253 0.3605 0 6
7.0268 -0.5987 -2.7253 0.3605 0 6
7.0319 -0.5351 -2.7253 0.3605 0 6
7.0365 -0.4715 -2.7253 0.3605 0 6
7.0404 -0.4078 -2.7253 0.3605 0 6
7.0438 -0.3441 -2.7253 0.3605 0 7
7.0467 -0.2803 -2.7253 0.3605 0 7
7.0489 -0.2166 -2.7253 0.3605 0 7
7.0506 -0.1528 -2.7253 0.3605 0 7
7.0517 -0.0890 -2.7253 0.3605 0 7
7.0522 -0.0252 -2.7253 0.3605 0 7
7.0521 0.0387 -2.7253 0.3605 0 7
7.0515 0.1025 -2.7253 0.3605 0 7
7.0503 0.1663 -2.7253 0.3605 0 7
7.0485 0.2300 -2.7253 0.3605 0 6
7.0461 0.2938 -2.7253 0.3605 0 6
7.0432 0.3576 -2.7253 0.3605 0 6
7.0396 0.4213 -2.7253 0.3605 0 6
7.0355 0.4850 -2.7253 0.3605 0 6
7.0309 0.5486 -2.7253 0.3605 0 6
7.0256 0.6122 -2.7253 0.3605 0 6
7.0198 0.6757 -2.7253 0.3605 0 6
7.0134 0.7392 -2.7253 0.3605 0 7
7.0064 0.8027 -2.7253 0.3605 0 7
6.9989 0.8660 -2.7253 0.3605 0 7
6.9907 0.9293 -2.7253 0.3605 0 7
6.9821 0.9925 -2.7253 0.3605 0 7
6.9728 1.0557 -2.7253 0.3605 0 7
6.9629 1.1187 -2.7253 0.3605 0 7
6.9525 1.1817 -2.7253 0.3605 0 7
6.9416 1.2445 -2.7253 0.3605 0 6
6.9300 1.3073 -2.7253 0.3605 0 6
6.9179 1.3699 -2.7253 0.3605 0 6
6.9052 1.4325 -2.7253 0.3605 0 6
6.8920 1.4949 -2.7253 0.3605 0 6
6.8782 1.5572 -2.7253 0.3605 0 6
6.8638 1.6194 -2.7253 0.3605 0 6
6.8489 1.6814 -2.7253 0.3605 0 6
6.8334 1.7433 -2.7253 0.3605 0 6
6.8173 1.8051 -2.7253 0.3605 0 7
6.8007 1.8667 -2.7253 0.3605 0 7
6.7835 1.9281 -2.7253 0.3605 0 7
6.7658 1.9894 -2.7253 0.3605 0 7
6.7475 2.0506 -2.7253 0.3605 0 7
6.7287 2.1116 -2.7253 0.3605 0 7
6.7093 2.1724 -2.7253 0.3605 0 7
6.6894 2.2330 -2.7253 0.3605 0 7
6.6689 2.2934 -2.7253 0.3605 0 7
6.6479 2.3537 -2.7253 0.3605 0 6
6.6263 2.4137 -2.7253 0.3605 0 6
6.6042 2.4736 -2.7253 0.3605 0 6
6.5815 2.5332 -2.7253 0.3605 0 6
6.5584 2.5927 -2.7253 0.3605 0 6
6.5346 2.6519 -2.7253 0.3605 0 6
6.5104 2.7109 -2.7253 0.3605 0 6
6.4856 2.7697 -2.7253 0.3605 0 6
6.4602 2.8283 -2.7253 0.3605 0 6
6.4344 2.8866 -2.7253 0.3605 0 6
6.4080 2.9447 -2.7253 0.3605 0 7
6.3811 3.0026 -2.7253 0.3605 0 7
6.3537 3.0602 -2.7253 0.3605 0 7
6.3257 3.1176 -2.7253 0.3605 0 7
6.2973 3.1747 -2.7253 0.3605 0 7
6.2683 3.2315 -2.7253 0.3605 0 7
6.2388 3.2881 -2.7253 0.3605 0 7
6.2088 3.3444 -2.7253 0.3605 0 7
6.1783 3.4005 -2.7253 0.3605 0 7
6.1472 3.4562 -2.7253 0.3605 0 7
6.1157 3.5117 -2.7253 0.3605 0 7
6.0837 3.5669 -2.7253 0.3605 0 7
6.0512 3.6218 -2.7253 0.3605 0 7
6.0181 3.6764 -2.7253 0.3605 0 7
5.9846 3.7307 -2.7253 0.3605 0 7
5.9506 3.7847 -2.7253 0.3605 0 7
5.9161 3.8384 -2.7253 0.3605 0 7
5.8812 3.8918 -2.7253 0.3605 0 7
5.8457 3.9448 -2.7253 0.3605 0 7
5.8098 3.9976 -2.7253 0.3605 0 7
5.7734 4.0500 -2.7253 0.3605 0 7
5.7365 4.1020 -2.7253 0.3605 0 7
5.6991 4.1538 -2.7253 0.3605 0 7
5.6613 4.2052 -2.7253 0.3605 0 7
5.6220 4.2555 -2.7249 0.3702 0 8
5.5816 4.3049 -2.7240 0.3703 0 8
5.5408 4.3539 -2.7232 0.3704 0 8
5.4995 4.4025 -2.7224 0.3705 0 8
5.4578 4.4508 -2.7216 0.3706 0 8
5.4157 4.4987 -2.7208 0.3707 0 8
5.3732 4.5462 -2.7200 0.3708 0 8
5.3303 4.5933 -2.7192 0.3709 0 8
5.2870 4.6400 -2.7184 0.3710 0 8
5.2392 4.6826 -2.7155 0.6878 0 8
5.1512 4.6884 -2.6918 0.6938 0 8
5.0671 4.6965 -2.6699 0.7538 0 8
4.9883 4.7081 -2.6507 0.7593 0 8
4.9106 4.7194 -2.6320 0.7647 0 8
4.8346 4.7313 -2.6142 0.7949 0 8
4.7607 4.7440 -2.5973 0.7719 0 8
4.6856 4.7545 -2.5797 0.7772 0 8
4.6324 4.7864 -2.5741 0.3795 0 8
4.5877 4.8268 -2.5735 0.2863 0 8
4.5461 4.8706 -2.5748 0.3569 0 8
4.5013 4.9109 -2.5744 0.3569 0 8
4.4541 4.9486 -2.5729 0.3605 0 8
4.4091 4.9887 -2.5729 0.3605 0 8
4.3638 5.0284 -2.5729 0.3605 0 8
4.3181 5.0676 -2.5729 0.3605 0 8
4.2721 5.1065 -2.5729 0.3605 0 8
4.2257 5.1450 -2.5729 0.3605 0 8
4.1790 5.1830 -2.5729 0.3605 0 8
4.1319 5.2206 -2.5729 0.3605 0 8
4.0845 5.2578 -2.5729 0.3605 0 8
4.0368 5.2945 -2.5729 0.3605 0 8
3.9887 5.3308 -2.5729 0.3605 0 8
3.9403 5.3667 -2.5729 0.3605 0 8
3.8916 5.4021 -2.5729 0.3605 0 8
3.8426 5.4371 -2.5729 0.3605 0 8
3.7932 5.4717 -2.5729 0.3605 0 8
3.7435 5.5057 -2.5729 0.3605 0 8
3.6936 5.5394 -2.5729 0.3605 0 8
3.6433 5.5726 -2.5729 0.3605 0 8
3.5927 5.6053 -2.5729 0.3605 0 8
3.5419 5.6376 -2.5729 0.3605 0 8
3.4907 5.6694 -2.5729 0.3605 0 8
3.4393 5.7008 -2.5729 0.3605 0 8
3.3875 5.7317 -2.5729 0.3605 0 8
3.3355 5.7621 -2.5729 0.3605 0 8
3.2833 5.7920 -2.5729 0.3605 0 8
3.2307 5.8215 -2.5729 0.3605 0 8
3.1779 5.8505 -2.5729 0.3605 0 8
3.1249 5.8790 -2.5729 0.3605 0 8
3.0715 5.9070 -2.5729 0.3605 0 8
3.0180 5.9346 -2.5729 0.3605 0 8
2.9641 5.9617 -2.5729 0.3605 0 8
2.9101 5.9882 -2.5729 0.3605 0 8
2.8558 6.0143 -2.5729 0.3605 0 8
2.8012 6.0399 -2.5729 0.3605 0 8
2.7465 6.0650 -2.5729 0.3605 0 8
2.6915 6.0896 -2.5729 0.3605 0 8
2.6363 6.1137 -2.5729 0.3605 0 8
2.5665 6.1031 -2.5586 0.9335 0 5
2.5074 6.1169 -2.5548 0.9349 0 5
2.4484 6.1306 -2.5511 0.9362 0 5
2.3896 6.1442 -2.5477 0.9374 0 5
2.3310 6.1579 -2.5445 0.9386 0 5
2.2871 6.2110 -2.5578 0.1333 0 5
2.2440 6.2683 -2.5729 0.3605 0 8
6.6058 0.0000 -2.7253 0.3814 0 7
6.6056 0.0598 -2.7253 0.3814 0 7
6.6048 0.1195 -2.7253 0.3814 0 7
6.6034 0.1793 -2.7253 0.3814 0 7
6.6015 0.2390 -2.7253 0.3814 0 7
6.5991 0.2988 -2.7253 0.3814 0 6
6.5961 0.3585 -2.7253 0.3814 0 6
6.5926 0.4181 -2.7253 0.3814 0 6
6.5885 0.4778 -2.7253 0.3814 0 6
6.5839 0.5374 -2.7253 0.3814 0 6
6.5788 0.5969 -2.7253 0.3814 0 6
6.5731 0.6564 -2.7253 0.3814 0 6
6.5669 0.7159 -2.7253 0.3814 0 6
6.5602 0.7753 -2.7253 0.3814 0 6
6.5529 0.8346 -2.7253 0.3814 0 7
6.5451 0.8938 -2.7253 0.3814 0 7
6.5367 0.9530 -2.7253 0.3814 0 7
6.5278 1.0121 -2.7253 0.3814 0 7
6.5184 1.0712 -2.7253 0.3814 0 7
6.5084 1.1301 -2.7253 0.3814 0 7
6.4980 1.1889 -2.7253 0.3814 0 7
6.4869 1.2477 -2.7253 0.3814 0 7
6.4754 1.3063 -2.7253 0.3814 0 7
6.4633 1.3649 -2.7253 0.3814 0 6
6.4507 1.4233 -2.7253 0.3814 0 6
6.4375 1.4816 -2.7253 0.3814 0 6
6.4239 1.5398 -2.7253 0.3814 0 6
6.4097 1.5979 -2.7253 0.3814 0 6
6.3950 1.6558 -2.7253 0.3814 0 6
6.3797 1.7136 -2.7253 0.3814 0 6
6.3639 1.7712 -2.7253 0.3814 0 6
6.3477 1.8287 -2.7253 0.3814 0 6
6.3308 1.8861 -2.7253 0.3814 0 6
6.3135 1.9433 -2.7253 0.3814 0 7
6.2957 2.0004 -2.7253 0.3814 0 7
6.2773 2.0572 -2.7253 0.3814 0 7
6.2584 2.1140 -2.7253 0.3814 0 7
6.2391 2.1705 -2.7253 0.3814 0 7
6.2192 2.2269 -2.7253 0.3814 0 7
6.1988 2.2830 -2.7253 0.3814 0 7
6.1779 2.3390 -2.7253 0.3814 0 7
6.1564 2.3948 -2.7253 0.3814 0 7
6.1345 2.4505 -2.7253 0.3814 0 7
6.1121 2.5059 -2.7253 0.3814 0 6
6.0892 2.5611 -2.7253 0.3814 0 7
6.0657 2.6160 -2.7253 0.3814 0 7
6.0418 2.6708 -2.7253 0.3814 0 7
6.0174 2.7254 -2.7253 0.3814 0 7
5.9925 2.7797 -2.7253 0.3814 0 7
5.9671 2.8338 -2.7253 0.3814 0 7
5.9412 2.8877 -2.7253 0.3814 0 7
5.9149 2.9413 -2.7253 0.3814 0 7
5.8880 2.9947 -2.7253 0.3814 0 7
5.8607 3.0479 -2.7253 0.3814 0 7
5.8328 3.1008 -2.7253 0.3814 0 7
5.8045 3.1535 -2.7253 0.3814 0 7
5.7758 3.2059 -2.7253 0.3814 0 7
5.7465 3.2580 -2.7253 0.3814 0 7
5.7168 3.3098 -2.7253 0.3814 0 7
5.6866 3.3614 -2.7253 0.3814 0 7
5.6560 3.4128 -2.7253 0.3814 0 7
