ply
format ascii 1.0
element vertex 1354
property float32 x
property float32 y
property float32 z
property float32 CosAngle
property uint32 ObjIdx
property uint32 ObjTag
end_header
-16.2701 14.2039 -2.6272 0.1208 0 8
-16.3979 14.0562 -2.6272 0.1208 0 8
-16.5243 13.9073 -2.6272 0.1208 0 8
-16.6495 13.7573 -2.6272 0.1208 0 8
-16.7732 13.6061 -2.6272 0.1208 0 8
-16.8956 13.4539 -2.6272 0.1208 0 8
-17.0165 13.3005 -2.6272 0.1208 0 8
-17.1362 13.1461 -2.6272 0.1208 0 8
-17.2543 12.9906 -2.6272 0.1208 0 8
-17.3711 12.8340 -2.6272 0.1208 0 8
-17.4865 12.6763 -2.6272 0.1208 0 8
-17.6004 12.5177 -2.6272 0.1208 0 8
-17.7129 12.3580 -2.6272 0.1208 0 8
-17.8239 12.1973 -2.6272 0.1208 0 8
-17.9335 12.0356 -2.6272 0.1208 0 8
-18.0417 11.8729 -2.6272 0.1208 0 8
-18.1483 11.7092 -2.6272 0.1208 0 8
-18.2535 11.5446 -2.6272 0.1208 0 8
-18.3795 11.3929 -2.6304 0.3033 0 8
-18.9629 11.5185 -2.6989 0.3166 0 8
-19.5830 11.6540 -2.7720 0.1257 0 8
-19.7104 11.4897 -2.7752 0.1255 0 8
-19.8366 11.3241 -2.7785 0.1254 0 8
-19.9464 11.1488 -2.7796 0.1208 0 7
-20.0464 10.9680 -2.7796 0.1208 0 7
-20.1448 10.7862 -2.7796 0.1208 0 7
-20.2415 10.6036 -2.7796 0.1208 0 7
-20.3366 10.4201 -2.7796 0.1208 0 7
-20.4300 10.2357 -2.7796 0.1208 0 7
-20.5217 10.0505 -2.7796 0.1208 0 7
-20.6118 9.8645 -2.7796 0.1208 0 7
-20.7002 9.6777 -2.7796 0.1208 0 7
-20.7868 9.4901 -2.7796 0.1208 0 6
-20.8718 9.3017 -2.7796 0.1208 0 7
-20.9551 9.1125 -2.7796 0.1208 0 7
-21.0367 8.9227 -2.7796 0.1208 0 7
-21.1165 8.7320 -2.7796 0.1208 0 7
-21.1946 8.5407 -2.7796 0.1208 0 7
-21.2710 8.3487 -2.7796 0.1208 0 7
-21.3456 8.1559 -2.7796 0.1208 0 7
-21.4185 7.9625 -2.7796 0.1208 0 7
-21.4897 7.7685 -2.7796 0.1208 0 7
-21.5590 7.5738 -2.7796 0.1208 0 7
-21.6267 7.3785 -2.7796 0.1208 0 7
-21.6925 7.1826 -2.7796 0.1208 0 7
-21.7566 6.9861 -2.7796 0.1208 0 7
-21.8189 6.7891 -2.7796 0.1208 0 7
-21.8794 6.5915 -2.7796 0.1208 0 7
-21.9381 6.3933 -2.7796 0.1208 0 7
-21.9950 6.1946 -2.7796 0.1208 0 7
-22.0502 5.9955 -2.7796 0.1208 0 7
-22.1035 5.7958 -2.7796 0.1208 0 7
-22.1550 5.5956 -2.7796 0.1208 0 7
-22.2047 5.3950 -2.7796 0.1208 0 7
-22.2526 5.1940 -2.7796 0.1208 0 7
-22.2987 4.9925 -2.7796 0.1208 0 7
-22.3429 4.7906 -2.7796 0.1208 0 7
-22.3853 4.5884 -2.7796 0.1208 0 7
-22.4259 4.3857 -2.7796 0.1208 0 7
-22.4646 4.1827 -2.7796 0.1208 0 7
-22.5016 3.9794 -2.7796 0.1208 0 7
-22.5366 3.7757 -2.7796 0.1208 0 7
-22.5698 3.5717 -2.7796 0.1208 0 7
-22.6012 3.3675 -2.7796 0.1208 0 7
-22.6307 3.1629 -2.7796 0.1208 0 7
-22.6584 2.9581 -2.7796 0.1208 0 7
-22.6843 2.7530 -2.7796 0.1208 0 6
-22.7082 2.5478 -2.7796 0.1208 0 6
-22.7303 2.3423 -2.7796 0.1208 0 7
-22.7506 2.1366 -2.7796 0.1208 0 7
-22.7690 1.9308 -2.7796 0.1208 0 7
-22.7855 1.7248 -2.7796 0.1208 0 7
-22.8002 1.5186 -2.7796 0.1208 0 7
-22.8130 1.3123 -2.7796 0.1208 0 7
-22.8239 1.1060 -2.7796 0.1208 0 7
-22.8330 0.8995 -2.7796 0.1208 0 7
-22.8402 0.6929 -2.7796 0.1208 0 7
-22.8455 0.4863 -2.7796 0.1208 0 7
-22.8490 0.2797 -2.7796 0.1208 0 7
-22.8506 0.0730 -2.7796 0.1208 0 6
-22.8503 -0.1336 -2.7796 0.1208 0 7
-22.8482 -0.3403 -2.7796 0.1208 0 7
-22.8442 -0.5469 -2.7796 0.1208 0 7
-22.8383 -0.7535 -2.7796 0.1208 0 7
-22.8305 -0.9600 -2.7796 0.1208 0 7
-22.8209 -1.1665 -2.7796 0.1208 0 7
-22.8094 -1.3728 -2.7796 0.1208 0 7
-22.7961 -1.5791 -2.7796 0.1208 0 7
-22.7809 -1.7852 -2.7796 0.1208 0 6
-22.7638 -1.9911 -2.7796 0.1208 0 6
-22.7449 -2.1969 -2.7796 0.1208 0 7
-22.7241 -2.4026 -2.7796 0.1208 0 7
-22.7014 -2.6080 -2.7796 0.1208 0 7
-22.6769 -2.8132 -2.7796 0.1208 0 7
-22.6505 -3.0182 -2.7796 0.1208 0 7
-22.6223 -3.2229 -2.7796 0.1208 0 7
-22.5922 -3.4274 -2.7796 0.1208 0 7
-22.5603 -3.6315 -2.7796 0.1208 0 7
-22.5265 -3.8354 -2.7796 0.1208 0 7
-22.4909 -4.0390 -2.7796 0.1208 0 7
-22.4535 -4.2423 -2.7796 0.1208 0 7
-22.4142 -4.4452 -2.7796 0.1208 0 7
-22.3729 -4.6477 -2.7796 0.1208 0 6
-22.3301 -4.8499 -2.7796 0.1208 0 7
-22.2853 -5.0516 -2.7796 0.1208 0 7
-22.2387 -5.2530 -2.7796 0.1208 0 7
-22.1903 -5.4539 -2.7796 0.1208 0 7
-22.1401 -5.6544 -2.7796 0.1208 0 7
-22.0880 -5.8544 -2.7796 0.1208 0 7
-22.0342 -6.0539 -2.7796 0.1208 0 7
-21.9785 -6.2529 -2.7796 0.1208 0 7
-21.9211 -6.4515 -2.7796 0.1208 0 7
-21.8618 -6.6495 -2.7796 0.1208 0 7
-21.7944 -6.8449 -2.7788 0.1294 0 8
-21.7098 -7.0347 -2.7760 0.1296 0 8
-21.6237 -7.2235 -2.7732 0.1297 0 8
-21.3890 -7.3608 -2.7516 0.5493 0 8
-21.0379 -7.4535 -2.7149 0.5567 0 8
-20.6958 -7.5436 -2.6795 0.5641 0 8
-20.3625 -7.6315 -2.6452 0.5714 0 8
-20.1547 -7.7622 -2.6272 0.1208 0 8
-20.0837 -7.9442 -2.6272 0.1208 0 8
-20.0111 -8.1255 -2.6272 0.1208 0 8
-19.9368 -8.3062 -2.6272 0.1208 0 8
-19.8608 -8.4861 -2.6272 0.1208 0 8
-19.7833 -8.6654 -2.6272 0.1208 0 8
-19.7041 -8.8440 -2.6272 0.1208 0 8
-19.6233 -9.0218 -2.6272 0.1208 0 8
-19.5409 -9.1989 -2.6272 0.1208 0 8
-19.4569 -9.3753 -2.6272 0.1208 0 8
-19.3713 -9.5509 -2.6272 0.1208 0 8
-19.2841 -9.7257 -2.6272 0.1208 0 8
-19.1954 -9.8997 -2.6272 0.1208 0 8
-19.1051 -10.0729 -2.6272 0.1208 0 8
-19.0132 -10.2453 -2.6272 0.1208 0 8
-18.9197 -10.4168 -2.6272 0.1208 0 8
-18.8248 -10.5875 -2.6272 0.1208 0 8
-18.7282 -10.7573 -2.6272 0.1208 0 8
-18.6302 -10.9263 -2.6272 0.1208 0 8
-18.5306 -11.0943 -2.6272 0.1208 0 8
-18.4295 -11.2615 -2.6272 0.1208 0 8
-18.3269 -11.4277 -2.6272 0.1208 0 8
-18.2228 -11.5930 -2.6272 0.1208 0 8
-18.1172 -11.7573 -2.6272 0.1208 0 8
-18.0101 -11.9207 -2.6272 0.1208 0 8
-17.9016 -12.0831 -2.6272 0.1208 0 8
-17.7916 -12.2445 -2.6272 0.1208 0 8
-17.6801 -12.4049 -2.6272 0.1208 0 8
-17.5672 -12.5643 -2.6272 0.1208 0 8
-17.4528 -12.7227 -2.6272 0.1208 0 8
-17.3370 -12.8800 -2.6272 0.1208 0 8
-17.2198 -13.0363 -2.6272 0.1208 0 8
-17.1012 -13.1915 -2.6272 0.1208 0 8
-16.9812 -13.3456 -2.6272 0.1208 0 8
-16.8598 -13.4986 -2.6272 0.1208 0 8
-16.7370 -13.6506 -2.6272 0.1208 0 8
-16.6129 -13.8014 -2.6272 0.1208 0 8
-16.4874 -13.9511 -2.6272 0.1208 0 8
-16.3605 -14.0996 -2.6272 0.1208 0 8
-16.2324 -14.2470 -2.6272 0.1208 0 8
-16.1028 -14.3932 -2.6272 0.1208 0 8
-15.9720 -14.5383 -2.6272 0.1208 0 8
-15.8399 -14.6822 -2.6272 0.1208 0 8
-15.7064 -14.8248 -2.6272 0.1208 0 8
-15.5717 -14.9663 -2.6272 0.1208 0 8
-15.4357 -15.1065 -2.6272 0.1208 0 8
-15.2987 -15.2454 -2.6272 0.1208 0 8
-15.1600 -15.3832 -2.6272 0.1208 0 8
-15.0202 -15.5197 -2.6272 0.1208 0 8
-14.8792 -15.6549 -2.6272 0.1208 0 8
-14.7370 -15.7888 -2.6272 0.1208 0 8
-14.5936 -15.9215 -2.6272 0.1208 0 8
-14.4490 -16.0528 -2.6272 0.1208 0 8
-14.3032 -16.1828 -2.6272 0.1208 0 8
-14.1563 -16.3115 -2.6272 0.1208 0 8
-14.0082 -16.4389 -2.6272 0.1208 0 8
-13.8589 -16.5649 -2.6272 0.1208 0 8
-13.7052 -16.6905 -2.6272 0.1208 0 8
-13.5571 -16.8129 -2.6272 0.1208 0 8
-13.4044 -16.9348 -2.6272 0.1208 0 8
-13.2507 -17.0554 -2.6272 0.1208 0 8
-13.0959 -17.1745 -2.6272 0.1208 0 8
-12.9401 -17.2922 -2.6272 0.1208 0 8
-12.7832 -17.4086 -2.6272 0.1208 0 8
-12.6252 -17.5235 -2.6272 0.1208 0 8
-12.4662 -17.6369 -2.6272 0.1208 0 8
-12.3062 -17.7490 -2.6272 0.1208 0 8
-12.1451 -17.8595 -2.6272 0.1208 0 8
-11.9831 -17.9686 -2.6272 0.1208 0 8
-11.8201 -18.0763 -2.6272 0.1208 0 8
-11.6561 -18.1825 -2.6272 0.1208 0 8
-11.4912 -18.2871 -2.6272 0.1208 0 8
-11.3253 -18.3903 -2.6272 0.1208 0 8
-11.1586 -18.4920 -2.6272 0.1208 0 8
-10.9909 -18.5922 -2.6272 0.1208 0 8
-10.8223 -18.6908 -2.6272 0.1208 0 8
-10.6528 -18.7879 -2.6272 0.1208 0 8
-10.4824 -18.8835 -2.6272 0.1208 0 8
-10.3112 -18.9775 -2.6272 0.1208 0 8
-10.1391 -19.0700 -2.6272 0.1208 0 8
-9.9662 -19.1609 -2.6272 0.1208 0 8
-9.7925 -19.2503 -2.6272 0.1208 0 8
-9.6180 -19.3381 -2.6272 0.1208 0 8
-9.4427 -19.4242 -2.6272 0.1208 0 8
-9.2667 -19.5089 -2.6272 0.1208 0 8
-9.0899 -19.5919 -2.6272 0.1208 0 8
-8.9123 -19.6733 -2.6272 0.1208 0 8
-8.7340 -19.7531 -2.6272 0.1208 0 8
-8.5550 -19.8313 -2.6272 0.1208 0 8
-8.3753 -19.9078 -2.6272 0.1208 0 8
-8.1949 -19.9828 -2.6272 0.1208 0 8
-8.0138 -20.0561 -2.6272 0.1208 0 8
-7.8321 -20.1277 -2.6272 0.1208 0 8
-7.6497 -20.1977 -2.6272 0.1208 0 8
-7.4668 -20.2661 -2.6272 0.1208 0 8
-7.2832 -20.3328 -2.6272 0.1208 0 8
-7.0990 -20.3978 -2.6272 0.1208 0 8
-6.9142 -20.4612 -2.6272 0.1208 0 8
-6.7289 -20.5229 -2.6272 0.1208 0 8
-6.5430 -20.5829 -2.6272 0.1208 0 8
-6.3565 -20.6413 -2.6272 0.1208 0 8
-6.1696 -20.6979 -2.6272 0.1208 0 8
-5.9822 -20.7529 -2.6272 0.1208 0 8
-5.7942 -20.8061 -2.6272 0.1208 0 8
-5.6058 -20.8577 -2.6272 0.1208 0 8
-5.4169 -20.9075 -2.6272 0.1208 0 8
-5.2276 -20.9557 -2.6272 0.1208 0 8
-5.0379 -21.0021 -2.6272 0.1208 0 8
-4.8477 -21.0468 -2.6272 0.1208 0 8
-4.6572 -21.0898 -2.6272 0.1208 0 8
-4.4662 -21.1310 -2.6272 0.1208 0 8
-4.2749 -21.1705 -2.6272 0.1208 0 8
-4.0833 -21.2083 -2.6272 0.1208 0 8
-3.8913 -21.2444 -2.6272 0.1208 0 8
-3.6990 -21.2787 -2.6272 0.1208 0 8
-3.5064 -21.3113 -2.6272 0.1208 0 8
-3.3135 -21.3422 -2.6272 0.1208 0 8
-3.1204 -21.3713 -2.6272 0.1208 0 8
-2.9269 -21.3986 -2.6272 0.1208 0 8
-2.7333 -21.4242 -2.6272 0.1208 0 8
-2.5394 -21.4480 -2.6272 0.1208 0 8
-2.3453 -21.4701 -2.6272 0.1208 0 8
-2.1510 -21.4905 -2.6272 0.1208 0 8
-1.2370 -13.5983 -1.6609 0.8475 0 5
-1.7620 -21.5259 -2.6272 0.1208 0 8
-1.5672 -21.5409 -2.6272 0.1208 0 8
-1.3723 -21.5542 -2.6272 0.1208 0 8
-1.1773 -21.5657 -2.6272 0.1208 0 8
-0.9822 -21.5755 -2.6272 0.1208 0 8
-0.7871 -21.5835 -2.6272 0.1208 0 8
-0.5918 -21.5897 -2.6272 0.1208 0 8
-0.3965 -21.5942 -2.6272 0.1208 0 8
-0.2012 -21.5969 -2.6272 0.1208 0 8
-0.0059 -21.5978 -2.6272 0.1208 0 8
0.1894 -21.5970 -2.6272 0.1208 0 8
0.3848 -21.5944 -2.6272 0.1208 0 8
0.5801 -21.5901 -2.6272 0.1208 0 8
0.7753 -21.5839 -2.6272 0.1208 0 8
0.9705 -21.5760 -2.6272 0.1208 0 8
1.1656 -21.5664 -2.6272 0.1208 0 8
1.3606 -21.5550 -2.6272 0.1208 0 8
1.5555 -21.5418 -2.6272 0.1208 0 8
1.7502 -21.5268 -2.6272 0.1208 0 8
1.9449 -21.5101 -2.6272 0.1208 0 8
2.1393 -21.4916 -2.6272 0.1208 0 8
2.3336 -21.4714 -2.6272 0.1208 0 8
2.5277 -21.4494 -2.6272 0.1208 0 8
2.7216 -21.4257 -2.6272 0.1208 0 8
2.9153 -21.4002 -2.6272 0.1208 0 8
3.1087 -21.3730 -2.6272 0.1208 0 8
3.3019 -21.3440 -2.6272 0.1208 0 8
3.4948 -21.3132 -2.6272 0.1208 0 8
3.6874 -21.2808 -2.6272 0.1208 0 8
3.8797 -21.2465 -2.6272 0.1208 0 8
4.0717 -21.2106 -2.6272 0.1208 0 8
4.2634 -21.1729 -2.6272 0.1208 0 8
4.4547 -21.1335 -2.6272 0.1208 0 8
4.2470 -19.2823 -2.4018 0.9911 0 19
4.8362 -21.0494 -2.6272 0.1208 0 8
5.0264 -21.0048 -2.6272 0.1208 0 8
5.2162 -20.9585 -2.6272 0.1208 0 8
5.4055 -20.9105 -2.6272 0.1208 0 8
5.5947 -20.8608 -2.6272 0.1208 0 8
5.7833 -20.8094 -2.6272 0.1208 0 8
5.9703 -20.7560 -2.6272 0.1208 0 8
6.1585 -20.7013 -2.6272 0.1208 0 8
6.3449 -20.6446 -2.6272 0.1208 0 8
6.5317 -20.5865 -2.6272 0.1208 0 8
6.7177 -20.5266 -2.6272 0.1208 0 8
6.9030 -20.4650 -2.6272 0.1208 0 8
7.0878 -20.4017 -2.6272 0.1208 0 8
7.2721 -20.3368 -2.6272 0.1208 0 8
7.4557 -20.2702 -2.6272 0.1208 0 8
7.6387 -20.2019 -2.6272 0.1208 0 8
7.8211 -20.1320 -2.6272 0.1208 0 8
8.0029 -20.0604 -2.6272 0.1208 0 8
8.1840 -19.9872 -2.6272 0.1208 0 8
8.3644 -19.9124 -2.6272 0.1208 0 8
8.5442 -19.8359 -2.6272 0.1208 0 8
8.7232 -19.7579 -2.6272 0.1208 0 8
8.9015 -19.6781 -2.6272 0.1208 0 8
9.0791 -19.5968 -2.6272 0.1208 0 8
9.2560 -19.5139 -2.6272 0.1208 0 8
9.4321 -19.4294 -2.6272 0.1208 0 8
9.6075 -19.3433 -2.6272 0.1208 0 8
9.7820 -19.2556 -2.6272 0.1208 0 8
9.9558 -19.1664 -2.6272 0.1208 0 8
10.1287 -19.0755 -2.6272 0.1208 0 8
10.3008 -18.9831 -2.6272 0.1208 0 8
10.4721 -18.8893 -2.6272 0.1208 0 8
10.6425 -18.7937 -2.6272 0.1208 0 8
10.8120 -18.6967 -2.6272 0.1208 0 8
10.9807 -18.5982 -2.6272 0.1208 0 8
11.1485 -18.4981 -2.6272 0.1208 0 8
11.3153 -18.3965 -2.6272 0.1208 0 8
11.4812 -18.2934 -2.6272 0.1208 0 8
11.6462 -18.1888 -2.6272 0.1208 0 8
11.8102 -18.0827 -2.6272 0.1208 0 8
11.9733 -17.9752 -2.6272 0.1208 0 8
12.1354 -17.8662 -2.6272 0.1208 0 8
12.2965 -17.7557 -2.6272 0.1208 0 8
12.4566 -17.6437 -2.6272 0.1208 0 8
12.6156 -17.5303 -2.6272 0.1208 0 8
12.7737 -17.4155 -2.6272 0.1208 0 8
12.9306 -17.2993 -2.6272 0.1208 0 8
13.0866 -17.1816 -2.6272 0.1208 0 8
13.2414 -17.0626 -2.6272 0.1208 0 8
13.3952 -16.9421 -2.6272 0.1208 0 8
13.5479 -16.8203 -2.6272 0.1208 0 8
13.6995 -16.6970 -2.6272 0.1208 0 8
13.8499 -16.5725 -2.6272 0.1208 0 8
13.9992 -16.4465 -2.6272 0.1208 0 8
14.1474 -16.3193 -2.6272 0.1208 0 8
14.5029 -16.4268 -2.6655 0.4126 0 8
14.9528 -16.6307 -2.7204 0.3563 0 8
15.3929 -16.8119 -2.7727 0.1255 0 8
15.5625 -16.6914 -2.7760 0.1254 0 8
15.7312 -16.5694 -2.7792 0.1252 0 8
15.8825 -16.4286 -2.7796 0.1208 0 7
16.0305 -16.2843 -2.7796 0.1208 0 7
16.1771 -16.1387 -2.7796 0.1208 0 7
16.3224 -15.9917 -2.7796 0.1208 0 7
16.4664 -15.8434 -2.7796 0.1208 0 6
16.6090 -15.6938 -2.7796 0.1208 0 6
16.7502 -15.5430 -2.7796 0.1208 0 6
16.8901 -15.3909 -2.7796 0.1208 0 7
17.0286 -15.2375 -2.7796 0.1208 0 7
17.1658 -15.0828 -2.7796 0.1208 0 6
17.3015 -14.9270 -2.7796 0.1208 0 6
17.4358 -14.7699 -2.7796 0.1208 0 6
17.5686 -14.6116 -2.7796 0.1208 0 7
17.7001 -14.4521 -2.7796 0.1208 0 7
17.8300 -14.2914 -2.7796 0.1208 0 7
17.9586 -14.1296 -2.7796 0.1208 0 7
18.0856 -13.9666 -2.7796 0.1208 0 7
18.2112 -13.8024 -2.7796 0.1208 0 7
18.3353 -13.6371 -2.7796 0.1208 0 7
18.4579 -13.4708 -2.7796 0.1208 0 7
18.5790 -13.3033 -2.7796 0.1208 0 7
18.6985 -13.1347 -2.7796 0.1208 0 7
18.8165 -12.9650 -2.7796 0.1208 0 7
18.9330 -12.7944 -2.7796 0.1208 0 7
19.0480 -12.6226 -2.7796 0.1208 0 7
19.1614 -12.4498 -2.7796 0.1208 0 7
19.2732 -12.2760 -2.7796 0.1208 0 7
19.3834 -12.1012 -2.7796 0.1208 0 7
19.4921 -11.9254 -2.7796 0.1208 0 7
19.5991 -11.7486 -2.7796 0.1208 0 7
19.7046 -11.5708 -2.7796 0.1208 0 7
19.8084 -11.3922 -2.7796 0.1208 0 7
19.9106 -11.2125 -2.7796 0.1208 0 7
20.0112 -11.0320 -2.7796 0.1208 0 7
20.1102 -10.8506 -2.7796 0.1208 0 7
20.2075 -10.6683 -2.7796 0.1208 0 7
20.3032 -10.4851 -2.7796 0.1208 0 7
20.3972 -10.3010 -2.7796 0.1208 0 7
20.4895 -10.1161 -2.7796 0.1208 0 7
20.5801 -9.9304 -2.7796 0.1208 0 7
20.6691 -9.7438 -2.7796 0.1208 0 7
20.7564 -9.5565 -2.7796 0.1208 0 7
20.8420 -9.3684 -2.7796 0.1208 0 7
20.9259 -9.1795 -2.7796 0.1208 0 7
21.0080 -8.9899 -2.7796 0.1208 0 7
21.0885 -8.7995 -2.7796 0.1208 0 7
21.1672 -8.6084 -2.7796 0.1208 0 7
21.2442 -8.4166 -2.7796 0.1208 0 7
21.3194 -8.2241 -2.7796 0.1208 0 7
21.3929 -8.0310 -2.7796 0.1208 0 7
21.4647 -7.8372 -2.7796 0.1208 0 7
21.5347 -7.6427 -2.7796 0.1208 0 7
21.6030 -7.4476 -2.7796 0.1208 0 7
21.6694 -7.2520 -2.7796 0.1208 0 7
21.7341 -7.0557 -2.7796 0.1208 0 7
21.7971 -6.8588 -2.7796 0.1208 0 7
21.8582 -6.6614 -2.7796 0.1208 0 7
21.9175 -6.4634 -2.7796 0.1208 0 7
21.9751 -6.2649 -2.7796 0.1208 0 7
22.0309 -6.0659 -2.7796 0.1208 0 7
22.0848 -5.8664 -2.7796 0.1208 0 7
22.1370 -5.6664 -2.7796 0.1208 0 7
22.1873 -5.4660 -2.7796 0.1208 0 7
22.2359 -5.2651 -2.7796 0.1208 0 7
22.2826 -5.0638 -2.7796 0.1208 0 7
22.3274 -4.8621 -2.7796 0.1208 0 7
22.3705 -4.6599 -2.7796 0.1208 0 7
22.4117 -4.4574 -2.7796 0.1208 0 7
22.4511 -4.2545 -2.7796 0.1208 0 7
22.4887 -4.0513 -2.7796 0.1208 0 7
22.5244 -3.8477 -2.7796 0.1208 0 7
22.5583 -3.6439 -2.7796 0.1208 0 7
22.5903 -3.4397 -2.7796 0.1208 0 7
22.6205 -3.2352 -2.7796 0.1208 0 7
22.6489 -3.0305 -2.7796 0.1208 0 7
22.6753 -2.8256 -2.7796 0.1208 0 7
22.7000 -2.6204 -2.7796 0.1208 0 7
22.7227 -2.4150 -2.7796 0.1208 0 7
22.7437 -2.2093 -2.7796 0.1208 0 7
22.7627 -2.0035 -2.7796 0.1208 0 7
22.7799 -1.7976 -2.7796 0.1208 0 7
22.7952 -1.5915 -2.7796 0.1208 0 7
22.8087 -1.3853 -2.7796 0.1208 0 7
22.8203 -1.1789 -2.7796 0.1208 0 7
22.8300 -0.9725 -2.7796 0.1208 0 7
22.8379 -0.7660 -2.7796 0.1208 0 7
22.8439 -0.5594 -2.7796 0.1208 0 7
22.8480 -0.3527 -2.7796 0.1208 0 7
22.8502 -0.1461 -2.7796 0.1208 0 7
22.8506 0.0606 -2.7796 0.1208 0 7
22.8491 0.2672 -2.7796 0.1208 0 7
22.8458 0.4739 -2.7796 0.1208 0 7
22.8406 0.6805 -2.7796 0.1208 0 7
22.8335 0.8870 -2.7796 0.1208 0 7
22.8245 1.0935 -2.7796 0.1208 0 7
22.8137 1.2999 -2.7796 0.1208 0 7
22.8010 1.5062 -2.7796 0.1208 0 7
22.7865 1.7123 -2.7796 0.1208 0 7
22.7700 1.9184 -2.7796 0.1208 0 7
22.7518 2.1242 -2.7796 0.1208 0 7
22.7316 2.3299 -2.7796 0.1208 0 7
22.7096 2.5354 -2.7796 0.1208 0 7
22.6858 2.7407 -2.7796 0.1208 0 7
22.6523 2.9447 -2.7786 0.1164 0 8
21.3916 2.9778 -2.6272 0.1208 0 8
21.3638 3.1712 -2.6272 0.1208 0 8
21.3342 3.3642 -2.6272 0.1208 0 8
21.3029 3.5571 -2.6272 0.1208 0 8
21.2699 3.7496 -2.6272 0.1208 0 8
21.2351 3.9418 -2.6272 0.1208 0 8
21.1986 4.1337 -2.6272 0.1208 0 8
21.1603 4.3252 -2.6272 0.1208 0 8
21.1203 4.5165 -2.6272 0.1208 0 8
21.0786 4.7073 -2.6272 0.1208 0 8
21.0352 4.8977 -2.6272 0.1208 0 8
20.9900 5.0878 -2.6272 0.1208 0 8
20.9432 5.2774 -2.6272 0.1208 0 8
20.8946 5.4666 -2.6272 0.1208 0 8
15.1585 4.1128 -1.9106 0.7809 0 5
20.7923 5.8436 -2.6272 0.1208 0 8
20.7386 6.0315 -2.6272 0.1208 0 8
20.6832 6.2188 -2.6272 0.1208 0 8
20.6261 6.4056 -2.6272 0.1208 0 8
20.5673 6.5919 -2.6272 0.1208 0 8
20.5068 6.7776 -2.6272 0.1208 0 8
20.4447 6.9628 -2.6272 0.1208 0 8
20.3809 7.1475 -2.6272 0.1208 0 8
20.3154 7.3315 -2.6272 0.1208 0 8
20.2483 7.5149 -2.6272 0.1208 0 8
20.1795 7.6978 -2.6272 0.1208 0 8
20.1090 7.8799 -2.6272 0.1208 0 8
20.0369 8.0615 -2.6272 0.1208 0 8
19.9632 8.2424 -2.6272 0.1208 0 8
19.8879 8.4226 -2.6272 0.1208 0 8
19.8109 8.6021 -2.6272 0.1208 0 8
19.7323 8.7809 -2.6272 0.1208 0 8
19.6520 8.9590 -2.6272 0.1208 0 8
19.5702 9.1365 -2.6272 0.1208 0 8
19.4868 9.3130 -2.6272 0.1208 0 8
19.4017 9.4887 -2.6272 0.1208 0 8
19.3151 9.6640 -2.6272 0.1208 0 8
19.2269 9.8383 -2.6272 0.1208 0 8
19.1372 10.0118 -2.6272 0.1208 0 8
19.0458 10.1845 -2.6272 0.1208 0 8
18.9530 10.3563 -2.6272 0.1208 0 8
18.8585 10.5273 -2.6272 0.1208 0 8
18.7625 10.6974 -2.6272 0.1208 0 8
18.6650 10.8667 -2.6272 0.1208 0 8
18.5660 11.0350 -2.6272 0.1208 0 8
18.4654 11.2025 -2.6272 0.1208 0 8
18.3633 11.3690 -2.6272 0.1208 0 8
18.2598 11.5347 -2.6272 0.1208 0 8
18.1547 11.6993 -2.6272 0.1208 0 8
18.0481 11.8630 -2.6272 0.1208 0 8
17.9401 12.0258 -2.6272 0.1208 0 8
17.8306 12.1876 -2.6272 0.1208 0 8
17.7196 12.3483 -2.6272 0.1208 0 8
17.6072 12.5081 -2.6272 0.1208 0 8
17.4934 12.6668 -2.6272 0.1208 0 8
17.3781 12.8245 -2.6272 0.1208 0 8
17.2614 12.9812 -2.6272 0.1208 0 8
17.1433 13.1368 -2.6272 0.1208 0 8
17.0238 13.2912 -2.6272 0.1208 0 8
16.9029 13.4447 -2.6272 0.1208 0 8
16.7806 13.5970 -2.6272 0.1208 0 8
16.6569 13.7482 -2.6272 0.1208 0 8
16.5319 13.8983 -2.6272 0.1208 0 8
16.4055 14.0473 -2.6272 0.1208 0 8
16.2778 14.1950 -2.6272 0.1208 0 8
16.1488 14.3417 -2.6272 0.1208 0 8
16.0184 14.4872 -2.6272 0.1208 0 8
15.8867 14.6314 -2.6272 0.1208 0 8
15.7537 14.7745 -2.6272 0.1208 0 8
15.6195 14.9164 -2.6272 0.1208 0 8
15.4839 15.0571 -2.6272 0.1208 0 8
15.3471 15.1965 -2.6272 0.1208 0 8
15.2090 15.3347 -2.6272 0.1208 0 8
15.0697 15.4716 -2.6272 0.1208 0 8
14.9292 15.6073 -2.6272 0.1208 0 8
14.7874 15.7416 -2.6272 0.1208 0 8
14.6444 15.8747 -2.6272 0.1208 0 8
14.5003 16.0065 -2.6272 0.1208 0 8
14.3549 16.1370 -2.6272 0.1208 0 8
14.2084 16.2662 -2.6272 0.1208 0 8
14.0607 16.3940 -2.6272 0.1208 0 8
13.9118 16.5205 -2.6272 0.1208 0 8
13.7618 16.6457 -2.6272 0.1208 0 8
13.6107 16.7695 -2.6272 0.1208 0 8
13.4585 16.8919 -2.6272 0.1208 0 8
13.3052 17.0129 -2.6272 0.1208 0 8
13.1508 17.1325 -2.6272 0.1208 0 8
12.9953 17.2508 -2.6272 0.1208 0 8
12.8387 17.3676 -2.6272 0.1208 0 8
12.6811 17.4830 -2.6272 0.1208 0 8
12.5225 17.5970 -2.6272 0.1208 0 8
12.3628 17.7095 -2.6272 0.1208 0 8
12.2021 17.8206 -2.6272 0.1208 0 8
19.2277 0.0000 -2.7796 0.1431 0 7
19.2270 0.1739 -2.7796 0.1431 0 6
19.2246 0.3478 -2.7796 0.1431 0 6
19.2207 0.5216 -2.7796 0.1431 0 6
19.2152 0.6955 -2.7796 0.1431 0 7
19.2081 0.8692 -2.7796 0.1431 0 7
19.1994 1.0429 -2.7796 0.1431 0 7
19.1892 1.2165 -2.7796 0.1431 0 7
19.1774 1.3900 -2.7796 0.1431 0 6
19.1641 1.5634 -2.7796 0.1431 0 6
19.1492 1.7367 -2.7796 0.1431 0 6
19.1327 1.9098 -2.7796 0.1431 0 7
19.1121 2.0825 -2.7792 0.1441 0 8
19.0724 2.2529 -2.7763 0.1442 0 8
19.0313 2.4227 -2.7734 0.1444 0 8
18.3997 2.5116 -2.6846 0.1933 0 8
17.9836 2.6207 -2.6272 0.1431 0 8
17.9591 2.7833 -2.6272 0.1431 0 8
17.9332 2.9456 -2.6272 0.1431 0 8
17.9058 3.1076 -2.6272 0.1431 0 8
17.8770 3.2695 -2.6272 0.1431 0 8
17.8467 3.4310 -2.6272 0.1431 0 8
17.8150 3.5923 -2.6272 0.1431 0 8
17.7817 3.7533 -2.6272 0.1431 0 8
17.7471 3.9139 -2.6272 0.1431 0 8
17.7109 4.0743 -2.6272 0.1431 0 8
17.6734 4.2343 -2.6272 0.1431 0 8
17.6343 4.3940 -2.6272 0.1431 0 8
17.5939 4.5533 -2.6272 0.1431 0 8
15.0934 4.0521 -2.2592 0.4880 0 5
15.0388 4.1837 -2.2566 0.8651 0 5
15.0781 4.3419 -2.2683 0.8606 0 5
17.4177 5.1867 -2.6272 0.1431 0 8
17.3701 5.3440 -2.6272 0.1431 0 8
17.3210 5.5009 -2.6272 0.1431 0 8
17.2706 5.6573 -2.6272 0.1431 0 8
17.2187 5.8132 -2.6272 0.1431 0 8
17.1654 5.9688 -2.6272 0.1431 0 8
17.1107 6.1237 -2.6272 0.1431 0 8
17.0546 6.2783 -2.6272 0.1431 0 8
16.9972 6.4322 -2.6272 0.1431 0 8
16.9383 6.5857 -2.6272 0.1431 0 8
16.8780 6.7386 -2.6272 0.1431 0 8
16.8164 6.8910 -2.6272 0.1431 0 8
16.7534 7.0428 -2.6272 0.1431 0 8
16.6890 7.1940 -2.6272 0.1431 0 8
16.6233 7.3447 -2.6272 0.1431 0 8
16.5561 7.4947 -2.6272 0.1431 0 8
16.4877 7.6442 -2.6272 0.1431 0 8
16.4179 7.7930 -2.6272 0.1431 0 8
16.3467 7.9411 -2.6272 0.1431 0 8
16.2742 8.0887 -2.6272 0.1431 0 8
16.2004 8.2355 -2.6272 0.1431 0 8
16.1253 8.3817 -2.6272 0.1431 0 8
16.0488 8.5272 -2.6272 0.1431 0 8
15.9710 8.6720 -2.6272 0.1431 0 8
15.8919 8.8161 -2.6272 0.1431 0 8
15.8115 8.9595 -2.6272 0.1431 0 8
15.7299 9.1021 -2.6272 0.1431 0 8
15.6469 9.2440 -2.6272 0.1431 0 8
15.5627 9.3851 -2.6272 0.1431 0 8
15.4771 9.5255 -2.6272 0.1431 0 8
15.3904 9.6651 -2.6272 0.1431 0 8
15.3023 9.8039 -2.6272 0.1431 0 8
15.2130 9.9419 -2.6272 0.1431 0 8
15.1225 10.0791 -2.6272 0.1431 0 8
15.0307 10.2154 -2.6272 0.1431 0 8
14.9377 10.3510 -2.6272 0.1431 0 8
14.8435 10.4856 -2.6272 0.1431 0 8
14.7480 10.6194 -2.6272 0.1431 0 8
14.6514 10.7524 -2.6272 0.1431 0 8
14.5535 10.8845 -2.6272 0.1431 0 8
14.4545 11.0156 -2.6272 0.1431 0 8
14.3543 11.1459 -2.6272 0.1431 0 8
14.2529 11.2753 -2.6272 0.1431 0 8
14.1503 11.4037 -2.6272 0.1431 0 8
14.0466 11.5313 -2.6272 0.1431 0 8
13.9417 11.6578 -2.6272 0.1431 0 8
13.8357 11.7834 -2.6272 0.1431 0 8
13.7286 11.9081 -2.6272 0.1431 0 8
13.6203 12.0318 -2.6272 0.1431 0 8
13.5110 12.1545 -2.6272 0.1431 0 8
13.4005 12.2762 -2.6272 0.1431 0 8
13.2889 12.3969 -2.6272 0.1431 0 8
13.1762 12.5165 -2.6272 0.1431 0 8
13.0625 12.6352 -2.6272 0.1431 0 8
12.9477 12.7528 -2.6272 0.1431 0 8
12.8318 12.8694 -2.6272 0.1431 0 8
12.7149 12.9849 -2.6272 0.1431 0 8
12.5969 13.0994 -2.6272 0.1431 0 8
12.4780 13.2128 -2.6272 0.1431 0 8
12.3579 13.3251 -2.6272 0.1431 0 8
12.2369 13.4363 -2.6272 0.1431 0 8
12.1149 13.5464 -2.6272 0.1431 0 8
11.9919 13.6555 -2.6272 0.1431 0 8
11.8679 13.7634 -2.6272 0.1431 0 8
11.7430 13.8702 -2.6272 0.1431 0 8
11.6170 13.9758 -2.6272 0.1431 0 8
11.4901 14.0803 -2.6272 0.1431 0 8
11.3623 14.1836 -2.6272 0.1431 0 8
11.2336 14.2858 -2.6272 0.1431 0 8
11.1039 14.3868 -2.6272 0.1431 0 8
10.9733 14.4866 -2.6272 0.1431 0 8
10.8419 14.5853 -2.6272 0.1431 0 8
10.7095 14.6828 -2.6272 0.1431 0 8
10.5763 14.7790 -2.6272 0.1431 0 8
10.4422 14.8741 -2.6272 0.1431 0 8
10.3072 14.9679 -2.6272 0.1431 0 8
10.1714 15.0605 -2.6272 0.1431 0 8
10.0348 15.1519 -2.6272 0.1431 0 8
9.8974 15.2420 -2.6272 0.1431 0 8
9.7591 15.3309 -2.6272 0.1431 0 8
9.6200 15.4185 -2.6272 0.1431 0 8
9.4802 15.5049 -2.6272 0.1431 0 8
9.3396 15.5900 -2.6272 0.1431 0 8
9.1982 15.6739 -2.6272 0.1431 0 8
9.0561 15.7564 -2.6272 0.1431 0 8
8.9132 15.8377 -2.6272 0.1431 0 8
8.7696 15.9176 -2.6272 0.1431 0 8
8.6253 15.9963 -2.6272 0.1431 0 8
8.4802 16.0737 -2.6272 0.1431 0 8
8.3345 16.1497 -2.6272 0.1431 0 8
8.1881 16.2244 -2.6272 0.1431 0 8
8.0410 16.2978 -2.6272 0.1431 0 8
7.8933 16.3699 -2.6272 0.1431 0 8
7.7449 16.4406 -2.6272 0.1431 0 8
7.5959 16.5100 -2.6272 0.1431 0 8
7.4463 16.5780 -2.6272 0.1431 0 8
7.2961 16.6447 -2.6272 0.1431 0 8
7.1452 16.7100 -2.6272 0.1431 0 8
6.9938 16.7739 -2.6272 0.1431 0 8
6.8418 16.8365 -2.6272 0.1431 0 8
6.6893 16.8977 -2.6272 0.1431 0 8
6.5362 16.9575 -2.6272 0.1431 0 8
6.3825 17.0159 -2.6272 0.1431 0 8
6.2283 17.0729 -2.6272 0.1431 0 8
6.0737 17.1285 -2.6272 0.1431 0 8
5.9185 17.1828 -2.6272 0.1431 0 8
5.7629 17.2356 -2.6272 0.1431 0 8
5.6068 17.2870 -2.6272 0.1431 0 8
5.4502 17.3370 -2.6272 0.1431 0 8
5.2932 17.3856 -2.6272 0.1431 0 8
5.1357 17.4328 -2.6272 0.1431 0 8
4.9778 17.4785 -2.6272 0.1431 0 8
4.8195 17.5228 -2.6272 0.1431 0 8
4.6609 17.5657 -2.6272 0.1431 0 8
4.5018 17.6071 -2.6272 0.1431 0 8
4.3424 17.6471 -2.6272 0.1431 0 8
4.1826 17.6857 -2.6272 0.1431 0 8
4.0225 17.7228 -2.6272 0.1431 0 8
3.8620 17.7584 -2.6272 0.1431 0 8
3.7012 17.7926 -2.6272 0.1431 0 8
3.5402 17.8254 -2.6272 0.1431 0 8
3.3788 17.8567 -2.6272 0.1431 0 8
3.2172 17.8865 -2.6272 0.1431 0 8
3.0553 17.9149 -2.6272 0.1431 0 8
2.8931 17.9418 -2.6272 0.1431 0 8
2.7307 17.9672 -2.6272 0.1431 0 8
2.5681 17.9912 -2.6272 0.1431 0 8
2.4053 18.0136 -2.6272 0.1431 0 8
2.2423 18.0347 -2.6272 0.1431 0 8
2.0791 18.0542 -2.6272 0.1431 0 8
1.9157 18.0723 -2.6272 0.1431 0 8
1.7522 18.0889 -2.6272 0.1431 0 8
1.5885 18.1040 -2.6272 0.1431 0 8
1.4247 18.1176 -2.6272 0.1431 0 8
1.2608 18.1297 -2.6272 0.1431 0 8
1.0968 18.1404 -2.6272 0.1431 0 8
0.9326 18.1496 -2.6272 0.1431 0 8
0.7685 18.1573 -2.6272 0.1431 0 8
0.6042 18.1635 -2.6272 0.1431 0 8
0.4399 18.1682 -2.6272 0.1431 0 8
0.2756 18.1714 -2.6272 0.1431 0 8
0.1112 18.1732 -2.6272 0.1431 0 8
-0.0532 18.1734 -2.6272 0.1431 0 8
-0.2175 18.1722 -2.6272 0.1431 0 8
-0.3819 18.1695 -2.6272 0.1431 0 8
-0.5462 18.1653 -2.6272 0.1431 0 8
-0.7104 18.1596 -2.6272 0.1431 0 8
-0.8747 18.1525 -2.6272 0.1431 0 8
-1.0388 18.1438 -2.6272 0.1431 0 8
-1.2028 18.1337 -2.6272 0.1431 0 8
-1.3668 18.1221 -2.6272 0.1431 0 8
-1.5306 18.1089 -2.6272 0.1431 0 8
-1.6944 18.0944 -2.6272 0.1431 0 8
-1.8579 18.0783 -2.6272 0.1431 0 8
-2.0214 18.0608 -2.6272 0.1431 0 8
-2.1846 18.0417 -2.6272 0.1431 0 8
-2.3477 18.0212 -2.6272 0.1431 0 8
-2.5106 17.9993 -2.6272 0.1431 0 8
-2.6733 17.9758 -2.6272 0.1431 0 8
-2.8358 17.9509 -2.6272 0.1431 0 8
-2.9980 17.9247 -2.6272 0.1431 0 8
-3.1600 17.8967 -2.6272 0.1431 0 8
-3.3217 17.8674 -2.6272 0.1431 0 8
-3.4832 17.8366 -2.6272 0.1431 0 8
-3.6444 17.8044 -2.6272 0.1431 0 8
-3.8052 17.7707 -2.6272 0.1431 0 8
-3.9658 17.7355 -2.6272 0.1431 0 8
-4.1260 17.6989 -2.6272 0.1431 0 8
-4.2860 17.6609 -2.6272 0.1431 0 8
-4.4455 17.6214 -2.6272 0.1431 0 8
-4.6047 17.5805 -2.6272 0.1431 0 8
-4.7635 17.5381 -2.6272 0.1431 0 8
-4.9219 17.4943 -2.6272 0.1431 0 8
-5.0800 17.4491 -2.6272 0.1431 0 8
-5.2376 17.4024 -2.6272 0.1431 0 8
-5.3947 17.3544 -2.6272 0.1431 0 8
-5.5515 17.3048 -2.6272 0.1431 0 8
-5.7078 17.2539 -2.6272 0.1431 0 8
-5.8636 17.2016 -2.6272 0.1431 0 8
-6.0189 17.1479 -2.6272 0.1431 0 8
-6.1738 17.0927 -2.6272 0.1431 0 8
-6.3281 17.0362 -2.6272 0.1431 0 8
-6.4819 16.9783 -2.6272 0.1431 0 8
-6.6352 16.9190 -2.6272 0.1431 0 8
-6.7880 16.8583 -2.6272 0.1431 0 8
-6.9401 16.7962 -2.6272 0.1431 0 8
-7.0918 16.7327 -2.6272 0.1431 0 8
-7.2428 16.6679 -2.6272 0.1431 0 8
-7.3933 16.6017 -2.6272 0.1431 0 8
-7.5431 16.5342 -2.6272 0.1431 0 8
-4.2053 9.0013 -1.4362 0.9487 0 5
-7.8409 16.3950 -2.6272 0.1431 0 8
-7.9889 16.3234 -2.6272 0.1431 0 8
-8.1362 16.2505 -2.6272 0.1431 0 8
-8.2829 16.1763 -2.6272 0.1431 0 8
-8.4288 16.1007 -2.6272 0.1431 0 8
-8.4834 15.8543 -2.5994 0.1431 0 19
-8.7187 15.9456 -2.6272 0.1431 0 8
-8.8625 15.8661 -2.6272 0.1431 0 8
-9.0057 15.7853 -2.6272 0.1431 0 8
-9.1480 15.7032 -2.6272 0.1431 0 8
-9.2897 15.6198 -2.6272 0.1431 0 8
-9.4306 15.5351 -2.6272 0.1431 0 8
-9.5707 15.4492 -2.6272 0.1431 0 8
-9.7100 15.3620 -2.6272 0.1431 0 8
-9.8486 15.2736 -2.6272 0.1431 0 8
-9.9863 15.1839 -2.6272 0.1431 0 8
-10.1232 15.0929 -2.6272 0.1431 0 8
-10.2593 15.0008 -2.6272 0.1431 0 8
-10.3946 14.9074 -2.6272 0.1431 0 8
-10.5290 14.8128 -2.6272 0.1431 0 8
-10.6625 14.7169 -2.6272 0.1431 0 8
-10.7952 14.6199 -2.6272 0.1431 0 8
-10.9270 14.5216 -2.6272 0.1431 0 8
-11.0579 14.4222 -2.6272 0.1431 0 8
-11.1879 14.3216 -2.6272 0.1431 0 8
-11.3169 14.2199 -2.6272 0.1431 0 8
-11.4451 14.1169 -2.6272 0.1431 0 8
-11.5723 14.0128 -2.6272 0.1431 0 8
-11.6985 13.9076 -2.6272 0.1431 0 8
-11.8239 13.8012 -2.6272 0.1431 0 8
-11.9482 13.6937 -2.6272 0.1431 0 8
-12.0715 13.5851 -2.6272 0.1431 0 8
-12.1939 13.4754 -2.6272 0.1431 0 8
-12.3153 13.3645 -2.6272 0.1431 0 8
-12.4357 13.2526 -2.6272 0.1431 0 8
-12.5550 13.1396 -2.6272 0.1431 0 8
-12.6733 13.0255 -2.6272 0.1431 0 8
-12.7906 12.9103 -2.6272 0.1431 0 8
-12.9069 12.7941 -2.6272 0.1431 0 8
-13.0221 12.6769 -2.6272 0.1431 0 8
-13.1362 12.5586 -2.6272 0.1431 0 8
-13.2492 12.4393 -2.6272 0.1431 0 8
-13.3612 12.3189 -2.6272 0.1431 0 8
-13.4720 12.1976 -2.6272 0.1431 0 8
-13.5818 12.0752 -2.6272 0.1431 0 8
-13.6905 11.9519 -2.6272 0.1431 0 8
-13.7980 11.8276 -2.6272 0.1431 0 8
-13.9044 11.7023 -2.6272 0.1431 0 8
-14.0097 11.5761 -2.6272 0.1431 0 8
-14.1138 11.4489 -2.6272 0.1431 0 8
-14.2168 11.3208 -2.6272 0.1431 0 8
-14.3186 11.1917 -2.6272 0.1431 0 8
-14.4192 11.0618 -2.6272 0.1431 0 8
-14.5187 10.9309 -2.6272 0.1431 0 8
-14.6170 10.7992 -2.6272 0.1431 0 8
-14.7140 10.6665 -2.6272 0.1431 0 8
-14.8099 10.5330 -2.6272 0.1431 0 8
-15.1992 10.6042 -2.6791 0.3779 0 8
-15.6346 10.6990 -2.7387 0.3697 0 8
-15.9288 10.6902 -2.7732 0.1488 0 8
-16.0402 10.5558 -2.7759 0.1487 0 8
-16.1506 10.4203 -2.7785 0.1485 0 8
-16.2504 10.2777 -2.7796 0.1431 0 7
-16.3427 10.1303 -2.7796 0.1431 0 7
-16.4336 9.9821 -2.7796 0.1431 0 7
-16.5232 9.8331 -2.7796 0.1431 0 7
-16.6115 9.6832 -2.7796 0.1431 0 7
-16.6984 9.5326 -2.7796 0.1431 0 7
-16.7839 9.3812 -2.7796 0.1431 0 7
-16.8681 9.2290 -2.7796 0.1431 0 7
-16.9508 9.0761 -2.7796 0.1431 0 7
-17.0322 8.9224 -2.7796 0.1431 0 7
-17.1122 8.7680 -2.7796 0.1431 0 7
-17.1908 8.6129 -2.7796 0.1431 0 7
-17.2680 8.4570 -2.7796 0.1431 0 7
-17.3438 8.3005 -2.7796 0.1431 0 7
-17.4182 8.1433 -2.7796 0.1431 0 7
-17.4911 7.9855 -2.7796 0.1431 0 7
-17.5626 7.8269 -2.7796 0.1431 0 7
-17.6327 7.6678 -2.7796 0.1431 0 7
-17.7013 7.5080 -2.7796 0.1431 0 7
-17.7685 7.3476 -2.7796 0.1431 0 7
-17.8342 7.1866 -2.7796 0.1431 0 7
-17.8985 7.0250 -2.7796 0.1431 0 7
-17.9613 6.8628 -2.7796 0.1431 0 7
-18.0226 6.7001 -2.7796 0.1431 0 7
-18.0825 6.5368 -2.7796 0.1431 0 7
-18.1409 6.3730 -2.7796 0.1431 0 7
-18.1978 6.2087 -2.7796 0.1431 0 7
-18.2532 6.0438 -2.7796 0.1431 0 7
-18.3071 5.8785 -2.7796 0.1431 0 7
-18.3595 5.7127 -2.7796 0.1431 0 7
-18.4104 5.5464 -2.7796 0.1431 0 7
-18.4598 5.3797 -2.7796 0.1431 0 7
-18.5077 5.2125 -2.7796 0.1431 0 7
-18.5541 5.0449 -2.7796 0.1431 0 7
-18.5990 4.8769 -2.7796 0.1431 0 7
-18.6423 4.7085 -2.7796 0.1431 0 7
-18.6842 4.5397 -2.7796 0.1431 0 7
-18.7244 4.3705 -2.7796 0.1431 0 7
-18.7632 4.2010 -2.7796 0.1431 0 7
-18.8004 4.0311 -2.7796 0.1431 0 7
-18.8361 3.8609 -2.7796 0.1431 0 7
-18.8703 3.6904 -2.7796 0.1431 0 7
-18.9029 3.5196 -2.7796 0.1431 0 7
-18.9339 3.3484 -2.7796 0.1431 0 7
-18.9634 3.1771 -2.7796 0.1431 0 7
-18.9914 3.0054 -2.7796 0.1431 0 7
-19.0178 2.8335 -2.7796 0.1431 0 7
-19.0427 2.6614 -2.7796 0.1431 0 7
-19.0660 2.4891 -2.7796 0.1431 0 7
-19.0877 2.3166 -2.7796 0.1431 0 7
-19.1079 2.1438 -2.7796 0.1431 0 7
-19.1265 1.9709 -2.7796 0.1431 0 6
-19.1435 1.7979 -2.7796 0.1431 0 7
-19.1590 1.6246 -2.7796 0.1431 0 7
-19.1729 1.4513 -2.7796 0.1431 0 7
-19.1852 1.2778 -2.7796 0.1431 0 7
-19.1960 1.1043 -2.7796 0.1431 0 7
-19.2052 0.9306 -2.7796 0.1431 0 7
-19.2128 0.7569 -2.7796 0.1431 0 7
-19.2189 0.5831 -2.7796 0.1431 0 7
-19.2234 0.4092 -2.7796 0.1431 0 7
-19.2263 0.2353 -2.7796 0.1431 0 7
-19.2276 0.0615 -2.7796 0.1431 0 7
-19.2274 -0.1125 -2.7796 0.1431 0 7
-19.2256 -0.2863 -2.7796 0.1431 0 7
-19.2222 -0.4602 -2.7796 0.1431 0 7
-19.2173 -0.6340 -2.7796 0.1431 0 7
-19.2108 -0.8078 -2.7796 0.1431 0 7
-19.2027 -0.9815 -2.7796 0.1431 0 7
-19.1930 -1.1552 -2.7796 0.1431 0 7
-19.1818 -1.3287 -2.7796 0.1431 0 7
-19.1690 -1.5021 -2.7796 0.1431 0 7
-19.1546 -1.6754 -2.7796 0.1431 0 7
-19.1387 -1.8486 -2.7796 0.1431 0 7
-19.1212 -2.0216 -2.7796 0.1431 0 7
-19.1021 -2.1945 -2.7796 0.1431 0 7
-19.0815 -2.3672 -2.7796 0.1431 0 7
-19.0593 -2.5396 -2.7796 0.1431 0 7
-19.0355 -2.7119 -2.7796 0.1431 0 7
-19.0102 -2.8840 -2.7796 0.1431 0 7
-18.9834 -3.0558 -2.7796 0.1431 0 7
-18.9550 -3.2273 -2.7796 0.1431 0 7
-18.9250 -3.3986 -2.7796 0.1431 0 7
-18.8935 -3.5697 -2.7796 0.1431 0 7
-18.8604 -3.7404 -2.7796 0.1431 0 7
-18.8258 -3.9108 -2.7796 0.1431 0 7
-18.7897 -4.0809 -2.7796 0.1431 0 7
-18.7520 -4.2507 -2.7796 0.1431 0 7
-18.7128 -4.4201 -2.7796 0.1431 0 7
-18.6721 -4.5892 -2.7796 0.1431 0 7
-18.6298 -4.7579 -2.7796 0.1431 0 7
-18.5860 -4.9262 -2.7796 0.1431 0 7
-18.5407 -5.0941 -2.7796 0.1431 0 7
-18.4938 -5.2615 -2.7796 0.1431 0 7
-18.4455 -5.4286 -2.7796 0.1431 0 7
-18.3956 -5.5952 -2.7796 0.1431 0 6
-18.3443 -5.7613 -2.7796 0.1431 0 7
-18.2914 -5.9270 -2.7796 0.1431 0 7
-18.2371 -6.0922 -2.7796 0.1431 0 7
-18.1812 -6.2569 -2.7796 0.1431 0 7
-18.1239 -6.4211 -2.7796 0.1431 0 7
-18.0651 -6.5847 -2.7796 0.1431 0 7
-18.0048 -6.7478 -2.7796 0.1431 0 7
-17.9430 -6.9104 -2.7796 0.1431 0 7
-17.8798 -7.0724 -2.7796 0.1431 0 7
-17.8151 -7.2338 -2.7796 0.1431 0 7
-17.7489 -7.3947 -2.7796 0.1431 0 7
-17.6814 -7.5549 -2.7796 0.1431 0 7
-17.6123 -7.7145 -2.7796 0.1431 0 7
-17.5378 -7.8717 -2.7790 0.1534 0 8
-17.4524 -8.0237 -2.7768 0.1535 0 8
-17.3657 -8.1749 -2.7747 0.1536 0 8
-17.2778 -8.3253 -2.7725 0.1537 0 8
-17.0676 -8.4150 -2.7509 0.6510 0 8
-16.8171 -8.4815 -2.7228 0.6577 0 8
-16.5717 -8.5466 -2.6955 0.6644 0 8
-16.3310 -8.6103 -2.6689 0.6710 0 8
-16.0950 -8.6728 -2.6430 0.6776 0 8
-15.9200 -8.7652 -2.6272 0.1431 0 8
-15.8401 -8.9089 -2.6272 0.1431 0 8
-15.7589 -9.0518 -2.6272 0.1431 0 8
-15.6764 -9.1939 -2.6272 0.1431 0 8
-15.5926 -9.3353 -2.6272 0.1431 0 8
-15.5075 -9.4760 -2.6272 0.1431 0 8
-15.4212 -9.6158 -2.6272 0.1431 0 8
-15.3336 -9.7549 -2.6272 0.1431 0 8
-15.2447 -9.8932 -2.6272 0.1431 0 8
-15.1546 -10.0307 -2.6272 0.1431 0 8
-15.0633 -10.1673 -2.6272 0.1431 0 8
-14.9707 -10.3031 -2.6272 0.1431 0 8
-14.8769 -10.4381 -2.6272 0.1431 0 8
-14.7819 -10.5722 -2.6272 0.1431 0 8
-14.6857 -10.7055 -2.6272 0.1431 0 8
-14.5883 -10.8379 -2.6272 0.1431 0 8
-14.4896 -10.9694 -2.6272 0.1431 0 8
-14.3898 -11.1000 -2.6272 0.1431 0 8
-14.2888 -11.2297 -2.6272 0.1431 0 8
-14.1867 -11.3584 -2.6272 0.1431 0 8
-14.0834 -11.4863 -2.6272 0.1431 0 8
-13.9789 -11.6132 -2.6272 0.1431 0 8
-13.8733 -11.7392 -2.6272 0.1431 0 8
-13.7666 -11.8641 -2.6272 0.1431 0 8
-13.6587 -11.9882 -2.6272 0.1431 0 8
-13.5497 -12.1112 -2.6272 0.1431 0 8
-13.4397 -12.2333 -2.6272 0.1431 0 8
-13.3285 -12.3543 -2.6272 0.1431 0 8
-13.2162 -12.4743 -2.6272 0.1431 0 8
-13.1028 -12.5934 -2.6272 0.1431 0 8
-12.9884 -12.7114 -2.6272 0.1431 0 8
-12.8729 -12.8283 -2.6272 0.1431 0 8
-12.7563 -12.9442 -2.6272 0.1431 0 8
-12.6388 -13.0591 -2.6272 0.1431 0 8
-12.5201 -13.1728 -2.6272 0.1431 0 8
-12.4005 -13.2855 -2.6272 0.1431 0 8
-12.2798 -13.3971 -2.6272 0.1431 0 8
-12.1581 -13.5076 -2.6272 0.1431 0 8
-12.0355 -13.6171 -2.6272 0.1431 0 8
-11.9118 -13.7254 -2.6272 0.1431 0 8
-11.7872 -13.8325 -2.6272 0.1431 0 8
-11.6616 -13.9386 -2.6272 0.1431 0 8
-11.5351 -14.0435 -2.6272 0.1431 0 8
-11.4076 -14.1472 -2.6272 0.1431 0 8
-11.2792 -14.2498 -2.6272 0.1431 0 8
-11.1498 -14.3512 -2.6272 0.1431 0 8
-11.0196 -14.4515 -2.6272 0.1431 0 8
-10.8884 -14.5506 -2.6272 0.1431 0 8
-10.7564 -14.6484 -2.6272 0.1431 0 8
-10.6235 -14.7451 -2.6272 0.1431 0 8
-10.4897 -14.8406 -2.6272 0.1431 0 8
-10.3550 -14.9349 -2.6272 0.1431 0 8
-10.2195 -15.0279 -2.6272 0.1431 0 8
-10.0832 -15.1197 -2.6272 0.1431 0 8
-9.9460 -15.2103 -2.6272 0.1431 0 8
-9.8081 -15.2996 -2.6272 0.1431 0 8
-9.6693 -15.3877 -2.6272 0.1431 0 8
-9.5297 -15.4745 -2.6272 0.1431 0 8
-9.3894 -15.5601 -2.6272 0.1431 0 8
-9.2483 -15.6444 -2.6272 0.1431 0 8
-9.1064 -15.7274 -2.6272 0.1431 0 8
-8.9638 -15.8091 -2.6272 0.1431 0 8
-8.8204 -15.8895 -2.6272 0.1431 0 8
-8.6764 -15.9687 -2.6272 0.1431 0 8
-8.5316 -16.0465 -2.6272 0.1431 0 8
-8.3861 -16.1230 -2.6272 0.1431 0 8
-8.2399 -16.1981 -2.6272 0.1431 0 8
-8.0931 -16.2720 -2.6272 0.1431 0 8
-7.9456 -16.3446 -2.6272 0.1431 0 8
-7.7975 -16.4158 -2.6272 0.1431 0 8
-7.6487 -16.4856 -2.6272 0.1431 0 8
-7.4993 -16.5541 -2.6272 0.1431 0 8
-7.3492 -16.6213 -2.6272 0.1431 0 8
-7.1986 -16.6870 -2.6272 0.1431 0 8
-7.0474 -16.7515 -2.6272 0.1431 0 8
-6.8956 -16.8145 -2.6272 0.1431 0 8
-6.7432 -16.8762 -2.6272 0.1431 0 8
-6.5903 -16.9365 -2.6272 0.1431 0 8
-6.4369 -16.9954 -2.6272 0.1431 0 8
-6.2829 -17.0529 -2.6272 0.1431 0 8
-6.1284 -17.1091 -2.6272 0.1431 0 8
-5.9734 -17.1638 -2.6272 0.1431 0 8
-5.8180 -17.2171 -2.6272 0.1431 0 8
-5.6620 -17.2690 -2.6272 0.1431 0 8
-5.5056 -17.3195 -2.6272 0.1431 0 8
-5.3487 -17.3686 -2.6272 0.1431 0 8
-5.1914 -17.4163 -2.6272 0.1431 0 8
-5.0337 -17.4625 -2.6272 0.1431 0 8
-4.8755 -17.5073 -2.6272 0.1431 0 8
-4.7170 -17.5507 -2.6272 0.1431 0 8
-4.5581 -17.5926 -2.6272 0.1431 0 8
-4.3988 -17.6331 -2.6272 0.1431 0 8
-4.2391 -17.6722 -2.6272 0.1431 0 8
-4.0791 -17.7098 -2.6272 0.1431 0 8
-3.9188 -17.7460 -2.6272 0.1431 0 8
-3.7581 -17.7807 -2.6272 0.1431 0 8
-3.5971 -17.8140 -2.6272 0.1431 0 8
-3.4359 -17.8458 -2.6272 0.1431 0 8
-3.2743 -17.8761 -2.6272 0.1431 0 8
-3.1125 -17.9050 -2.6272 0.1431 0 8
-2.9505 -17.9324 -2.6272 0.1431 0 8
-2.7882 -17.9584 -2.6272 0.1431 0 8
-2.6256 -17.9829 -2.6272 0.1431 0 8
-2.4629 -18.0059 -2.6272 0.1431 0 8
-2.2999 -18.0274 -2.6272 0.1431 0 8
-2.1368 -18.0475 -2.6272 0.1431 0 8
-1.9735 -18.0661 -2.6272 0.1431 0 8
-1.3512 -13.4999 -1.9613 0.9842 0 5
-1.2308 -13.5301 -1.9640 0.9829 0 5
-1.4826 -18.1129 -2.6272 0.1431 0 8
-1.3187 -18.1256 -2.6272 0.1431 0 8
-1.1547 -18.1368 -2.6272 0.1431 0 8
-0.9907 -18.1465 -2.6272 0.1431 0 8
-0.8265 -18.1547 -2.6272 0.1431 0 8
-0.6623 -18.1615 -2.6272 0.1431 0 8
-0.4980 -18.1667 -2.6272 0.1431 0 8
-0.3337 -18.1705 -2.6272 0.1431 0 8
-0.1693 -18.1727 -2.6272 0.1431 0 8
-0.0050 -18.1735 -2.6272 0.1431 0 8
0.1594 -18.1728 -2.6272 0.1431 0 8
0.3238 -18.1706 -2.6272 0.1431 0 8
0.4881 -18.1670 -2.6272 0.1431 0 8
0.6524 -18.1618 -2.6272 0.1431 0 8
0.8166 -18.1552 -2.6272 0.1431 0 8
0.9808 -18.1470 -2.6272 0.1431 0 8
1.1449 -18.1374 -2.6272 0.1431 0 8
1.3089 -18.1263 -2.6272 0.1431 0 8
1.4727 -18.1138 -2.6272 0.1431 0 8
1.6365 -18.0997 -2.6272 0.1431 0 8
1.8001 -18.0841 -2.6272 0.1431 0 8
1.9636 -18.0671 -2.6272 0.1431 0 8
2.1269 -18.0486 -2.6272 0.1431 0 8
2.2901 -18.0287 -2.6272 0.1431 0 8
2.4530 -18.0072 -2.6272 0.1431 0 8
2.6158 -17.9843 -2.6272 0.1431 0 8
2.7783 -17.9599 -2.6272 0.1431 0 8
2.9407 -17.9340 -2.6272 0.1431 0 8
3.1027 -17.9067 -2.6272 0.1431 0 8
3.2646 -17.8779 -2.6272 0.1431 0 8
3.4261 -17.8477 -2.6272 0.1431 0 8
3.5874 -17.8159 -2.6272 0.1431 0 8
3.7484 -17.7828 -2.6272 0.1431 0 8
3.9091 -17.7481 -2.6272 0.1431 0 8
4.0694 -17.7121 -2.6272 0.1431 0 8
4.2295 -17.6745 -2.6272 0.1431 0 8
4.3891 -17.6355 -2.6272 0.1431 0 8
4.5485 -17.5951 -2.6272 0.1431 0 8
4.7074 -17.5533 -2.6272 0.1431 0 8
4.8660 -17.5100 -2.6272 0.1431 0 8
5.0242 -17.4653 -2.6272 0.1431 0 8
5.1819 -17.4191 -2.6272 0.1431 0 8
5.3392 -17.3715 -2.6272 0.1431 0 8
5.4961 -17.3225 -2.6272 0.1431 0 8
5.6526 -17.2721 -2.6272 0.1431 0 8
5.8086 -17.2203 -2.6272 0.1431 0 8
5.9641 -17.1670 -2.6272 0.1431 0 8
6.1191 -17.1124 -2.6272 0.1431 0 8
6.2736 -17.0563 -2.6272 0.1431 0 8
6.4276 -16.9989 -2.6272 0.1431 0 8
6.5811 -16.9401 -2.6272 0.1431 0 8
6.7340 -16.8799 -2.6272 0.1431 0 8
6.8864 -16.8183 -2.6272 0.1431 0 8
7.0382 -16.7553 -2.6272 0.1431 0 8
7.1895 -16.6910 -2.6272 0.1431 0 8
7.3401 -16.6253 -2.6272 0.1431 0 8
7.4902 -16.5582 -2.6272 0.1431 0 8
7.6397 -16.4898 -2.6272 0.1431 0 8
7.7885 -16.4200 -2.6272 0.1431 0 8
7.9367 -16.3489 -2.6272 0.1431 0 8
8.0842 -16.2764 -2.6272 0.1431 0 8
8.2311 -16.2027 -2.6272 0.1431 0 8
8.3773 -16.1275 -2.6272 0.1431 0 8
8.5228 -16.0511 -2.6272 0.1431 0 8
8.6676 -15.9734 -2.6272 0.1431 0 8
8.8117 -15.8943 -2.6272 0.1431 0 8
8.9551 -15.8140 -2.6272 0.1431 0 8
9.0978 -15.7324 -2.6272 0.1431 0 8
9.2397 -15.6494 -2.6272 0.1431 0 8
9.3809 -15.5652 -2.6272 0.1431 0 8
9.5213 -15.4797 -2.6272 0.1431 0 8
9.6609 -15.3930 -2.6272 0.1431 0 8
9.7997 -15.3050 -2.6272 0.1431 0 8
9.9377 -15.2157 -2.6272 0.1431 0 8
10.1295 -15.2072 -2.6414 0.6776 0 8
10.3671 -15.2628 -2.6673 0.6711 0 8
10.6093 -15.3195 -2.6938 0.6644 0 8
10.8564 -15.3772 -2.7211 0.6578 0 8
11.1085 -15.4361 -2.7492 0.6510 0 8
11.3425 -15.4644 -2.7724 0.1537 0 8
11.4907 -15.3729 -2.7745 0.1536 0 8
11.6383 -15.2801 -2.7767 0.1535 0 8
11.7852 -15.1861 -2.7788 0.1534 0 8
11.9252 -15.0829 -2.7796 0.1431 0 7
12.0612 -14.9745 -2.7796 0.1431 0 7
12.1961 -14.8648 -2.7796 0.1431 0 7
12.3300 -14.7539 -2.7796 0.1431 0 7
12.4629 -14.6419 -2.7796 0.1431 0 7
12.5949 -14.5284 -2.7796 0.1431 0 7
12.7258 -14.4139 -2.7796 0.1431 0 7
12.8556 -14.2982 -2.7796 0.1431 0 7
12.9844 -14.1814 -2.7796 0.1431 0 7
13.1121 -14.0634 -2.7796 0.1431 0 7
13.2388 -13.9442 -2.7796 0.1431 0 7
13.3644 -13.8239 -2.7796 0.1431 0 7
13.4888 -13.7024 -2.7796 0.1431 0 7
13.6122 -13.5799 -2.7796 0.1431 0 6
13.7345 -13.4562 -2.7796 0.1431 0 7
13.8556 -13.3315 -2.7796 0.1431 0 7
13.9756 -13.2056 -2.7796 0.1431 0 7
14.0945 -13.0787 -2.7796 0.1431 0 7
14.2122 -12.9506 -2.7796 0.1431 0 7
14.3288 -12.8216 -2.7796 0.1431 0 7
14.4441 -12.6915 -2.7796 0.1431 0 7
14.5583 -12.5603 -2.7796 0.1431 0 7
14.6713 -12.4281 -2.7796 0.1431 0 7
14.7831 -12.2949 -2.7796 0.1431 0 7
14.8937 -12.1607 -2.7796 0.1431 0 7
15.0031 -12.0255 -2.7796 0.1431 0 7
15.1113 -11.8893 -2.7796 0.1431 0 7
15.2182 -11.7522 -2.7796 0.1431 0 7
15.3239 -11.6141 -2.7796 0.1431 0 7
15.4282 -11.4750 -2.7796 0.1431 0 7
15.5314 -11.3350 -2.7796 0.1431 0 7
15.6333 -11.1941 -2.7796 0.1431 0 7
15.7339 -11.0522 -2.7796 0.1431 0 7
15.8332 -10.9094 -2.7796 0.1431 0 7
15.9312 -10.7658 -2.7796 0.1431 0 7
16.0279 -10.6213 -2.7796 0.1431 0 7
16.1233 -10.4759 -2.7796 0.1431 0 6
16.2174 -10.3296 -2.7796 0.1431 0 6
16.3102 -10.1826 -2.7796 0.1431 0 6
16.4016 -10.0346 -2.7796 0.1431 0 7
16.4917 -9.8859 -2.7796 0.1431 0 7
16.5804 -9.7363 -2.7796 0.1431 0 7
16.6678 -9.5860 -2.7796 0.1431 0 6
16.7538 -9.4348 -2.7796 0.1431 0 6
16.8385 -9.2829 -2.7796 0.1431 0 6
16.9217 -9.1302 -2.7796 0.1431 0 7
17.0036 -8.9768 -2.7796 0.1431 0 7
17.0841 -8.8227 -2.7796 0.1431 0 7
17.1632 -8.6678 -2.7796 0.1431 0 6
17.2409 -8.5122 -2.7796 0.1431 0 6
17.3172 -8.3559 -2.7796 0.1431 0 6
17.3920 -8.1990 -2.7796 0.1431 0 7
17.4655 -8.0413 -2.7796 0.1431 0 7
17.5375 -7.8830 -2.7796 0.1431 0 7
17.6081 -7.7241 -2.7796 0.1431 0 6
17.6772 -7.5645 -2.7796 0.1431 0 6
17.7449 -7.4043 -2.7796 0.1431 0 6
17.8112 -7.2436 -2.7796 0.1431 0 7
17.8759 -7.0822 -2.7796 0.1431 0 7
17.9393 -6.9202 -2.7796 0.1431 0 7
18.0011 -6.7577 -2.7796 0.1431 0 6
18.0615 -6.5946 -2.7796 0.1431 0 6
18.1204 -6.4310 -2.7796 0.1431 0 6
18.1778 -6.2668 -2.7796 0.1431 0 7
18.2338 -6.1022 -2.7796 0.1431 0 7
18.2882 -5.9370 -2.7796 0.1431 0 7
18.3411 -5.7714 -2.7796 0.1431 0 6
18.3926 -5.6052 -2.7796 0.1431 0 6
18.4425 -5.4387 -2.7796 0.1431 0 6
18.4910 -5.2716 -2.7796 0.1431 0 7
18.5379 -5.1042 -2.7796 0.1431 0 7
18.5833 -4.9363 -2.7796 0.1431 0 7
18.6272 -4.7680 -2.7796 0.1431 0 6
18.6695 -4.5994 -2.7796 0.1431 0 6
18.7104 -4.4303 -2.7796 0.1431 0 7
18.7497 -4.2609 -2.7796 0.1431 0 7
18.7875 -4.0912 -2.7796 0.1431 0 7
18.8237 -3.9211 -2.7796 0.1431 0 6
18.8584 -3.7507 -2.7796 0.1431 0 6
18.8915 -3.5800 -2.7796 0.1431 0 6
18.9231 -3.4090 -2.7796 0.1431 0 7
18.9532 -3.2377 -2.7796 0.1431 0 7
18.9817 -3.0661 -2.7796 0.1431 0 7
19.0087 -2.8943 -2.7796 0.1431 0 6
19.0341 -2.7223 -2.7796 0.1431 0 6
19.0579 -2.5500 -2.7796 0.1431 0 6
19.0802 -2.3776 -2.7796 0.1431 0 7
19.1009 -2.2049 -2.7796 0.1431 0 7
19.1201 -2.0321 -2.7796 0.1431 0 7
19.1377 -1.8591 -2.7796 0.1431 0 6
19.1537 -1.6859 -2.7796 0.1431 0 6
19.1682 -1.5126 -2.7796 0.1431 0 6
19.1811 -1.3392 -2.7796 0.1431 0 7
19.1924 -1.1656 -2.7796 0.1431 0 7
19.2021 -0.9920 -2.7796 0.1431 0 7
19.2103 -0.8183 -2.7796 0.1431 0 6
19.2169 -0.6445 -2.7796 0.1431 0 6
19.2220 -0.4707 -2.7796 0.1431 0 6
19.2255 -0.2968 -2.7796 0.1431 0 7
19.2274 -0.1229 -2.7796 0.1431 0 7
19.2277 0.0510 -2.7796 0.1431 0 7
19.2264 0.2249 -2.7796 0.1431 0 6
19.2236 0.3988 -2.7796 0.1431 0 6
19.2192 0.5726 -2.7796 0.1431 0 6
19.2132 0.7464 -2.7796 0.1431 0 7
19.2057 0.9201 -2.7796 0.1431 0 7
19.1966 1.0938 -2.7796 0.1431 0 7
19.1859 1.2674 -2.7796 0.1431 0 6
19.1737 1.4408 -2.7796 0.1431 0 6
19.1599 1.6142 -2.7796 0.1431 0 6
19.1445 1.7874 -2.7796 0.1431 0 7
19.1275 1.9605 -2.7796 0.1431 0 7
19.1006 2.1325 -2.7784 0.1441 0 8
19.0605 2.3027 -2.7755 0.1443 0 8
19.0190 2.4724 -2.7726 0.1444 0 8
18.1543 2.5272 -2.6497 0.1958 0 8
17.9766 2.6684 -2.6272 0.1431 0 8
17.9517 2.8309 -2.6272 0.1431 0 8
17.9254 2.9931 -2.6272 0.1431 0 8
17.8976 3.1551 -2.6272 0.1431 0 8
17.8683 3.3168 -2.6272 0.1431 0 8
17.8376 3.4783 -2.6272 0.1431 0 8
17.8054 3.6395 -2.6272 0.1431 0 8
17.7717 3.8004 -2.6272 0.1431 0 8
17.7366 3.9609 -2.6272 0.1431 0 8
17.7001 4.1212 -2.6272 0.1431 0 8
17.6621 4.2811 -2.6272 0.1431 0 8
17.6226 4.4407 -2.6272 0.1431 0 8
17.5817 4.5999 -2.6272 0.1431 0 8
15.0122 4.0731 -2.2486 0.4903 0 5
15.0503 4.2299 -2.2600 0.8638 0 5
17.4505 5.0752 -2.6272 0.1431 0 8
17.4039 5.2328 -2.6272 0.1431 0 8
17.3558 5.3900 -2.6272 0.1431 0 8
17.3064 5.5467 -2.6272 0.1431 0 8
17.2555 5.7030 -2.6272 0.1431 0 8
17.2032 5.8589 -2.6272 0.1431 0 8
17.1495 6.0142 -2.6272 0.1431 0 8
17.0944 6.1691 -2.6272 0.1431 0 8
17.0379 6.3234 -2.6272 0.1431 0 8
16.9801 6.4773 -2.6272 0.1431 0 8
16.9208 6.6306 -2.6272 0.1431 0 8
16.8601 6.7833 -2.6272 0.1431 0 8
16.7981 6.9356 -2.6272 0.1431 0 8
16.7347 7.0872 -2.6272 0.1431 0 8
16.6699 7.2383 -2.6272 0.1431 0 8
16.6037 7.3887 -2.6272 0.1431 0 8
16.5362 7.5386 -2.6272 0.1431 0 8
16.4674 7.6878 -2.6272 0.1431 0 8
16.3972 7.8365 -2.6272 0.1431 0 8
16.3256 7.9844 -2.6272 0.1431 0 8
16.2527 8.1318 -2.6272 0.1431 0 8
16.1785 8.2784 -2.6272 0.1431 0 8
16.1030 8.4244 -2.6272 0.1431 0 8
16.0261 8.5697 -2.6272 0.1431 0 8
15.9480 8.7143 -2.6272 0.1431 0 8
15.8685 8.8582 -2.6272 0.1431 0 8
15.7877 9.0013 -2.6272 0.1431 0 8
15.7057 9.1438 -2.6272 0.1431 0 8
15.6224 9.2854 -2.6272 0.1431 0 8
15.5377 9.4264 -2.6272 0.1431 0 8
15.4518 9.5665 -2.6272 0.1431 0 8
15.3647 9.7059 -2.6272 0.1431 0 8
15.2763 9.8444 -2.6272 0.1431 0 8
15.1866 9.9822 -2.6272 0.1431 0 8
15.0957 10.1191 -2.6272 0.1431 0 8
15.0036 10.2552 -2.6272 0.1431 0 8
14.9102 10.3905 -2.6272 0.1431 0 8
14.8156 10.5249 -2.6272 0.1431 0 8
14.7198 10.6585 -2.6272 0.1431 0 8
14.6228 10.7912 -2.6272 0.1431 0 8
14.5246 10.9230 -2.6272 0.1431 0 8
14.4252 11.0539 -2.6272 0.1431 0 8
14.3247 11.1839 -2.6272 0.1431 0 8
14.2229 11.3130 -2.6272 0.1431 0 8
14.1200 11.4412 -2.6272 0.1431 0 8
14.0160 11.5684 -2.6272 0.1431 0 8
13.9108 11.6947 -2.6272 0.1431 0 8
13.8045 11.8201 -2.6272 0.1431 0 8
13.6970 11.9444 -2.6272 0.1431 0 8
13.5884 12.0678 -2.6272 0.1431 0 8
13.4787 12.1902 -2.6272 0.1431 0 8
13.3679 12.3116 -2.6272 0.1431 0 8
13.2560 12.4320 -2.6272 0.1431 0 8
13.1430 12.5514 -2.6272 0.1431 0 8
13.0290 12.6698 -2.6272 0.1431 0 8
12.9138 12.7871 -2.6272 0.1431 0 8
12.7977 12.9034 -2.6272 0.1431 0 8
12.6804 13.0186 -2.6272 0.1431 0 8
12.5622 13.1327 -2.6272 0.1431 0 8
12.4429 13.2458 -2.6272 0.1431 0 8
12.3226 13.3578 -2.6272 0.1431 0 8
12.2013 13.4687 -2.6272 0.1431 0 8
12.0789 13.5785 -2.6272 0.1431 0 8
11.9556 13.6872 -2.6272 0.1431 0 8
11.8314 13.7948 -2.6272 0.1431 0 8
11.7061 13.9012 -2.6272 0.1431 0 8
11.5799 14.0065 -2.6272 0.1431 0 8
11.4528 14.1107 -2.6272 0.1431 0 8
11.3247 14.2137 -2.6272 0.1431 0 8
11.1957 14.3155 -2.6272 0.1431 0 8
11.0657 14.4162 -2.6272 0.1431 0 8
10.9349 14.5157 -2.6272 0.1431 0 8
10.8032 14.6140 -2.6272 0.1431 0 8
10.6706 14.7111 -2.6272 0.1431 0 8
10.5371 14.8070 -2.6272 0.1431 0 8
10.4027 14.9017 -2.6272 0.1431 0 8
10.2675 14.9952 -2.6272 0.1431 0 8
16.5816 0.0000 -2.7796 0.1653 0 6
16.5809 0.1500 -2.7796 0.1653 0 6
16.5789 0.2999 -2.7796 0.1653 0 7
16.5755 0.4499 -2.7796 0.1653 0 7
16.5707 0.5998 -2.7796 0.1653 0 7
16.5646 0.7496 -2.7796 0.1653 0 7
16.5571 0.8994 -2.7796 0.1653 0 7
16.5483 1.0491 -2.7796 0.1653 0 7
16.5382 1.1987 -2.7796 0.1653 0 7
16.5266 1.3482 -2.7796 0.1653 0 7
16.5138 1.4977 -2.7796 0.1653 0 7
16.4995 1.6470 -2.7796 0.1653 0 7
16.4840 1.7961 -2.7796 0.1653 0 7
16.4671 1.9451 -2.7796 0.1653 0 7
16.4488 2.0940 -2.7796 0.1653 0 7
16.4292 2.2426 -2.7796 0.1653 0 7
