ply
format ascii 1.0
element vertex 1344
property float32 x
property float32 y
property float32 z
property float32 CosAngle
property uint32 ObjIdx
property uint32 ObjTag
end_header
11.7659 -27.2695 -1.5900 0.4291 0 9
11.3733 -25.7174 -1.5055 0.9432 0 9
11.2035 -24.7263 -1.4533 0.8860 0 9
11.2952 -24.3406 -1.4366 0.4281 0 9
11.2134 -23.6028 -1.3990 0.5678 0 9
11.3239 -23.2895 -1.3864 0.7967 0 9
11.4956 -23.1089 -1.3818 0.8308 0 9
11.4395 -22.4838 -1.3506 0.5765 0 9
11.5833 -22.2657 -1.3437 0.8265 0 9
11.5932 -21.8008 -1.3219 0.9769 0 9
11.7619 -21.6436 -1.3188 0.3986 0 9
11.6768 -21.0312 -1.2878 0.5365 0 9
11.9393 -21.0530 -1.2957 0.3489 0 9
11.8473 -20.4573 -1.2656 0.4527 0 9
11.9755 -20.2540 -1.2597 0.4548 0 9
12.1683 -20.1615 -1.2607 0.6690 0 9
12.2061 -19.8167 -1.2460 0.6015 0 9
12.2957 -19.5637 -1.2371 0.8345 0 9
12.4314 -19.3881 -1.2330 0.7264 0 9
12.6298 -19.3108 -1.2353 0.2027 0 9
12.8432 -19.2546 -1.2391 0.5916 0 9
12.8476 -18.8889 -1.2230 0.3962 0 9
12.9662 -18.6973 -1.2181 0.6714 0 9
13.2165 -18.6949 -1.2257 0.6219 0 9
13.2770 -18.4245 -1.2158 0.8271 0 9
13.4499 -18.3129 -1.2164 0.6969 0 9
13.6236 -18.2020 -1.2172 0.7108 0 9
13.8104 -18.1079 -1.2192 0.6148 0 9
14.0502 -18.0808 -1.2259 0.5179 0 9
14.1618 -17.8880 -1.2215 0.5197 0 9
14.3012 -17.7322 -1.2196 0.4717 0 9
14.6249 -17.8015 -1.2334 0.9583 0 9
14.6109 -17.4601 -1.2189 0.8879 0 9
14.7671 -17.3258 -1.2188 0.6164 0 9
14.9770 -17.2535 -1.2232 0.4589 0 9
15.2188 -17.2151 -1.2302 0.9846 0 9
15.3706 -17.0730 -1.2299 0.9878 0 9
15.4975 -16.9039 -1.2277 0.3038 0 9
15.6328 -16.7449 -1.2264 0.7021 0 9
15.8317 -16.6533 -1.2302 0.8227 0 9
16.1438 -16.6770 -1.2426 0.5320 0 9
16.6215 -16.8625 -1.2676 0.3663 0 9
16.6423 -16.5809 -1.2577 0.0951 0 9
16.7928 -16.4308 -1.2578 0.8431 0 9
17.2028 -16.5301 -1.2773 0.8977 0 9
17.3969 -16.4166 -1.2806 0.9432 0 9
17.7247 -16.4254 -1.2937 0.6045 0 9
17.8640 -16.2566 -1.2931 0.6155 0 9
18.3157 -16.3672 -1.3150 0.7564 0 9
18.5916 -16.3137 -1.3242 0.8481 0 9
18.9434 -16.3215 -1.3387 0.4817 0 9
19.3345 -16.3561 -1.3558 0.1486 0 9
19.3235 -16.0492 -1.3448 0.3700 0 9
19.7536 -16.1067 -1.3645 0.6863 0 9
20.0901 -16.0808 -1.3777 0.7149 0 9
20.2586 -15.9171 -1.3793 0.9646 0 9
20.6112 -15.8948 -1.3935 0.6719 0 9
21.0719 -15.9482 -1.4148 0.4632 0 9
21.3597 -15.8642 -1.4244 0.8832 0 9
21.7553 -15.8547 -1.4412 0.5400 0 9
22.0637 -15.7759 -1.4521 0.2450 0 9
22.4874 -15.7734 -1.4705 0.7334 0 9
22.7645 -15.6624 -1.4793 0.4730 0 9
23.0522 -15.5551 -1.4888 0.9761 0 9
23.4594 -15.5229 -1.5060 0.4782 0 9
23.9479 -15.5365 -1.5283 0.7916 0 9
24.2467 -15.4205 -1.5384 0.9094 0 9
24.8798 -15.5089 -1.5696 0.3018 0 9
25.0992 -15.3322 -1.5746 0.7461 0 9
25.4705 -15.2443 -1.5892 0.3938 0 9
26.0491 -15.2723 -1.6166 0.2603 0 9
26.2989 -15.1008 -1.6236 0.8929 0 9
26.9234 -15.1372 -1.6536 0.7150 0 9
27.4436 -15.1047 -1.6771 0.6231 0 9
27.8652 -15.0099 -1.6945 0.1818 0 9
28.3454 -14.9394 -1.7154 0.3459 0 9
28.7958 -14.8455 -1.7345 0.1033 0 9
29.3743 -14.8090 -1.7612 0.1035 0 9
30.0056 -14.7884 -1.7909 0.4887 0 9
30.4208 -14.6525 -1.8077 0.5806 0 9
31.1439 -14.6552 -1.8427 0.6023 0 9
31.4005 -14.4305 -1.8501 0.9830 0 9
32.3143 -14.4979 -1.8961 0.7504 0 9
32.9163 -14.4118 -1.9237 0.5116 0 9
33.2757 -14.2118 -1.9372 0.5574 0 9
34.1263 -14.2115 -1.9791 0.9806 0 9
34.6175 -14.0500 -2.0001 0.9444 0 9
35.7952 -14.1522 -2.0607 0.4753 0 9
35.8984 -13.8189 -2.0594 0.0535 0 1
36.0726 -13.5125 -2.0623 0.4723 0 1
36.8151 -13.4122 -2.0977 0.4643 0 1
37.5837 -13.3084 -2.1345 0.4563 0 1
35.8868 -10.5549 -2.0026 0.9116 0 5
33.9717 14.7833 -1.9835 0.9632 0 5
36.0611 -0.0000 -2.7462 0.0759 0 6
36.0596 0.3262 -2.7462 0.0759 0 7
36.0552 0.6523 -2.7462 0.0759 0 7
36.0478 0.9784 -2.7462 0.0759 0 7
36.0375 1.3044 -2.7462 0.0759 0 7
36.0242 1.6304 -2.7462 0.0759 0 7
36.0080 1.9562 -2.7462 0.0759 0 7
35.9888 2.2818 -2.7462 0.0759 0 7
35.9667 2.6072 -2.7462 0.0759 0 7
35.9416 2.9324 -2.7462 0.0759 0 7
35.9136 3.2574 -2.7462 0.0759 0 7
35.8827 3.5821 -2.7462 0.0759 0 7
35.8488 3.9066 -2.7462 0.0759 0 6
35.8120 4.2307 -2.7462 0.0759 0 6
35.7723 4.5544 -2.7462 0.0759 0 7
35.7296 4.8778 -2.7462 0.0759 0 7
35.6841 5.2008 -2.7462 0.0759 0 7
35.6355 5.5234 -2.7462 0.0759 0 7
35.5841 5.8455 -2.7462 0.0759 0 7
35.5298 6.1671 -2.7462 0.0759 0 7
35.4725 6.4882 -2.7462 0.0759 0 7
35.4124 6.8088 -2.7462 0.0759 0 7
35.3494 7.1289 -2.7462 0.0759 0 7
35.2835 7.4483 -2.7462 0.0759 0 7
35.2147 7.7672 -2.7462 0.0759 0 7
35.1429 8.0854 -2.7462 0.0759 0 7
35.0684 8.4029 -2.7462 0.0759 0 7
34.9909 8.7198 -2.7462 0.0759 0 7
34.9106 9.0359 -2.7462 0.0759 0 7
34.8275 9.3514 -2.7462 0.0759 0 7
34.7415 9.6660 -2.7462 0.0759 0 7
34.6526 9.9799 -2.7462 0.0759 0 7
34.5609 10.2929 -2.7462 0.0759 0 7
34.4664 10.6051 -2.7462 0.0759 0 7
34.3691 10.9164 -2.7462 0.0759 0 7
34.2690 11.2269 -2.7462 0.0759 0 6
34.1660 11.5364 -2.7462 0.0759 0 7
34.0602 11.8449 -2.7462 0.0759 0 7
33.9517 12.1525 -2.7462 0.0759 0 7
33.8404 12.4591 -2.7462 0.0759 0 7
33.7263 12.7647 -2.7462 0.0759 0 7
33.6095 13.0693 -2.7462 0.0759 0 7
33.4899 13.3728 -2.7462 0.0759 0 7
33.3605 13.6723 -2.7456 0.0801 0 8
33.1742 13.9477 -2.7405 0.0802 0 8
32.3908 13.9644 -2.6861 0.2718 0 8
31.2796 13.8222 -2.6042 0.2803 0 8
31.0279 14.0478 -2.5938 0.0759 0 8
30.8996 14.3279 -2.5938 0.0759 0 8
30.7687 14.6068 -2.5938 0.0759 0 8
30.6353 14.8845 -2.5938 0.0759 0 8
30.4995 15.1610 -2.5938 0.0759 0 8
30.3611 15.4363 -2.5938 0.0759 0 8
30.2202 15.7103 -2.5938 0.0759 0 8
30.0769 15.9830 -2.5938 0.0759 0 8
29.9311 16.2543 -2.5938 0.0759 0 8
29.7828 16.5244 -2.5938 0.0759 0 8
29.6321 16.7932 -2.5938 0.0759 0 8
29.4790 17.0605 -2.5938 0.0759 0 8
29.3235 17.3264 -2.5938 0.0759 0 8
29.1656 17.5910 -2.5938 0.0759 0 8
29.0053 17.8541 -2.5938 0.0759 0 8
28.8426 18.1157 -2.5938 0.0759 0 8
28.6775 18.3759 -2.5938 0.0759 0 8
28.5101 18.6345 -2.5938 0.0759 0 8
28.3404 18.8916 -2.5938 0.0759 0 8
28.1684 19.1472 -2.5938 0.0759 0 8
27.9940 19.4012 -2.5938 0.0759 0 8
27.8174 19.6536 -2.5938 0.0759 0 8
27.6385 19.9044 -2.5938 0.0759 0 8
16.7063 12.2624 -1.5782 0.6296 0 5
27.2739 20.4012 -2.5938 0.0759 0 8
27.0882 20.6470 -2.5938 0.0759 0 8
26.9004 20.8912 -2.5938 0.0759 0 8
26.7103 21.1337 -2.5938 0.0759 0 8
26.5180 21.3744 -2.5938 0.0759 0 8
26.3236 21.6134 -2.5938 0.0759 0 8
26.1270 21.8506 -2.5938 0.0759 0 8
25.9283 22.0861 -2.5938 0.0759 0 8
25.7275 22.3197 -2.5938 0.0759 0 8
25.5245 22.5515 -2.5938 0.0759 0 8
25.3195 22.7815 -2.5938 0.0759 0 8
25.1124 23.0095 -2.5938 0.0759 0 8
24.9033 23.2357 -2.5938 0.0759 0 8
24.6921 23.4601 -2.5938 0.0759 0 8
24.4788 23.6824 -2.5938 0.0759 0 8
24.2636 23.9029 -2.5938 0.0759 0 8
24.0465 24.1214 -2.5938 0.0759 0 8
23.8273 24.3379 -2.5938 0.0759 0 8
23.6062 24.5524 -2.5938 0.0759 0 8
23.3831 24.7650 -2.5938 0.0759 0 8
23.1581 24.9754 -2.5938 0.0759 0 8
22.9313 25.1839 -2.5938 0.0759 0 8
22.7025 25.3903 -2.5938 0.0759 0 8
22.4720 25.5946 -2.5938 0.0759 0 8
22.2395 25.7968 -2.5938 0.0759 0 8
22.0052 25.9969 -2.5938 0.0759 0 8
21.7692 26.1949 -2.5938 0.0759 0 8
21.5314 26.3908 -2.5938 0.0759 0 8
21.2918 26.5844 -2.5938 0.0759 0 8
21.0505 26.7759 -2.5938 0.0759 0 8
20.8074 26.9652 -2.5938 0.0759 0 8
20.5626 27.1524 -2.5938 0.0759 0 8
20.3162 27.3372 -2.5938 0.0759 0 8
20.0681 27.5199 -2.5938 0.0759 0 8
19.8183 27.7003 -2.5938 0.0759 0 8
19.5670 27.8784 -2.5938 0.0759 0 8
19.3140 28.0543 -2.5938 0.0759 0 8
19.0595 28.2278 -2.5938 0.0759 0 8
18.8033 28.3991 -2.5938 0.0759 0 8
18.5457 28.5680 -2.5938 0.0759 0 8
18.2865 28.7346 -2.5938 0.0759 0 8
18.0259 28.8988 -2.5938 0.0759 0 8
17.7637 29.0607 -2.5938 0.0759 0 8
17.5001 29.2202 -2.5938 0.0759 0 8
17.2351 29.3773 -2.5938 0.0759 0 8
16.9687 29.5320 -2.5938 0.0759 0 8
16.7009 29.6842 -2.5938 0.0759 0 8
16.4317 29.8341 -2.5938 0.0759 0 8
16.1612 29.9815 -2.5938 0.0759 0 8
15.8893 30.1264 -2.5938 0.0759 0 8
15.6161 30.2689 -2.5938 0.0759 0 8
15.3417 30.4089 -2.5938 0.0759 0 8
15.0660 30.5465 -2.5938 0.0759 0 8
14.7891 30.6815 -2.5938 0.0759 0 8
14.5110 30.8140 -2.5938 0.0759 0 8
14.2317 30.9440 -2.5938 0.0759 0 8
13.9512 31.0715 -2.5938 0.0759 0 8
13.6696 31.1964 -2.5938 0.0759 0 8
13.3868 31.3188 -2.5938 0.0759 0 8
13.1030 31.4386 -2.5938 0.0759 0 8
12.8181 31.5558 -2.5938 0.0759 0 8
12.5321 31.6705 -2.5938 0.0759 0 8
12.2451 31.7825 -2.5938 0.0759 0 8
11.9571 31.8920 -2.5938 0.0759 0 8
11.6682 31.9988 -2.5938 0.0759 0 8
11.3783 32.1031 -2.5938 0.0759 0 8
11.0874 32.2047 -2.5938 0.0759 0 8
10.7957 32.3036 -2.5938 0.0759 0 8
10.5030 32.4000 -2.5938 0.0759 0 8
10.2095 32.4937 -2.5938 0.0759 0 8
9.9152 32.5847 -2.5938 0.0759 0 8
9.6200 32.6730 -2.5938 0.0759 0 8
9.3242 32.7588 -2.5938 0.0759 0 8
9.0274 32.8417 -2.5938 0.0759 0 8
8.7300 32.9220 -2.5938 0.0759 0 8
8.4318 32.9996 -2.5938 0.0759 0 8
8.1330 33.0746 -2.5938 0.0759 0 8
7.8335 33.1468 -2.5938 0.0759 0 8
7.5333 33.2163 -2.5938 0.0759 0 8
7.2326 33.2831 -2.5938 0.0759 0 8
6.9312 33.3471 -2.5938 0.0759 0 8
6.6293 33.4084 -2.5938 0.0759 0 8
6.3269 33.4670 -2.5938 0.0759 0 8
6.0239 33.5229 -2.5938 0.0759 0 8
5.7204 33.5760 -2.5938 0.0759 0 8
5.4165 33.6264 -2.5938 0.0759 0 8
5.1121 33.6740 -2.5938 0.0759 0 8
4.8073 33.7189 -2.5938 0.0759 0 8
4.5021 33.7610 -2.5938 0.0759 0 8
4.1965 33.8003 -2.5938 0.0759 0 8
3.8906 33.8369 -2.5938 0.0759 0 8
3.5844 33.8707 -2.5938 0.0759 0 8
3.2779 33.9017 -2.5938 0.0759 0 8
2.9711 33.9300 -2.5938 0.0759 0 8
2.6641 33.9555 -2.5938 0.0759 0 8
2.3568 33.9782 -2.5938 0.0759 0 8
2.0494 33.9981 -2.5938 0.0759 0 8
1.7418 34.0153 -2.5938 0.0759 0 8
1.4340 34.0296 -2.5938 0.0759 0 8
1.1262 34.0412 -2.5938 0.0759 0 8
0.8182 34.0500 -2.5938 0.0759 0 8
0.5101 34.0560 -2.5938 0.0759 0 8
0.2027 34.1557 -2.6011 0.1578 0 8
-0.1119 35.9667 -2.7390 0.0783 0 8
-0.4381 36.0339 -2.7443 0.0782 0 8
-0.7646 36.0530 -2.7462 0.0759 0 7
-1.0906 36.0446 -2.7462 0.0759 0 7
-1.4166 36.0332 -2.7462 0.0759 0 7
-1.7425 36.0189 -2.7462 0.0759 0 7
-2.0682 36.0017 -2.7462 0.0759 0 7
-2.3938 35.9815 -2.7462 0.0759 0 7
-2.7192 35.9584 -2.7462 0.0759 0 7
-3.0443 35.9323 -2.7462 0.0759 0 7
-3.3692 35.9033 -2.7462 0.0759 0 7
-3.6938 35.8714 -2.7462 0.0759 0 7
-4.0181 35.8365 -2.7462 0.0759 0 7
-4.3421 35.7987 -2.7462 0.0759 0 7
-4.6658 35.7580 -2.7462 0.0759 0 7
-4.9890 35.7143 -2.7462 0.0759 0 7
-5.3118 35.6677 -2.7462 0.0759 0 7
-5.6342 35.6182 -2.7462 0.0759 0 7
-5.9562 35.5658 -2.7462 0.0759 0 7
-6.2777 35.5104 -2.7462 0.0759 0 7
-6.5986 35.4522 -2.7462 0.0759 0 7
-6.9190 35.3911 -2.7462 0.0759 0 7
-7.2389 35.3270 -2.7462 0.0759 0 7
-7.5581 35.2601 -2.7462 0.0759 0 7
-7.8767 35.1903 -2.7462 0.0759 0 7
-8.1947 35.1176 -2.7462 0.0759 0 7
-8.5120 35.0420 -2.7462 0.0759 0 7
-8.8287 34.9636 -2.7462 0.0759 0 7
-9.1445 34.8823 -2.7462 0.0759 0 7
-9.4597 34.7982 -2.7462 0.0759 0 7
-9.7741 34.7112 -2.7462 0.0759 0 7
-10.0876 34.6214 -2.7462 0.0759 0 7
-10.4004 34.5287 -2.7462 0.0759 0 7
-10.7123 34.4332 -2.7462 0.0759 0 7
-11.0233 34.3349 -2.7462 0.0759 0 7
-11.3334 34.2338 -2.7462 0.0759 0 7
-11.6426 34.1299 -2.7462 0.0759 0 7
-11.9509 34.0232 -2.7462 0.0759 0 7
-12.2581 33.9137 -2.7462 0.0759 0 7
-12.5644 33.8014 -2.7462 0.0759 0 7
-12.8696 33.6864 -2.7462 0.0759 0 7
-13.1738 33.5686 -2.7462 0.0759 0 7
-13.4769 33.4481 -2.7462 0.0759 0 7
-13.7789 33.3248 -2.7462 0.0759 0 7
-14.0798 33.1988 -2.7462 0.0759 0 7
-14.3795 33.0701 -2.7462 0.0759 0 7
-14.6780 32.9387 -2.7462 0.0759 0 7
-14.9754 32.8046 -2.7462 0.0759 0 7
-15.2715 32.6677 -2.7462 0.0759 0 7
-15.5664 32.5283 -2.7462 0.0759 0 7
-15.8599 32.3861 -2.7462 0.0759 0 7
-16.1522 32.2414 -2.7462 0.0759 0 6
-16.4432 32.0939 -2.7462 0.0759 0 7
-16.7328 31.9439 -2.7462 0.0759 0 7
-17.0211 31.7912 -2.7462 0.0759 0 7
-17.3080 31.6360 -2.7462 0.0759 0 7
-17.5934 31.4781 -2.7462 0.0759 0 7
-17.8774 31.3177 -2.7462 0.0759 0 7
-18.1468 31.1321 -2.7442 0.0823 0 8
-18.3960 30.9136 -2.7395 0.0824 0 8
-18.3612 30.2294 -2.6934 0.3988 0 8
-18.2612 29.4609 -2.6396 0.4119 0 8
-18.2054 28.7860 -2.5938 0.0759 0 8
-18.4650 28.6202 -2.5938 0.0759 0 8
-18.7231 28.4520 -2.5938 0.0759 0 8
-18.9797 28.2815 -2.5938 0.0759 0 8
-19.2348 28.1086 -2.5938 0.0759 0 8
-19.4882 27.9335 -2.5938 0.0759 0 8
-19.7401 27.7561 -2.5938 0.0759 0 8
-19.9904 27.5764 -2.5938 0.0759 0 8
-20.2390 27.3944 -2.5938 0.0759 0 8
-20.4859 27.2102 -2.5938 0.0759 0 8
-20.7312 27.0238 -2.5938 0.0759 0 8
-20.9748 26.8352 -2.5938 0.0759 0 8
-21.2167 26.6444 -2.5938 0.0759 0 8
-21.4568 26.4514 -2.5938 0.0759 0 8
-21.6952 26.2562 -2.5938 0.0759 0 8
-21.9318 26.0589 -2.5938 0.0759 0 8
-22.1667 25.8594 -2.5938 0.0759 0 8
-22.3996 25.6579 -2.5938 0.0759 0 8
-22.6308 25.4542 -2.5938 0.0759 0 8
-22.8601 25.2485 -2.5938 0.0759 0 8
-23.0876 25.0407 -2.5938 0.0759 0 8
-23.3131 24.8308 -2.5938 0.0759 0 8
-23.5368 24.6189 -2.5938 0.0759 0 8
-23.7585 24.4050 -2.5938 0.0759 0 8
-23.9782 24.1888 -2.5938 0.0759 0 8
-24.1961 23.9713 -2.5938 0.0759 0 8
-24.4119 23.7514 -2.5938 0.0759 0 8
-24.6258 23.5296 -2.5938 0.0759 0 8
-24.8376 23.3059 -2.5938 0.0759 0 8
-25.0474 23.0803 -2.5938 0.0759 0 8
-25.2551 22.8528 -2.5938 0.0759 0 8
-25.4608 22.6234 -2.5938 0.0759 0 8
-25.6644 22.3922 -2.5938 0.0759 0 8
-25.8659 22.1591 -2.5938 0.0759 0 8
-26.0653 21.9242 -2.5938 0.0759 0 8
-26.2625 21.6876 -2.5938 0.0759 0 8
-26.4576 21.4491 -2.5938 0.0759 0 8
-26.6506 21.2089 -2.5938 0.0759 0 8
-26.8413 20.9670 -2.5938 0.0759 0 8
-27.0299 20.7234 -2.5938 0.0759 0 8
-27.2162 20.4780 -2.5938 0.0759 0 8
-27.4003 20.2310 -2.5938 0.0759 0 8
-27.5822 19.9823 -2.5938 0.0759 0 8
-27.7618 19.7320 -2.5938 0.0759 0 8
-27.9392 19.4801 -2.5938 0.0759 0 8
-28.1142 19.2266 -2.5938 0.0759 0 8
-28.2870 18.9715 -2.5938 0.0759 0 8
-28.4574 18.7149 -2.5938 0.0759 0 8
-28.6256 18.4567 -2.5938 0.0759 0 8
-28.7913 18.1970 -2.5938 0.0759 0 8
-28.9548 17.9358 -2.5938 0.0759 0 8
-29.1158 17.6732 -2.5938 0.0759 0 8
-29.2745 17.4091 -2.5938 0.0759 0 8
-29.4308 17.1436 -2.5938 0.0759 0 8
-29.5846 16.8767 -2.5938 0.0759 0 8
-29.7361 16.6084 -2.5938 0.0759 0 8
-29.8851 16.3387 -2.5938 0.0759 0 8
-30.0316 16.0677 -2.5938 0.0759 0 8
-30.1757 15.7954 -2.5938 0.0759 0 8
-30.3174 15.5218 -2.5938 0.0759 0 8
-30.4565 15.2470 -2.5938 0.0759 0 8
-18.7213 9.1613 -1.5872 0.9565 0 5
-30.7274 14.6935 -2.5938 0.0759 0 8
-30.8590 14.4150 -2.5938 0.0759 0 8
-30.9881 14.1353 -2.5938 0.0759 0 8
-31.1147 13.8544 -2.5938 0.0759 0 8
-31.2388 13.5724 -2.5938 0.0759 0 8
-31.3603 13.2893 -2.5938 0.0759 0 8
-31.4792 13.0051 -2.5938 0.0759 0 8
-31.5955 12.7198 -2.5938 0.0759 0 8
-31.7093 12.4335 -2.5938 0.0759 0 8
-31.8205 12.1461 -2.5938 0.0759 0 8
-31.9290 11.8578 -2.5938 0.0759 0 8
-32.0350 11.5685 -2.5938 0.0759 0 8
-32.1383 11.2783 -2.5938 0.0759 0 8
-32.2390 10.9871 -2.5938 0.0759 0 8
-32.3371 10.6951 -2.5938 0.0759 0 8
-32.4325 10.4021 -2.5938 0.0759 0 8
-32.5253 10.1083 -2.5938 0.0759 0 8
-32.6154 9.8137 -2.5938 0.0759 0 8
-32.7028 9.5183 -2.5938 0.0759 0 8
-32.7876 9.2221 -2.5938 0.0759 0 8
-32.8696 8.9251 -2.5938 0.0759 0 8
-32.9490 8.6275 -2.5938 0.0759 0 8
-33.0257 8.3291 -2.5938 0.0759 0 8
-33.0997 8.0300 -2.5938 0.0759 0 8
-33.1710 7.7303 -2.5938 0.0759 0 8
-33.2396 7.4299 -2.5938 0.0759 0 8
-33.3054 7.1290 -2.5938 0.0759 0 8
-33.3685 6.8274 -2.5938 0.0759 0 8
-33.4289 6.5253 -2.5938 0.0759 0 8
-33.4866 6.2227 -2.5938 0.0759 0 8
-33.5415 5.9195 -2.5938 0.0759 0 8
-33.5937 5.6159 -2.5938 0.0759 0 8
-33.6431 5.3118 -2.5938 0.0759 0 8
-33.6897 5.0073 -2.5938 0.0759 0 8
-33.7337 4.7023 -2.5938 0.0759 0 8
-34.4891 4.4900 -2.6486 0.2756 0 8
-35.6347 4.3117 -2.7335 0.2671 0 8
-35.8004 4.0035 -2.7433 0.0801 0 8
-35.8724 3.6834 -2.7462 0.0759 0 7
-35.9043 3.3587 -2.7462 0.0759 0 7
-35.9332 3.0338 -2.7462 0.0759 0 7
-35.9592 2.7087 -2.7462 0.0759 0 7
-35.9822 2.3833 -2.7462 0.0759 0 7
-36.0023 2.0577 -2.7462 0.0759 0 7
-36.0194 1.7320 -2.7462 0.0759 0 7
-36.0336 1.4061 -2.7462 0.0759 0 7
-36.0449 1.0801 -2.7462 0.0759 0 7
-36.0532 0.7541 -2.7462 0.0759 0 7
-36.0585 0.4279 -2.7462 0.0759 0 7
-36.0609 0.1017 -2.7462 0.0759 0 7
-36.0604 -0.2245 -2.7462 0.0759 0 7
-36.0569 -0.5506 -2.7462 0.0759 0 7
-36.0504 -0.8767 -2.7462 0.0759 0 7
-36.0410 -1.2028 -2.7462 0.0759 0 7
-36.0286 -1.5287 -2.7462 0.0759 0 7
-36.0133 -1.8546 -2.7462 0.0759 0 7
-35.9951 -2.1803 -2.7462 0.0759 0 7
-35.9739 -2.5058 -2.7462 0.0759 0 7
-35.9498 -2.8311 -2.7462 0.0759 0 7
-35.9227 -3.1561 -2.7462 0.0759 0 7
-35.8927 -3.4809 -2.7462 0.0759 0 7
-35.8597 -3.8054 -2.7462 0.0759 0 7
-35.8238 -4.1296 -2.7462 0.0759 0 7
-35.7850 -4.4535 -2.7462 0.0759 0 7
-35.7432 -4.7770 -2.7462 0.0759 0 7
-35.6986 -5.1001 -2.7462 0.0759 0 7
-35.6510 -5.4228 -2.7462 0.0759 0 7
-35.6005 -5.7451 -2.7462 0.0759 0 6
-35.5470 -6.0669 -2.7462 0.0759 0 7
-33.6196 -6.0514 -2.6014 0.0759 0 8
-32.3047 -6.1169 -2.5038 0.4216 0 19
-26.7666 -5.3195 -2.0782 0.4297 0 19
-23.8864 -4.9721 -1.8580 0.9430 0 19
-22.4750 -4.8908 -1.7516 0.8883 0 19
-33.3116 -7.5652 -2.6014 0.0759 0 14
-33.2419 -7.8662 -2.6014 0.0759 0 14
-33.1693 -8.1665 -2.6014 0.0759 0 14
-33.0941 -8.4662 -2.6014 0.0759 0 14
-21.1578 -5.6170 -1.6670 0.4507 0 9
-20.9084 -5.7538 -1.6514 0.8178 0 9
-20.8435 -5.9393 -1.6505 0.8699 0 9
-20.8831 -6.1553 -1.6580 0.6809 0 9
-26.0191 -7.9256 -2.0713 0.4493 0 19
-24.9359 -7.8429 -1.9907 0.2215 0 19
-23.5226 -7.6328 -1.8833 0.8392 0 19
-22.1174 -7.3986 -1.7760 0.8343 0 19
-34.0935 -11.7488 -2.7462 0.0759 0 7
-33.9858 -12.0567 -2.7462 0.0759 0 7
-33.8754 -12.3636 -2.7462 0.0759 0 7
-33.7621 -12.6695 -2.7462 0.0759 0 7
-33.6462 -12.9744 -2.7462 0.0759 0 7
-33.5274 -13.2782 -2.7462 0.0759 0 7
-33.4060 -13.5809 -2.7462 0.0759 0 7
-33.2817 -13.8826 -2.7462 0.0759 0 7
-33.1548 -14.1830 -2.7462 0.0759 0 7
-33.0252 -14.4823 -2.7462 0.0759 0 7
-32.8928 -14.7805 -2.7462 0.0759 0 7
-32.7578 -15.0774 -2.7462 0.0759 0 7
-32.6201 -15.3731 -2.7462 0.0759 0 7
-32.4797 -15.6675 -2.7462 0.0759 0 7
-32.3366 -15.9607 -2.7462 0.0759 0 7
-32.1909 -16.2525 -2.7462 0.0759 0 7
-32.0426 -16.5430 -2.7462 0.0759 0 7
-31.8917 -16.8322 -2.7462 0.0759 0 6
-31.7381 -17.1200 -2.7462 0.0759 0 7
-31.5819 -17.4063 -2.7462 0.0759 0 7
-31.4232 -17.6913 -2.7462 0.0759 0 7
-31.2619 -17.9748 -2.7462 0.0759 0 7
-31.0980 -18.2568 -2.7462 0.0759 0 7
-30.9316 -18.5374 -2.7462 0.0759 0 7
-30.7627 -18.8164 -2.7462 0.0759 0 7
-30.5912 -19.0939 -2.7462 0.0759 0 7
-30.3779 -19.3448 -2.7426 0.0829 0 8
-30.0924 -19.5478 -2.7327 0.4272 0 8
-29.3629 -19.4538 -2.6823 0.4352 0 8
-28.6596 -19.3631 -2.6339 0.4432 0 8
-28.0486 -19.3221 -2.5938 0.0759 0 8
-27.8727 -19.5751 -2.5938 0.0759 0 8
-27.6945 -19.8264 -2.5938 0.0759 0 8
-27.5140 -20.0761 -2.5938 0.0759 0 8
-27.3313 -20.3242 -2.5938 0.0759 0 8
-27.1464 -20.5705 -2.5938 0.0759 0 8
-26.9592 -20.8152 -2.5938 0.0759 0 8
-26.7698 -21.0583 -2.5938 0.0759 0 8
-26.5782 -21.2995 -2.5938 0.0759 0 8
-26.3845 -21.5391 -2.5938 0.0759 0 8
-26.1886 -21.7768 -2.5938 0.0759 0 8
-25.9905 -22.0128 -2.5938 0.0759 0 8
-25.7903 -22.2470 -2.5938 0.0759 0 8
-25.5880 -22.4794 -2.5938 0.0759 0 8
-25.3837 -22.7099 -2.5938 0.0759 0 8
-25.1772 -22.9386 -2.5938 0.0759 0 8
-24.9687 -23.1654 -2.5938 0.0759 0 8
-24.7581 -23.3903 -2.5938 0.0759 0 8
-24.5456 -23.6133 -2.5938 0.0759 0 8
-24.3310 -23.8343 -2.5938 0.0759 0 8
-24.1144 -24.0535 -2.5938 0.0759 0 8
-23.8958 -24.2706 -2.5938 0.0759 0 8
-23.6753 -24.4857 -2.5938 0.0759 0 8
-23.4528 -24.6989 -2.5938 0.0759 0 8
-23.2285 -24.9100 -2.5938 0.0759 0 8
-23.0022 -25.1191 -2.5938 0.0759 0 8
-22.7741 -25.3261 -2.5938 0.0759 0 8
-19.7163 -22.3287 -2.2684 0.6532 0 20
-19.3208 -22.2839 -2.2460 0.7507 0 20
-22.0785 -25.9348 -2.5938 0.0759 0 8
-21.8430 -26.1334 -2.5938 0.0759 0 8
-21.6057 -26.3299 -2.5938 0.0759 0 8
-21.3667 -26.5243 -2.5938 0.0759 0 8
-21.1259 -26.7164 -2.5938 0.0759 0 8
-20.8834 -26.9065 -2.5938 0.0759 0 8
-20.6392 -27.0942 -2.5938 0.0759 0 8
-20.3932 -27.2798 -2.5938 0.0759 0 8
-20.1456 -27.4632 -2.5938 0.0759 0 8
-19.8964 -27.6443 -2.5938 0.0759 0 8
-19.6455 -27.8231 -2.5938 0.0759 0 8
-19.3931 -27.9997 -2.5938 0.0759 0 8
-19.1390 -28.1739 -2.5938 0.0759 0 8
-18.8834 -28.3459 -2.5938 0.0759 0 8
-18.6262 -28.5156 -2.5938 0.0759 0 8
-17.6628 -27.5825 -2.4943 0.3300 0 20
-18.1073 -28.8478 -2.5938 0.0759 0 8
-16.8496 -27.3913 -2.4490 0.9863 0 20
-17.5825 -29.1707 -2.5938 0.0759 0 8
-17.3179 -29.3286 -2.5938 0.0759 0 8
-16.9286 -29.2708 -2.5750 0.6785 0 20
-16.7802 -29.6295 -2.5931 0.5156 0 20
-16.5157 -29.7881 -2.5938 0.0759 0 8
-14.1599 -26.0924 -2.2608 0.8011 0 9
-13.8240 -26.0325 -2.2446 0.8065 0 9
-13.6760 -26.3259 -2.2592 0.9746 0 9
-13.4433 -26.4602 -2.2602 0.9450 0 9
-13.0962 -26.3650 -2.2418 0.5643 0 9
-13.0390 -26.8569 -2.2735 0.5568 0 9
-14.5978 -30.7729 -2.5938 0.0759 0 8
-14.3189 -30.9037 -2.5938 0.0759 0 8
-14.0388 -31.0320 -2.5938 0.0759 0 8
-13.7575 -31.1577 -2.5938 0.0759 0 8
-13.4751 -31.2809 -2.5938 0.0759 0 8
-13.1916 -31.4015 -2.5938 0.0759 0 8
-12.9070 -31.5195 -2.5938 0.0759 0 8
-12.6214 -31.6350 -2.5938 0.0759 0 8
-12.3347 -31.7479 -2.5938 0.0759 0 8
-12.0471 -31.8581 -2.5938 0.0759 0 8
-11.7584 -31.9658 -2.5938 0.0759 0 8
-11.4688 -32.0709 -2.5938 0.0759 0 8
-10.8377 -31.1934 -2.5148 0.8903 0 5
-10.8867 -32.2731 -2.5938 0.0759 0 8
-10.5943 -32.3702 -2.5938 0.0759 0 8
-10.3011 -32.4647 -2.5938 0.0759 0 8
-10.0070 -32.5566 -2.5938 0.0759 0 8
-9.7879 -32.9002 -2.6140 0.4175 0 8
-9.6775 -33.6399 -2.6657 0.4094 0 8
-9.5628 -34.4093 -2.7197 0.4013 0 8
-9.3258 -34.7727 -2.7416 0.0825 0 8
-9.0258 -34.9133 -2.7462 0.0759 0 7
-8.7096 -34.9935 -2.7462 0.0759 0 7
-8.3927 -35.0708 -2.7462 0.0759 0 7
-8.0751 -35.1453 -2.7462 0.0759 0 7
-7.7569 -35.2169 -2.7462 0.0759 0 7
-7.4380 -35.2856 -2.7462 0.0759 0 7
-7.1186 -35.3515 -2.7462 0.0759 0 7
-6.7985 -35.4144 -2.7462 0.0759 0 7
-6.4779 -35.4744 -2.7462 0.0759 0 7
-6.1568 -35.5316 -2.7462 0.0759 0 7
-5.8351 -35.5858 -2.7462 0.0759 0 7
-5.5130 -35.6372 -2.7462 0.0759 0 7
-5.1904 -35.6856 -2.7462 0.0759 0 7
-4.8674 -35.7311 -2.7462 0.0759 0 7
-4.5440 -35.7736 -2.7462 0.0759 0 7
-4.2203 -35.8133 -2.7462 0.0759 0 7
-3.8961 -35.8500 -2.7462 0.0759 0 7
-3.5717 -35.8837 -2.7462 0.0759 0 7
-3.2470 -35.9146 -2.7462 0.0759 0 7
-2.9220 -35.9425 -2.7462 0.0759 0 7
-2.5967 -35.9674 -2.7462 0.0759 0 7
-2.2713 -35.9895 -2.7462 0.0759 0 7
-1.9457 -36.0085 -2.7462 0.0759 0 7
-1.6199 -36.0247 -2.7462 0.0759 0 7
-1.2940 -36.0378 -2.7462 0.0759 0 7
-0.9679 -36.0481 -2.7462 0.0759 0 7
-0.6418 -36.0553 -2.7462 0.0759 0 7
-0.3157 -36.0597 -2.7462 0.0759 0 7
0.0105 -36.0611 -2.7462 0.0759 0 7
0.3367 -36.0595 -2.7462 0.0759 0 6
0.6629 -36.0550 -2.7462 0.0759 0 7
0.9889 -36.0475 -2.7462 0.0759 0 7
1.3150 -36.0371 -2.7462 0.0759 0 7
1.6409 -36.0237 -2.7462 0.0759 0 7
1.9667 -36.0074 -2.7462 0.0759 0 7
2.2923 -35.9881 -2.7462 0.0759 0 7
2.6177 -35.9659 -2.7462 0.0759 0 7
2.9429 -35.9408 -2.7462 0.0759 0 7
3.2679 -35.9127 -2.7462 0.0759 0 7
3.5926 -35.8817 -2.7462 0.0759 0 7
3.9171 -35.8477 -2.7462 0.0759 0 7
4.2411 -35.8108 -2.7462 0.0759 0 7
4.5649 -35.7710 -2.7462 0.0759 0 7
4.8883 -35.7282 -2.7462 0.0759 0 7
5.2112 -35.6825 -2.7462 0.0759 0 7
5.5338 -35.6339 -2.7462 0.0759 0 7
5.8559 -35.5824 -2.7462 0.0759 0 7
6.1775 -35.5280 -2.7462 0.0759 0 7
6.4986 -35.4707 -2.7462 0.0759 0 7
6.8192 -35.4104 -2.7462 0.0759 0 7
7.1392 -35.3473 -2.7462 0.0759 0 6
7.4586 -35.2813 -2.7462 0.0759 0 7
7.7774 -35.2124 -2.7462 0.0759 0 7
8.0957 -35.1406 -2.7462 0.0759 0 7
8.4132 -35.0659 -2.7462 0.0759 0 7
8.7300 -34.9884 -2.7462 0.0759 0 7
9.0461 -34.9080 -2.7462 0.0759 0 7
9.3479 -34.7741 -2.7422 0.0781 0 8
9.4660 -33.9842 -2.6865 0.1472 0 8
9.4356 -32.7268 -2.5938 0.0759 0 8
9.7312 -32.6401 -2.5938 0.0759 0 8
10.0260 -32.5507 -2.5938 0.0759 0 8
10.3201 -32.4587 -2.5938 0.0759 0 8
10.6132 -32.3640 -2.5938 0.0759 0 8
10.9056 -32.2667 -2.5938 0.0759 0 8
11.1970 -32.1668 -2.5938 0.0759 0 8
11.4875 -32.0642 -2.5938 0.0759 0 8
11.7770 -31.9589 -2.5938 0.0759 0 8
8.5769 -22.6414 -1.8438 0.9833 0 5
11.6051 -29.8184 -2.4367 0.2336 0 1
11.4452 -28.6384 -2.3486 0.2424 0 1
11.2965 -27.5407 -2.2669 0.2511 0 1
11.1577 -26.5167 -2.1908 0.2598 0 1
11.0280 -25.5592 -2.1199 0.2685 0 1
10.9374 -24.7318 -2.0594 0.0759 0 1
11.1607 -24.6319 -2.0594 0.0759 0 1
11.1799 -24.0923 -2.0226 0.4002 0 9
11.4687 -24.1402 -2.0353 0.8381 0 9
11.3458 -23.3346 -1.9759 0.9179 0 9
11.4198 -22.9564 -1.9526 0.4141 0 9
11.4645 -22.5329 -1.9253 0.5845 0 9
11.4754 -22.0583 -1.8935 0.6797 0 9
11.6056 -21.8242 -1.8824 0.9740 0 9
11.8031 -21.7193 -1.8824 0.9748 0 9
11.7356 -21.1370 -1.8411 0.5224 0 9
11.8320 -20.8638 -1.8265 0.6567 0 9
11.9049 -20.5567 -1.8090 0.9188 0 9
11.9552 -20.2196 -1.7888 0.1085 0 9
12.0602 -19.9824 -1.7774 0.2086 0 9
12.1935 -19.7964 -1.7706 0.0786 0 9
12.2982 -19.5676 -1.7600 0.4756 0 9
12.3950 -19.3313 -1.7488 0.1130 0 9
12.5352 -19.1661 -1.7440 0.7690 0 9
12.6791 -19.0086 -1.7400 0.6313 0 9
12.8033 -18.8238 -1.7336 0.2688 0 9
12.9971 -18.7418 -1.7369 0.2683 0 9
13.2148 -18.6924 -1.7433 0.6071 0 9
13.2519 -18.3897 -1.7262 0.7068 0 9
13.4830 -18.3581 -1.7346 0.7034 0 9
13.6412 -18.2255 -1.7336 0.5129 0 9
13.8083 -18.1050 -1.7340 0.5227 0 9
13.9167 -17.9089 -1.7272 0.5248 0 9
14.2595 -18.0114 -1.7494 0.9986 0 9
14.2949 -17.7243 -1.7340 0.4605 0 9
14.4482 -17.5864 -1.7333 0.1264 0 9
14.6294 -17.4821 -1.7360 0.8994 0 9
14.7677 -17.3265 -1.7337 0.5927 0 9
14.9199 -17.1877 -1.7332 0.4886 0 9
15.1079 -17.0896 -1.7371 0.7677 0 9
15.3196 -17.0164 -1.7436 0.6301 0 9
15.3915 -16.7883 -1.7345 0.5428 0 9
15.6575 -16.7713 -1.7473 0.8164 0 9
15.8375 -16.6594 -1.7505 0.9828 0 9
16.1405 -16.6735 -1.7672 0.4302 0 9
16.3577 -16.5949 -1.7745 0.4094 0 9
16.7161 -16.6544 -1.7969 0.8927 0 9
16.8525 -16.4893 -1.7955 0.6003 0 9
17.2388 -16.5647 -1.8206 0.8891 0 9
17.4115 -16.4304 -1.8231 0.9319 0 9
17.7070 -16.4089 -1.8384 0.6170 0 9
17.9258 -16.3129 -1.8457 0.7741 0 9
18.3802 -16.4248 -1.8771 0.9275 0 9
18.4671 -16.2045 -1.8710 0.5904 0 9
19.0182 -16.3860 -1.9117 0.3826 0 9
19.2278 -16.2659 -1.9179 0.4185 0 9
19.3839 -16.0993 -1.9189 0.5129 0 9
19.8258 -16.1656 -1.9481 0.7672 0 9
20.1733 -16.1473 -1.9678 0.9530 0 9
20.2782 -15.9326 -1.9639 0.9603 0 9
20.6974 -15.9613 -1.9904 0.8228 0 9
21.1894 -16.0371 -2.0237 0.8087 0 9
21.5569 -16.0107 -2.0449 0.7012 0 9
21.9034 -15.9626 -2.0640 0.5554 0 9
21.9978 -15.7287 -2.0594 0.0759 0 1
22.1392 -15.5291 -2.0594 0.0759 0 1
22.3367 -15.3681 -2.0647 0.6701 0 1
22.7020 -15.3188 -2.0856 0.6634 0 1
23.0748 -15.2684 -2.1071 0.6566 0 1
23.4554 -15.2170 -2.1292 0.6498 0 1
23.8441 -15.1645 -2.1519 0.6429 0 1
24.2412 -15.1108 -2.1753 0.6360 0 1
24.6471 -15.0560 -2.1994 0.6290 0 1
25.0621 -14.9999 -2.2243 0.6220 0 1
25.4867 -14.9426 -2.2499 0.6149 0 1
25.9211 -14.8839 -2.2762 0.6078 0 1
26.3659 -14.8238 -2.3034 0.6006 0 1
26.8215 -14.7623 -2.3315 0.5934 0 1
27.2884 -14.6992 -2.3604 0.5861 0 1
27.7670 -14.6345 -2.3903 0.5788 0 1
28.2579 -14.5682 -2.4211 0.5714 0 1
28.7617 -14.5001 -2.4529 0.5640 0 1
29.2790 -14.4303 -2.4858 0.5566 0 1
29.8103 -14.3585 -2.5198 0.5491 0 1
30.3565 -14.2847 -2.5549 0.5415 0 1
30.9181 -14.2088 -2.5912 0.5339 0 1
31.0755 -13.9421 -2.5938 0.0759 0 8
31.2004 -13.6605 -2.5938 0.0759 0 8
31.3227 -13.3777 -2.5938 0.0759 0 8
31.4424 -13.0938 -2.5938 0.0759 0 8
31.5595 -12.8089 -2.5938 0.0759 0 8
31.6741 -12.5229 -2.5938 0.0759 0 8
31.7861 -12.2359 -2.5938 0.0759 0 8
31.8955 -11.9478 -2.5938 0.0759 0 8
32.0023 -11.6588 -2.5938 0.0759 0 8
32.1064 -11.3689 -2.5938 0.0759 0 8
32.2079 -11.0780 -2.5938 0.0759 0 8
32.3068 -10.7862 -2.5938 0.0759 0 8
32.8614 -10.6420 -2.6304 0.4438 0 8
33.5604 -10.5339 -2.6787 0.4358 0 8
34.2853 -10.4217 -2.7289 0.4278 0 8
34.5467 -10.1608 -2.7423 0.0829 0 8
34.6864 -9.8618 -2.7462 0.0759 0 7
34.7742 -9.5477 -2.7462 0.0759 0 7
34.8591 -9.2327 -2.7462 0.0759 0 7
34.9412 -8.9171 -2.7462 0.0759 0 7
35.0204 -8.6006 -2.7462 0.0759 0 7
35.0968 -8.2835 -2.7462 0.0759 0 7
35.1703 -7.9657 -2.7462 0.0759 0 7
35.2409 -7.6473 -2.7462 0.0759 0 7
35.3085 -7.3282 -2.7462 0.0759 0 6
35.3734 -7.0085 -2.7462 0.0759 0 7
35.4354 -6.6883 -2.7462 0.0759 0 7
35.4945 -6.3675 -2.7462 0.0759 0 7
35.5506 -6.0462 -2.7462 0.0759 0 7
35.6038 -5.7243 -2.7462 0.0759 0 7
35.6542 -5.4021 -2.7462 0.0759 0 7
35.7016 -5.0793 -2.7462 0.0759 0 7
35.7461 -4.7562 -2.7462 0.0759 0 7
35.7876 -4.4327 -2.7462 0.0759 0 7
35.8262 -4.1088 -2.7462 0.0759 0 7
35.8619 -3.7846 -2.7462 0.0759 0 7
35.8947 -3.4600 -2.7462 0.0759 0 7
35.9245 -3.1352 -2.7462 0.0759 0 7
35.9514 -2.8101 -2.7462 0.0759 0 7
35.9754 -2.4848 -2.7462 0.0759 0 7
35.9964 -2.1593 -2.7462 0.0759 0 7
36.0144 -1.8336 -2.7462 0.0759 0 7
36.0295 -1.5078 -2.7462 0.0759 0 7
36.0417 -1.1818 -2.7462 0.0759 0 7
36.0509 -0.8558 -2.7462 0.0759 0 7
36.0572 -0.5296 -2.7462 0.0759 0 7
36.0605 -0.2035 -2.7462 0.0759 0 7
36.0609 0.1227 -2.7462 0.0759 0 6
36.0583 0.4489 -2.7462 0.0759 0 7
36.0528 0.7751 -2.7462 0.0759 0 7
36.0443 1.1011 -2.7462 0.0759 0 7
36.0328 1.4271 -2.7462 0.0759 0 7
36.0184 1.7530 -2.7462 0.0759 0 7
36.0011 2.0787 -2.7462 0.0759 0 6
35.9809 2.4043 -2.7462 0.0759 0 7
35.9576 2.7296 -2.7462 0.0759 0 7
35.9315 3.0548 -2.7462 0.0759 0 7
35.9024 3.3797 -2.7462 0.0759 0 7
35.8703 3.7043 -2.7462 0.0759 0 6
35.8353 4.0286 -2.7462 0.0759 0 6
35.7975 4.3526 -2.7462 0.0759 0 6
35.7566 4.6762 -2.7462 0.0759 0 7
35.7128 4.9994 -2.7462 0.0759 0 7
35.6662 5.3223 -2.7462 0.0759 0 7
35.6166 5.6447 -2.7462 0.0759 0 7
35.5640 5.9666 -2.7462 0.0759 0 7
35.5086 6.2880 -2.7462 0.0759 0 7
35.4503 6.6090 -2.7462 0.0759 0 7
35.3891 6.9294 -2.7462 0.0759 0 7
35.3249 7.2492 -2.7462 0.0759 0 7
35.2579 7.5684 -2.7462 0.0759 0 7
35.1880 7.8870 -2.7462 0.0759 0 6
35.1152 8.2050 -2.7462 0.0759 0 7
35.0396 8.5223 -2.7462 0.0759 0 7
34.9611 8.8389 -2.7462 0.0759 0 7
34.8797 9.1547 -2.7462 0.0759 0 7
34.7954 9.4699 -2.7462 0.0759 0 7
34.7084 9.7842 -2.7462 0.0759 0 7
34.6184 10.0978 -2.7462 0.0759 0 7
34.5257 10.4105 -2.7462 0.0759 0 7
34.4301 10.7224 -2.7462 0.0759 0 7
34.3317 11.0333 -2.7462 0.0759 0 7
34.2305 11.3435 -2.7462 0.0759 0 7
34.1265 11.6526 -2.7462 0.0759 0 7
34.0197 11.9608 -2.7462 0.0759 0 7
33.9101 12.2680 -2.7462 0.0759 0 7
33.7978 12.5743 -2.7462 0.0759 0 7
33.6826 12.8795 -2.7462 0.0759 0 7
33.5648 13.1836 -2.7462 0.0759 0 7
33.4441 13.4867 -2.7462 0.0759 0 7
33.2906 13.7762 -2.7437 0.0801 0 8
33.1036 14.0508 -2.7386 0.0803 0 8
31.9646 13.9099 -2.6547 0.2750 0 8
31.1066 13.8726 -2.5938 0.0759 0 8
30.9799 14.1534 -2.5938 0.0759 0 8
30.8506 14.4330 -2.5938 0.0759 0 8
30.7188 14.7114 -2.5938 0.0759 0 8
30.5845 14.9887 -2.5938 0.0759 0 8
30.4477 15.2647 -2.5938 0.0759 0 8
30.3083 15.5395 -2.5938 0.0759 0 8
30.1665 15.8130 -2.5938 0.0759 0 8
30.0223 16.0853 -2.5938 0.0759 0 8
29.8755 16.3562 -2.5938 0.0759 0 8
29.7264 16.6257 -2.5938 0.0759 0 8
29.5748 16.8939 -2.5938 0.0759 0 8
29.4208 17.1607 -2.5938 0.0759 0 8
29.2643 17.4262 -2.5938 0.0759 0 8
29.1055 17.6902 -2.5938 0.0759 0 8
28.9443 17.9527 -2.5938 0.0759 0 8
26.3268 -0.0000 -2.6023 0.7465 0 8
26.3162 0.2380 -2.6014 0.0984 0 14
26.3130 0.4761 -2.6014 0.0984 0 14
26.3076 0.7141 -2.6014 0.0984 0 14
26.3001 0.9520 -2.6014 0.0984 0 14
26.2904 1.1898 -2.6014 0.0984 0 8
26.2785 1.4276 -2.6014 0.0984 0 8
27.7263 1.7579 -2.7462 0.0984 0 7
27.7093 2.0086 -2.7462 0.0984 0 7
27.6900 2.2592 -2.7462 0.0984 0 7
27.6684 2.5096 -2.7462 0.0984 0 7
27.6446 2.7597 -2.7462 0.0984 0 7
27.6185 3.0097 -2.7462 0.0984 0 6
27.5901 3.2594 -2.7462 0.0984 0 6
27.5595 3.5088 -2.7462 0.0984 0 7
27.5266 3.7579 -2.7462 0.0984 0 7
27.4915 4.0068 -2.7462 0.0984 0 7
27.4542 4.2553 -2.7462 0.0984 0 7
27.4145 4.5034 -2.7462 0.0984 0 7
27.3727 4.7512 -2.7462 0.0984 0 7
27.3286 4.9986 -2.7462 0.0984 0 7
27.2823 5.2456 -2.7462 0.0984 0 7
27.2337 5.4922 -2.7462 0.0984 0 7
27.1829 5.7383 -2.7462 0.0984 0 7
27.1299 5.9840 -2.7462 0.0984 0 7
27.0746 6.2291 -2.7462 0.0984 0 7
27.0172 6.4737 -2.7462 0.0984 0 7
26.9575 6.7179 -2.7462 0.0984 0 7
26.8957 6.9614 -2.7462 0.0984 0 7
26.8316 7.2044 -2.7462 0.0984 0 7
26.7653 7.4468 -2.7462 0.0984 0 7
26.6969 7.6886 -2.7462 0.0984 0 7
26.6262 7.9298 -2.7462 0.0984 0 7
26.5534 8.1703 -2.7462 0.0984 0 7
26.4784 8.4102 -2.7462 0.0984 0 7
26.4013 8.6493 -2.7462 0.0984 0 7
26.3220 8.8878 -2.7462 0.0984 0 7
26.2405 9.1255 -2.7462 0.0984 0 7
26.1569 9.3625 -2.7462 0.0984 0 7
26.0711 9.5987 -2.7462 0.0984 0 7
25.9832 9.8341 -2.7462 0.0984 0 7
25.8932 10.0688 -2.7462 0.0984 0 6
25.8011 10.3026 -2.7462 0.0984 0 7
25.7068 10.5355 -2.7462 0.0984 0 7
25.6105 10.7676 -2.7462 0.0984 0 7
25.5120 10.9988 -2.7462 0.0984 0 7
25.4115 11.2291 -2.7462 0.0984 0 7
25.3089 11.4585 -2.7462 0.0984 0 7
25.2042 11.6870 -2.7462 0.0984 0 7
25.0975 11.9145 -2.7462 0.0984 0 7
24.9887 12.1410 -2.7462 0.0984 0 7
24.8778 12.3665 -2.7462 0.0984 0 7
24.7403 12.5786 -2.7434 0.1038 0 8
24.5914 12.7841 -2.7396 0.1040 0 8
24.0514 12.7810 -2.6922 0.3513 0 8
23.3818 12.6977 -2.6300 0.3596 0 8
22.9451 12.7307 -2.5938 0.0984 0 8
22.8290 12.9377 -2.5938 0.0984 0 8
22.7111 13.1437 -2.5938 0.0984 0 8
22.5912 13.3485 -2.5938 0.0984 0 8
22.4696 13.5523 -2.5938 0.0984 0 8
22.3461 13.7550 -2.5938 0.0984 0 8
22.2207 13.9566 -2.5938 0.0984 0 8
22.0936 14.1570 -2.5938 0.0984 0 8
21.9646 14.3563 -2.5938 0.0984 0 8
21.8339 14.5544 -2.5938 0.0984 0 8
21.7013 14.7513 -2.5938 0.0984 0 8
21.5670 14.9470 -2.5938 0.0984 0 8
21.4309 15.1414 -2.5938 0.0984 0 8
16.8684 12.1481 -2.0548 0.4687 0 5
16.6442 12.2168 -2.0408 0.8790 0 5
21.0122 15.7174 -2.5938 0.0984 0 8
20.8692 15.9068 -2.5938 0.0984 0 8
20.7244 16.0949 -2.5938 0.0984 0 8
20.5780 16.2817 -2.5938 0.0984 0 8
20.4299 16.4672 -2.5938 0.0984 0 8
20.2801 16.6513 -2.5938 0.0984 0 8
20.1286 16.8341 -2.5938 0.0984 0 8
19.9756 17.0154 -2.5938 0.0984 0 8
19.8208 17.1954 -2.5938 0.0984 0 8
19.6645 17.3740 -2.5938 0.0984 0 8
19.5065 17.5512 -2.5938 0.0984 0 8
19.3470 17.7269 -2.5938 0.0984 0 8
19.1858 17.9012 -2.5938 0.0984 0 8
19.0231 18.0740 -2.5938 0.0984 0 8
18.8589 18.2453 -2.5938 0.0984 0 8
18.6931 18.4151 -2.5938 0.0984 0 8
18.5257 18.5835 -2.5938 0.0984 0 8
18.3569 18.7503 -2.5938 0.0984 0 8
18.1865 18.9155 -2.5938 0.0984 0 8
18.0146 19.0793 -2.5938 0.0984 0 8
17.8411 19.2414 -2.5938 0.0984 0 8
17.6666 19.4020 -2.5938 0.0984 0 8
17.4904 19.5611 -2.5938 0.0984 0 8
17.3127 19.7185 -2.5938 0.0984 0 8
17.1336 19.8743 -2.5938 0.0984 0 8
16.9532 20.0284 -2.5938 0.0984 0 8
16.7713 20.1810 -2.5938 0.0984 0 8
16.5881 20.3318 -2.5938 0.0984 0 8
16.4035 20.4810 -2.5938 0.0984 0 8
16.2176 20.6286 -2.5938 0.0984 0 8
16.0303 20.7744 -2.5938 0.0984 0 8
15.8418 20.9186 -2.5938 0.0984 0 8
15.6519 21.0610 -2.5938 0.0984 0 8
15.4607 21.2017 -2.5938 0.0984 0 8
15.2683 21.3407 -2.5938 0.0984 0 8
15.0747 21.4779 -2.5938 0.0984 0 8
14.8798 21.6134 -2.5938 0.0984 0 8
14.6837 21.7471 -2.5938 0.0984 0 8
14.4864 21.8790 -2.5938 0.0984 0 8
14.2879 22.0092 -2.5938 0.0984 0 8
14.0882 22.1375 -2.5938 0.0984 0 8
10.1110 16.2098 -1.8884 0.5940 0 19
9.9275 16.2409 -1.8815 0.9886 0 19
9.8066 16.3742 -1.8866 0.9868 0 19
13.2782 22.6327 -2.5938 0.0984 0 8
13.0729 22.7519 -2.5938 0.0984 0 8
12.8666 22.8692 -2.5938 0.0984 0 8
12.6592 22.9846 -2.5938 0.0984 0 8
12.4508 23.0982 -2.5938 0.0984 0 8
12.2413 23.2099 -2.5938 0.0984 0 8
12.0309 23.3196 -2.5938 0.0984 0 8
11.8195 23.4275 -2.5938 0.0984 0 8
11.6071 23.5334 -2.5938 0.0984 0 8
11.3938 23.6375 -2.5938 0.0984 0 8
11.1795 23.7396 -2.5938 0.0984 0 8
10.9643 23.8397 -2.5938 0.0984 0 8
10.7482 23.9379 -2.5938 0.0984 0 8
10.5312 24.0342 -2.5938 0.0984 0 8
10.3134 24.1284 -2.5938 0.0984 0 8
10.0947 24.2207 -2.5938 0.0984 0 8
9.8752 24.3111 -2.5938 0.0984 0 8
9.6549 24.3994 -2.5938 0.0984 0 8
9.4338 24.4857 -2.5938 0.0984 0 8
9.2120 24.5701 -2.5938 0.0984 0 8
8.9893 24.6524 -2.5938 0.0984 0 8
8.7660 24.7327 -2.5938 0.0984 0 8
8.5419 24.8110 -2.5938 0.0984 0 8
8.3171 24.8872 -2.5938 0.0984 0 8
8.0917 24.9614 -2.5938 0.0984 0 8
7.8656 25.0336 -2.5938 0.0984 0 8
7.6388 25.1037 -2.5938 0.0984 0 8
7.4114 25.1718 -2.5938 0.0984 0 8
7.1834 25.2378 -2.5938 0.0984 0 8
6.9548 25.3017 -2.5938 0.0984 0 8
6.7257 25.3636 -2.5938 0.0984 0 8
6.4960 25.4234 -2.5938 0.0984 0 8
6.2658 25.4811 -2.5938 0.0984 0 8
6.0350 25.5368 -2.5938 0.0984 0 8
5.8038 25.5903 -2.5938 0.0984 0 8
5.5721 25.6418 -2.5938 0.0984 0 8
5.3399 25.6911 -2.5938 0.0984 0 8
5.1073 25.7384 -2.5938 0.0984 0 8
4.8743 25.7835 -2.5938 0.0984 0 8
4.6409 25.8265 -2.5938 0.0984 0 8
4.4071 25.8675 -2.5938 0.0984 0 8
4.1729 25.9063 -2.5938 0.0984 0 8
3.1606 20.8190 -2.0815 0.9573 0 5
2.9742 20.8613 -2.0829 0.2786 0 5
3.4685 26.0099 -2.5938 0.0984 0 8
3.2331 26.0403 -2.5938 0.0984 0 8
2.9974 26.0684 -2.5938 0.0984 0 8
2.7615 26.0945 -2.5938 0.0984 0 8
2.5253 26.1184 -2.5938 0.0984 0 8
2.2890 26.1402 -2.5938 0.0984 0 8
2.0524 26.1598 -2.5938 0.0984 0 8
1.8158 26.1773 -2.5938 0.0984 0 8
1.5789 26.1926 -2.5938 0.0984 0 8
1.3419 26.2058 -2.5938 0.0984 0 8
1.1456 27.1865 -2.6897 0.1879 0 8
0.9169 27.7151 -2.7410 0.1011 0 8
0.6671 27.7636 -2.7451 0.1010 0 8
0.4161 27.7789 -2.7462 0.0984 0 7
0.1648 27.7815 -2.7462 0.0984 0 7
-0.0864 27.7818 -2.7462 0.0984 0 7
-0.3377 27.7799 -2.7462 0.0984 0 7
-0.5890 27.7757 -2.7462 0.0984 0 7
-0.8402 27.7693 -2.7462 0.0984 0 7
-1.0914 27.7605 -2.7462 0.0984 0 7
-1.3424 27.7495 -2.7462 0.0984 0 7
-1.5934 27.7362 -2.7462 0.0984 0 7
-1.8442 27.7207 -2.7462 0.0984 0 7
-2.0949 27.7029 -2.7462 0.0984 0 7
-2.3454 27.6828 -2.7462 0.0984 0 7
-2.5957 27.6604 -2.7462 0.0984 0 7
-2.8458 27.6358 -2.7462 0.0984 0 7
-3.0956 27.6090 -2.7462 0.0984 0 7
-3.3452 27.5798 -2.7462 0.0984 0 7
-3.5946 27.5484 -2.7462 0.0984 0 7
-3.8436 27.5148 -2.7462 0.0984 0 7
-4.0923 27.4789 -2.7462 0.0984 0 7
-4.3407 27.4408 -2.7462 0.0984 0 7
-4.5887 27.4004 -2.7462 0.0984 0 7
-4.8364 27.3578 -2.7462 0.0984 0 7
-5.0837 27.3129 -2.7462 0.0984 0 7
-5.3305 27.2658 -2.7462 0.0984 0 7
-5.5769 27.2165 -2.7462 0.0984 0 7
-5.8229 27.1649 -2.7462 0.0984 0 7
-6.0683 27.1111 -2.7462 0.0984 0 7
-6.3133 27.0551 -2.7462 0.0984 0 7
-6.5578 26.9969 -2.7462 0.0984 0 7
-6.8017 26.9365 -2.7462 0.0984 0 7
-7.0451 26.8739 -2.7462 0.0984 0 7
-7.2879 26.8090 -2.7462 0.0984 0 7
-7.5301 26.7420 -2.7462 0.0984 0 7
-7.7717 26.6728 -2.7462 0.0984 0 7
-8.0126 26.6014 -2.7462 0.0984 0 7
-8.2529 26.5279 -2.7462 0.0984 0 7
-8.4925 26.4521 -2.7462 0.0984 0 7
-8.7314 26.3742 -2.7462 0.0984 0 7
-8.9696 26.2942 -2.7462 0.0984 0 7
-9.2071 26.2120 -2.7462 0.0984 0 7
-9.4438 26.1276 -2.7462 0.0984 0 7
-9.6798 26.0411 -2.7462 0.0984 0 7
-9.9149 25.9525 -2.7462 0.0984 0 7
-10.1493 25.8617 -2.7462 0.0984 0 7
-10.3828 25.7689 -2.7462 0.0984 0 7
-10.6155 25.6739 -2.7462 0.0984 0 7
-10.8473 25.5768 -2.7462 0.0984 0 7
-11.0782 25.4777 -2.7462 0.0984 0 7
-11.3082 25.3764 -2.7462 0.0984 0 7
-11.5372 25.2731 -2.7462 0.0984 0 7
-11.7654 25.1677 -2.7462 0.0984 0 7
-11.9925 25.0603 -2.7462 0.0984 0 7
-12.2187 24.9508 -2.7462 0.0984 0 7
-12.4439 24.8392 -2.7462 0.0984 0 7
-12.6681 24.7256 -2.7462 0.0984 0 7
-12.8912 24.6100 -2.7462 0.0984 0 7
-13.1133 24.4924 -2.7462 0.0984 0 7
-13.3343 24.3728 -2.7462 0.0984 0 7
-13.5542 24.2512 -2.7462 0.0984 0 7
-13.7730 24.1276 -2.7462 0.0984 0 7
-13.9907 24.0020 -2.7462 0.0984 0 7
-14.2072 23.8745 -2.7462 0.0984 0 7
-14.4226 23.7450 -2.7462 0.0984 0 7
-14.6368 23.6136 -2.7462 0.0984 0 7
-14.8498 23.4802 -2.7462 0.0984 0 7
-15.0616 23.3450 -2.7462 0.0984 0 7
-15.2721 23.2078 -2.7462 0.0984 0 7
-15.4814 23.0687 -2.7462 0.0984 0 7
-15.6894 22.9277 -2.7462 0.0984 0 7
-15.8962 22.7848 -2.7462 0.0984 0 7
-16.1016 22.6401 -2.7462 0.0984 0 7
-16.3058 22.4935 -2.7462 0.0984 0 7
-16.5085 22.3451 -2.7462 0.0984 0 7
-16.7100 22.1949 -2.7462 0.0984 0 7
-16.8983 22.0275 -2.7443 0.1067 0 8
-17.0757 21.8467 -2.7409 0.1069 0 8
-17.1791 21.5739 -2.7260 0.5187 0 8
-17.1232 21.1089 -2.6867 0.5263 0 8
-17.0688 20.6572 -2.6488 0.5338 0 8
-17.0159 20.2179 -2.6121 0.5413 0 8
-17.0775 19.9225 -2.5938 0.0984 0 8
-17.2570 19.7672 -2.5938 0.0984 0 8
-17.4351 19.6103 -2.5938 0.0984 0 8
-17.6118 19.4518 -2.5938 0.0984 0 8
-17.7870 19.2917 -2.5938 0.0984 0 8
-17.9608 19.1300 -2.5938 0.0984 0 8
-18.1331 18.9668 -2.5938 0.0984 0 8
-18.3039 18.8020 -2.5938 0.0984 0 8
-18.4732 18.6357 -2.5938 0.0984 0 8
-18.6410 18.4678 -2.5938 0.0984 0 8
-18.8073 18.2984 -2.5938 0.0984 0 8
-18.9720 18.1276 -2.5938 0.0984 0 8
-19.1352 17.9552 -2.5938 0.0984 0 8
-19.2969 17.7814 -2.5938 0.0984 0 8
-19.4569 17.6061 -2.5938 0.0984 0 8
-19.6154 17.4294 -2.5938 0.0984 0 8
-19.7722 17.2513 -2.5938 0.0984 0 8
-19.9275 17.0717 -2.5938 0.0984 0 8
-20.0811 16.8907 -2.5938 0.0984 0 8
-20.2330 16.7084 -2.5938 0.0984 0 8
-20.3833 16.5247 -2.5938 0.0984 0 8
-20.5320 16.3397 -2.5938 0.0984 0 8
-20.6789 16.1533 -2.5938 0.0984 0 8
-20.8242 15.9656 -2.5938 0.0984 0 8
-20.9677 15.7766 -2.5938 0.0984 0 8
-21.1096 15.5863 -2.5938 0.0984 0 8
-21.2497 15.3947 -2.5938 0.0984 0 8
-21.3881 15.2018 -2.5938 0.0984 0 8
-21.5247 15.0078 -2.5938 0.0984 0 8
-21.6596 14.8124 -2.5938 0.0984 0 8
-21.7927 14.6159 -2.5938 0.0984 0 8
-21.9240 14.4182 -2.5938 0.0984 0 8
-22.0535 14.2193 -2.5938 0.0984 0 8
-22.1813 14.0192 -2.5938 0.0984 0 8
-22.3072 13.8180 -2.5938 0.0984 0 8
-22.4312 13.6157 -2.5938 0.0984 0 8
-22.5535 13.4122 -2.5938 0.0984 0 8
-22.6739 13.2077 -2.5938 0.0984 0 8
-22.7924 13.0020 -2.5938 0.0984 0 8
-22.9091 12.7953 -2.5938 0.0984 0 8
-23.0239 12.5876 -2.5938 0.0984 0 8
-23.1368 12.3788 -2.5938 0.0984 0 8
-23.2478 12.1690 -2.5938 0.0984 0 8
-23.3570 11.9583 -2.5938 0.0984 0 8
-23.4642 11.7465 -2.5938 0.0984 0 8
-18.6563 9.1295 -2.0531 0.9930 0 5
-23.6728 11.3201 -2.5938 0.0984 0 8
-23.7742 11.1055 -2.5938 0.0984 0 8
-23.8737 10.8900 -2.5938 0.0984 0 8
-23.9712 10.6736 -2.5938 0.0984 0 8
-24.0668 10.4564 -2.5938 0.0984 0 8
-24.1604 10.2382 -2.5938 0.0984 0 8
-24.2520 10.0193 -2.5938 0.0984 0 8
-24.3417 9.7995 -2.5938 0.0984 0 8
-24.4293 9.5789 -2.5938 0.0984 0 8
-24.5150 9.3576 -2.5938 0.0984 0 8
-24.5986 9.1354 -2.5938 0.0984 0 8
-24.6802 8.9125 -2.5938 0.0984 0 8
-24.7598 8.6889 -2.5938 0.0984 0 8
-24.8374 8.4646 -2.5938 0.0984 0 8
-24.9130 8.2396 -2.5938 0.0984 0 8
-24.9865 8.0139 -2.5938 0.0984 0 8
-25.0579 7.7876 -2.5938 0.0984 0 8
-25.1273 7.5606 -2.5938 0.0984 0 8
-25.1947 7.3330 -2.5938 0.0984 0 8
-25.2600 7.1048 -2.5938 0.0984 0 8
-25.3232 6.8761 -2.5938 0.0984 0 8
-25.3844 6.6467 -2.5938 0.0984 0 8
-25.4435 6.4168 -2.5938 0.0984 0 8
-25.5005 6.1864 -2.5938 0.0984 0 8
-25.5554 5.9555 -2.5938 0.0984 0 8
-25.6997 5.7446 -2.6030 0.3633 0 8
-26.3523 5.6407 -2.6638 0.3550 0 8
-27.0361 5.5318 -2.7278 0.3467 0 8
-27.2232 5.3140 -2.7417 0.1039 0 8
-27.3081 5.0745 -2.7455 0.1037 0 8
-27.3592 4.8284 -2.7462 0.0984 0 7
-27.4017 4.5808 -2.7462 0.0984 0 7
-27.4420 4.3327 -2.7462 0.0984 0 7
-27.4801 4.0843 -2.7462 0.0984 0 7
-27.5159 3.8356 -2.7462 0.0984 0 7
-27.5495 3.5865 -2.7462 0.0984 0 7
-27.5808 3.3372 -2.7462 0.0984 0 7
-27.6099 3.0876 -2.7462 0.0984 0 7
-27.6367 2.8377 -2.7462 0.0984 0 7
-27.6612 2.5876 -2.7462 0.0984 0 7
-27.6835 2.3373 -2.7462 0.0984 0 7
-27.7035 2.0868 -2.7462 0.0984 0 7
-27.7212 1.8361 -2.7462 0.0984 0 7
-27.7367 1.5853 -2.7462 0.0984 0 7
-27.7499 1.3344 -2.7462 0.0984 0 7
-27.7608 1.0833 -2.7462 0.0984 0 7
-27.7695 0.8321 -2.7462 0.0984 0 7
-27.7759 0.5809 -2.7462 0.0984 0 7
-27.7800 0.3297 -2.7462 0.0984 0 7
-27.7818 0.0784 -2.7462 0.0984 0 7
-27.7814 -0.1729 -2.7462 0.0984 0 7
-27.7787 -0.4242 -2.7462 0.0984 0 7
-27.7737 -0.6755 -2.7462 0.0984 0 7
-27.7665 -0.9267 -2.7462 0.0984 0 7
-27.7570 -1.1778 -2.7462 0.0984 0 7
-27.7452 -1.4288 -2.7462 0.0984 0 7
-27.7311 -1.6797 -2.7462 0.0984 0 7
-27.7148 -1.9305 -2.7462 0.0984 0 7
-27.6962 -2.1811 -2.7462 0.0984 0 7
-27.6753 -2.4315 -2.7462 0.0984 0 7
-27.6522 -2.6817 -2.7462 0.0984 0 7
-27.6268 -2.9318 -2.7462 0.0984 0 7
-27.5992 -3.1815 -2.7462 0.0984 0 7
-27.5693 -3.4311 -2.7462 0.0984 0 7
-27.5371 -3.6803 -2.7462 0.0984 0 7
-27.5027 -3.9292 -2.7462 0.0984 0 7
-27.4660 -4.1778 -2.7462 0.0984 0 7
-27.4271 -4.4261 -2.7462 0.0984 0 7
-27.3860 -4.6740 -2.7462 0.0984 0 7
-27.3426 -4.9215 -2.7462 0.0984 0 7
-25.8578 -4.8962 -2.6014 0.0984 0 8
-25.8125 -5.1298 -2.6014 0.0984 0 14
-23.8864 -4.9721 -2.4117 0.9412 0 19
-21.0864 -4.5886 -2.1331 0.9441 0 19
-25.6638 -5.8283 -2.6014 0.0984 0 14
-25.6100 -6.0602 -2.6014 0.0984 0 14
-21.0763 -5.1892 -2.1455 0.1180 0 9
-25.4962 -6.5225 -2.6014 0.0984 0 14
-21.2333 -5.6371 -2.1715 0.5065 0 9
-21.0145 -5.7830 -2.1544 0.8730 0 9
-20.9279 -5.9633 -2.1510 0.9899 0 9
-20.9156 -6.1649 -2.1554 0.7262 0 9
-21.9588 -6.6888 -2.2690 0.9810 0 9
-24.9359 -7.8429 -2.5839 0.2211 0 19
-23.5226 -7.6328 -2.4445 0.8376 0 19
-22.1174 -7.3986 -2.3053 0.8327 0 19
-20.7202 -7.1403 -2.1663 0.9746 0 19
-26.1832 -9.2887 -2.7462 0.0984 0 7
-26.0981 -9.5251 -2.7462 0.0984 0 7
-26.0108 -9.7608 -2.7462 0.0984 0 7
-25.9215 -9.9957 -2.7462 0.0984 0 7
-25.8300 -10.2297 -2.7462 0.0984 0 7
-25.7364 -10.4630 -2.7462 0.0984 0 7
-25.6407 -10.6953 -2.7462 0.0984 0 7
-25.5429 -10.9268 -2.7462 0.0984 0 7
-25.4431 -11.1574 -2.7462 0.0984 0 7
-25.3411 -11.3871 -2.7462 0.0984 0 7
-25.2371 -11.6159 -2.7462 0.0984 0 7
-25.1310 -11.8437 -2.7462 0.0984 0 7
-25.0228 -12.0705 -2.7462 0.0984 0 7
-24.9126 -12.2963 -2.7462 0.0984 0 7
-24.8004 -12.5212 -2.7462 0.0984 0 7
-24.6861 -12.7450 -2.7462 0.0984 0 7
-24.5698 -12.9677 -2.7462 0.0984 0 7
-24.4515 -13.1895 -2.7462 0.0984 0 7
-24.3312 -13.4101 -2.7462 0.0984 0 7
-24.2089 -13.6296 -2.7462 0.0984 0 7
-24.0846 -13.8480 -2.7462 0.0984 0 7
-23.9584 -14.0653 -2.7462 0.0984 0 7
-23.8302 -14.2815 -2.7462 0.0984 0 7
-23.7000 -14.4964 -2.7462 0.0984 0 7
-23.5679 -14.7102 -2.7462 0.0984 0 7
-23.4339 -14.9228 -2.7462 0.0984 0 7
-23.2980 -15.1342 -2.7462 0.0984 0 7
-23.1601 -15.3443 -2.7462 0.0984 0 7
-23.0204 -15.5531 -2.7462 0.0984 0 6
-22.8787 -15.7607 -2.7462 0.0984 0 7
-22.7352 -15.9670 -2.7462 0.0984 0 7
-22.5899 -16.1720 -2.7462 0.0984 0 7
-22.4427 -16.3757 -2.7462 0.0984 0 7
-22.2936 -16.5780 -2.7462 0.0984 0 7
-22.1428 -16.7790 -2.7462 0.0984 0 7
-21.9901 -16.9786 -2.7462 0.0984 0 7
-21.8356 -17.1768 -2.7462 0.0984 0 7
-21.6793 -17.3736 -2.7462 0.0984 0 7
-21.5213 -17.5690 -2.7462 0.0984 0 7
-21.3615 -17.7630 -2.7462 0.0984 0 7
-21.1853 -17.9430 -2.7443 0.1073 0 8
-20.9970 -18.1122 -2.7410 0.1075 0 8
-20.7430 -18.2230 -2.7292 0.5541 0 8
-20.3068 -18.1678 -2.6933 0.5615 0 8
-19.8819 -18.1141 -2.6586 0.5689 0 8
-19.4836 -18.0765 -2.6271 0.6028 0 8
-19.1153 -18.0592 -2.5994 0.5316 0 8
-18.9102 -18.1920 -2.5938 0.0984 0 8
-18.7449 -18.3623 -2.5938 0.0984 0 8
-18.5781 -18.5311 -2.5938 0.0984 0 8
-18.4097 -18.6984 -2.5938 0.0984 0 8
-18.2398 -18.8642 -2.5938 0.0984 0 8
-18.0684 -19.0284 -2.5938 0.0984 0 8
-17.8956 -19.1910 -2.5938 0.0984 0 8
-17.7212 -19.3521 -2.5938 0.0984 0 8
-17.5455 -19.5116 -2.5938 0.0984 0 8
-17.3682 -19.6695 -2.5938 0.0984 0 8
-17.1896 -19.8258 -2.5938 0.0984 0 8
-17.0096 -19.9805 -2.5938 0.0984 0 8
-16.8282 -20.1336 -2.5938 0.0984 0 8
-16.6454 -20.2849 -2.5938 0.0984 0 8
-16.4612 -20.4347 -2.5938 0.0984 0 8
-16.2757 -20.5827 -2.5938 0.0984 0 8
-16.0888 -20.7291 -2.5938 0.0984 0 8
-15.9007 -20.8738 -2.5938 0.0984 0 8
-15.7112 -21.0168 -2.5938 0.0984 0 8
-15.5205 -21.1580 -2.5938 0.0984 0 8
-15.3285 -21.2975 -2.5938 0.0984 0 8
-15.1352 -21.4353 -2.5938 0.0984 0 8
-14.9407 -21.5713 -2.5938 0.0984 0 8
-14.7450 -21.7056 -2.5938 0.0984 0 8
-14.5480 -21.8381 -2.5938 0.0984 0 8
-14.3499 -21.9688 -2.5938 0.0984 0 8
-14.1506 -22.0977 -2.5938 0.0984 0 8
-13.9501 -22.2248 -2.5938 0.0984 0 8
-13.7485 -22.3501 -2.5938 0.0984 0 8
-13.5458 -22.4735 -2.5938 0.0984 0 8
-13.3420 -22.5951 -2.5938 0.0984 0 8
-13.1370 -22.7149 -2.5938 0.0984 0 8
-12.9310 -22.8328 -2.5938 0.0984 0 8
-12.7240 -22.9488 -2.5938 0.0984 0 8
-12.5159 -23.0630 -2.5938 0.0984 0 8
-12.3067 -23.1752 -2.5938 0.0984 0 8
-12.0966 -23.2856 -2.5938 0.0984 0 8
-11.8855 -23.3941 -2.5938 0.0984 0 8
-11.6734 -23.5006 -2.5938 0.0984 0 8
-11.4604 -23.6052 -2.5938 0.0984 0 8
-11.2464 -23.7079 -2.5938 0.0984 0 8
-11.1039 -23.9650 -2.6108 0.6562 0 8
-10.9996 -24.3140 -2.6379 0.6495 0 8
-10.9126 -24.7145 -2.6705 0.5692 0 8
-10.8281 -25.1362 -2.7054 0.5618 0 8
-10.7324 -25.5476 -2.7391 0.1069 0 8
-10.5138 -25.6753 -2.7425 0.1068 0 8
-10.2940 -25.8014 -2.7459 0.1067 0 8
-10.0612 -25.8961 -2.7462 0.0984 0 7
-9.8265 -25.9861 -2.7462 0.0984 0 7
-9.5911 -26.0739 -2.7462 0.0984 0 7
-9.3548 -26.1596 -2.7462 0.0984 0 7
-9.1179 -26.2431 -2.7462 0.0984 0 7
-8.8801 -26.3245 -2.7462 0.0984 0 7
-8.6416 -26.4038 -2.7462 0.0984 0 7
-8.4024 -26.4809 -2.7462 0.0984 0 7
-8.1626 -26.5558 -2.7462 0.0984 0 6
-7.9220 -26.6285 -2.7462 0.0984 0 7
-7.6808 -26.6991 -2.7462 0.0984 0 7
-7.4390 -26.7675 -2.7462 0.0984 0 7
-7.1966 -26.8337 -2.7462 0.0984 0 7
