ply
format ascii 1.0
element vertex 1350
property float32 x
property float32 y
property float32 z
property float32 CosAngle
property uint32 ObjIdx
property uint32 ObjTag
end_header
-7.7654 -12.1128 3.1685 0.7242 0 9
-7.6256 -12.1348 3.1561 0.4253 0 9
-7.5213 -12.2127 3.1586 0.1676 0 9
-6.2294 -28.2065 6.3613 0.7305 0 9
-6.1267 -28.9838 6.5238 0.6621 0 9
-5.6978 -28.2136 6.3386 0.5903 0 9
-5.4139 -28.1158 6.3054 0.9537 0 9
-5.1001 -27.8404 6.2330 0.9519 0 9
-4.8241 -27.7473 6.2021 0.8949 0 9
-4.5574 -27.6952 6.1810 0.6969 0 9
-4.3210 -27.8272 6.2015 0.9586 0 9
-3.9911 -27.3308 6.0826 0.7636 0 9
-3.7031 -27.0685 6.0165 0.9231 0 9
-3.4793 -27.2668 6.0533 0.2889 0 9
-3.1628 -26.7082 5.9227 0.6203 0 9
-2.8846 -26.4012 5.8486 0.9488 0 9
-2.5861 -25.8311 5.7169 0.3334 0 9
-2.3962 -26.3345 5.8233 0.4953 0 9
-2.1968 -26.8303 5.9283 0.4294 0 9
-1.8919 -25.9949 5.7397 0.7204 0 9
-1.7484 -27.4511 6.0575 0.7628 0 9
-1.4361 -26.2935 5.7989 0.8830 0 9
-1.1968 -26.2762 5.7925 0.4804 0 9
-0.9706 -26.5995 5.8616 0.9951 0 9
-0.7213 -26.2894 5.7916 0.8282 0 9
-0.5210 -28.3337 6.2407 0.7492 0 9
-0.2472 -26.4665 5.8287 0.9272 0 9
-0.0080 -27.0910 5.9659 0.9700 0 9
0.2334 -26.6761 5.8748 0.8950 0 9
0.4994 -28.0642 6.1812 0.9720 0 9
0.7627 -28.4138 6.2595 0.9368 0 9
1.0357 -28.8533 6.3581 0.8467 0 9
1.3284 -29.5494 6.5139 0.9088 0 9
1.6034 -29.6815 6.5459 0.7291 0 9
12.9744 16.5888 4.6378 0.4331 0 5
13.8681 16.6838 4.2677 0.8949 0 5
-8.1729 5.3786 1.9247 0.3708 0 5
-8.2124 5.2988 1.9226 0.3710 0 5
-25.0273 -0.1459 4.9234 0.9794 0 5
-24.8853 -1.4974 4.9042 0.1639 0 5
-24.8099 -1.7182 4.8923 0.9570 0 5
-24.7475 -1.9389 4.8832 0.6222 0 5
-27.6229 -7.8583 5.6495 0.5727 0 9
-27.1855 -8.2682 5.5898 0.7944 0 9
-26.7995 -8.4163 5.5258 0.9121 0 9
-26.6480 -8.6343 5.5105 0.7781 0 9
-26.1609 -8.7387 5.4259 0.8736 0 9
-25.8133 -8.8829 5.3702 0.4106 0 9
-25.7886 -9.1361 5.3821 0.4349 0 9
-25.2862 -9.2163 5.2944 0.3823 0 9
-24.9583 -9.3534 5.2432 0.5047 0 9
-25.9567 -9.9962 5.4717 0.8809 0 9
-24.4385 -9.6663 5.1699 0.7260 0 9
-24.2207 -9.8344 5.1424 0.6472 0 9
-23.9586 -9.9813 5.1058 0.6248 0 9
-23.7795 -10.1600 5.0870 0.8100 0 9
-24.2023 -10.6005 5.1977 0.7281 0 9
-24.2429 -10.8807 5.2273 0.7380 0 9
-25.6115 -11.7743 5.5452 0.7329 0 9
-25.5255 -12.0157 5.5499 0.9477 0 9
-25.6230 -12.3459 5.5951 0.9941 0 9
-25.6167 -12.6296 5.6184 0.4918 0 9
-26.3160 -13.2715 5.7979 0.8942 0 9
-26.8407 -13.8420 5.9408 0.8574 0 9
-14.9812 -7.8983 3.3316 0.2571 0 9
-13.3616 -7.1996 2.9858 0.2760 0 9
-13.1427 -7.2358 2.9514 0.2792 0 9
-12.8812 -7.2444 2.9072 0.5509 0 9
-12.8391 -7.3744 2.9127 0.5495 0 9
-11.6248 -6.8174 2.6510 0.1554 0 9
-13.7204 -8.2141 3.1458 0.4657 0 9
-10.2465 -6.2610 2.3622 0.7003 0 9
-11.2026 -6.9851 2.5970 0.5494 0 9
-9.9025 -6.2995 2.3088 0.3731 0 9
-9.8381 -6.3842 2.3071 0.7372 0 9
-9.8139 -6.4955 2.3151 0.7346 0 9
-9.8903 -6.6755 2.3473 0.1826 0 9
-10.0681 -6.9288 2.4043 0.4252 0 9
-9.9951 -7.0126 2.4019 0.4257 0 9
-9.8806 -7.0665 2.3896 0.4038 0 9
-9.7801 -7.1292 2.3808 0.5874 0 9
-9.5655 -7.1061 2.3441 0.3647 0 9
-9.6321 -7.2917 2.3765 0.5922 0 9
-8.6342 -6.6600 2.1451 0.5362 0 9
-8.5538 -6.7222 2.1401 0.8969 0 9
-9.0235 -7.2243 2.2739 0.7845 0 9
-8.7383 -7.1266 2.2182 0.7011 0 9
-8.6377 -7.1756 2.2090 0.6993 0 9
-8.5743 -7.2550 2.2095 0.3768 0 9
-8.5852 -7.3985 2.2295 0.3734 0 9
-8.7589 -7.6873 2.2925 0.7296 0 9
-8.7484 -7.8193 2.3082 0.3567 0 9
-8.6978 -7.9167 2.3136 0.2410 0 9
-8.5759 -7.9488 2.3002 0.3525 0 9
-8.2380 -7.7753 2.2284 0.4979 0 9
-8.6023 -8.2675 2.3471 0.8088 0 9
-8.5555 -8.3727 2.3549 0.8118 0 9
-8.7048 -8.6743 2.4174 0.0870 0 9
-12.3582 -12.5397 3.4634 0.5531 0 9
-10.6534 -11.6223 3.1015 0.5209 0 9
-9.3959 -10.4384 2.7628 0.1860 0 9
-10.5249 -11.9075 3.1263 0.4648 0 9
-8.7682 -10.6744 2.7175 0.5419 0 9
-8.7013 -10.7906 2.7269 0.7925 0 9
-8.3190 -11.7691 2.8352 0.9959 0 9
-8.2282 -11.8668 2.8407 0.3065 0 9
-7.4242 -28.6523 5.8226 0.2525 0 9
-7.1460 -28.6429 5.8073 0.7366 0 9
-6.8549 -28.5742 5.7806 0.5850 0 9
-6.4982 -29.4237 5.9277 0.8298 0 9
-5.9698 -28.2417 5.6784 0.9244 0 9
-6.2451 -30.9239 6.2061 0.2488 0 9
-5.5307 -28.7229 5.7541 0.4096 0 9
-5.2034 -28.4043 5.6806 0.7463 0 9
-4.9469 -28.4538 5.6814 0.6897 0 9
-4.6066 -27.9939 5.5810 0.7154 0 9
-4.3791 -28.2010 5.6141 0.4375 0 9
-4.1061 -28.1185 5.5901 0.8023 0 9
-3.8435 -28.0948 5.5782 0.8085 0 9
-3.5255 -27.6289 5.4792 0.7683 0 9
-3.2566 -27.5002 5.4476 0.8140 0 9
-2.9441 -26.9461 5.3323 0.8322 0 9
-2.6079 -26.0482 5.1498 0.9599 0 9
-2.4741 -27.1911 5.3711 0.6801 0 9
-2.1500 -26.2584 5.1828 0.6276 0 9
-1.9120 -26.2712 5.1817 0.6665 0 9
-1.7267 -27.1094 5.3437 0.6996 0 9
-1.4751 -27.0082 5.3209 0.4321 0 9
-1.2321 -27.0497 5.3267 0.5456 0 9
-0.9821 -26.9144 5.2981 0.8947 0 9
-0.7446 -27.1389 5.3407 0.9902 0 9
-0.4955 -26.9486 5.3022 0.8447 0 9
-0.2528 -27.0602 5.3235 0.7483 0 9
-0.0081 -27.2126 5.3532 0.6953 0 9
0.2381 -27.2201 5.3549 0.7841 0 9
0.4966 -27.9070 5.4907 0.8584 0 9
0.7295 -27.1774 5.3482 0.7829 0 9
0.9737 -27.1254 5.3395 0.8478 0 9
1.2360 -27.4934 5.4139 0.3981 0 9
1.4822 -27.4364 5.4051 0.0917 0 9
1.7434 -27.6308 5.4463 0.9271 0 9
13.7928 16.6820 4.2581 0.4233 0 5
27.7364 4.5557 4.8747 0.9563 0 5
27.5458 6.3367 4.9019 0.8107 0 5
13.8673 16.6828 3.7623 0.8987 0 5
-8.1717 5.3778 1.6965 0.3724 0 5
-8.2113 5.2980 1.6947 0.3726 0 5
-27.2583 -7.4887 4.9024 0.4805 0 9
-28.1736 -8.0150 5.0799 0.7219 0 9
-29.5364 -8.9832 5.3541 0.7511 0 9
-26.1530 -8.2133 4.7540 0.8380 0 9
-31.0623 -10.0646 5.6627 0.5230 0 9
-26.5990 -8.8851 4.8635 0.7730 0 9
-26.4396 -9.0984 4.8492 0.9309 0 9
-26.0119 -9.2152 4.7859 0.5522 0 9
-26.5171 -9.6650 4.8947 0.7250 0 9
-25.5492 -9.5748 4.7318 0.8774 0 9
-25.2848 -9.7375 4.6990 0.8621 0 9
-25.2098 -9.9713 4.7016 0.8839 0 9
-26.8015 -10.8822 5.0166 0.9131 0 9
-24.8253 -10.3424 4.6640 0.9694 0 9
-26.7217 -11.4171 5.0395 0.6194 0 9
-26.3767 -11.5529 4.9939 0.7417 0 9
-24.7002 -11.0859 4.6953 0.9611 0 9
-24.8259 -11.4132 4.7387 0.3576 0 9
-24.8175 -11.6824 4.7570 0.9610 0 9
-24.6682 -11.8858 4.7488 0.9626 0 9
-24.4124 -12.0358 4.7203 0.5903 0 9
-25.6620 -12.9417 4.9844 0.6818 0 9
-24.4853 -12.6274 4.7778 0.7238 0 9
-14.3029 -7.5407 2.8041 0.5501 0 9
-14.2510 -7.6788 2.8074 0.5492 0 9
-19.8919 -10.9516 3.9380 0.9848 0 5
-27.0522 -15.2142 5.3826 0.8704 0 9
-27.4320 -15.7560 5.4863 0.9325 0 9
-13.0881 -8.3261 2.6902 0.4087 0 9
-13.0025 -8.7760 2.7205 0.3807 0 9
-12.4974 -8.6006 2.6310 0.1174 0 9
-12.1210 -8.8356 2.6013 0.3259 0 9
-12.1483 -9.0248 2.6246 0.3182 0 9
-9.5621 -7.6555 2.1243 0.5502 0 9
-9.4835 -7.7343 2.1223 0.5507 0 9
-9.4038 -7.8121 2.1202 0.5469 0 9
-9.3666 -7.9254 2.1279 0.4191 0 9
-9.2652 -7.9845 2.1212 0.3039 0 9
-10.6813 -9.3745 2.4647 0.5823 0 9
-10.5734 -9.4505 2.4594 0.9671 0 9
-10.5214 -9.5766 2.4674 0.7674 0 9
-8.8253 -8.1800 2.0869 0.3457 0 9
-20.0800 -20.3749 4.9611 0.7151 0 5
-20.0030 -20.6673 4.9881 0.3964 0 5
-20.0163 -21.0589 5.0387 0.4484 0 5
-7.0249 -29.2829 5.2225 0.9293 0 9
-6.6808 -29.0023 5.1615 0.9433 0 9
-6.3663 -28.8268 5.1198 0.2566 0 9
-6.1013 -28.8639 5.1164 0.4155 0 9
-5.4092 -26.7844 4.7389 0.6372 0 9
-5.5400 -28.7711 5.0813 0.8851 0 9
-5.1129 -27.9100 4.9209 0.4721 0 9
-4.6558 -26.7792 4.7139 0.7520 0 9
-4.5833 -27.8525 4.8953 0.9351 0 9
-4.4372 -28.5754 5.0151 0.8460 0 9
-4.1442 -28.3790 4.9738 0.8171 0 9
-3.6747 -26.8610 4.7018 0.9131 0 9
-3.5645 -27.9345 4.8839 0.1208 0 9
-3.1514 -26.6117 4.6474 0.8652 0 9
-2.9306 -26.8223 4.6794 0.9430 0 9
-2.6998 -26.9661 4.7000 0.9907 0 9
-2.4056 -26.4384 4.6041 0.9072 0 9
-2.1921 -26.7731 4.6587 0.9227 0 9
-1.9227 -26.4190 4.5938 0.8095 0 9
-1.6753 -26.3025 4.5708 0.4942 0 9
-1.4402 -26.3694 4.5799 0.8085 0 9
-1.2447 -27.3264 4.7440 0.9626 0 9
-0.9818 -26.9050 4.6691 0.9132 0 9
-0.7313 -26.6536 4.6242 0.9759 0 9
-0.4877 -26.5214 4.6003 0.9701 0 9
-0.2568 -27.4895 4.7676 0.6411 0 9
-0.0082 -27.5772 4.7826 0.5183 0 9
0.2446 -27.9588 4.8490 0.7602 0 9
0.4944 -27.7826 4.8190 0.7540 0 9
0.7527 -28.0393 4.8645 0.9150 0 9
1.0194 -28.3986 4.9282 0.5609 0 9
1.3005 -28.9295 5.0222 0.9484 0 9
1.5689 -29.0412 5.0438 0.3054 0 9
1.7866 -28.3143 4.9202 0.7220 0 9
2.0560 -28.4825 4.9525 0.7349 0 9
14.5260 -6.2166 2.7402 0.4939 0 12
14.8135 -6.1817 2.7838 0.4862 0 12
27.9054 4.3996 4.8993 0.8231 0 5
27.7705 4.6361 4.8828 0.4097 0 5
13.8269 16.7232 3.7632 0.4004 0 5
27.3849 7.6182 4.2727 0.9711 0 5
13.8665 16.6818 3.2606 0.9020 0 5
-8.1706 5.3771 1.4702 0.3739 0 5
-8.2101 5.2973 1.4687 0.3740 0 5
-30.7655 -8.4523 4.7958 0.3690 0 9
-26.8059 -7.8886 4.2002 0.7662 0 9
-27.3081 -8.3055 4.2904 0.6957 0 9
-27.5561 -8.6539 4.3415 0.8245 0 9
-28.2788 -9.1627 4.4683 0.6198 0 9
-26.7841 -8.9469 4.2447 0.6907 0 9
-26.2308 -9.0266 4.1698 0.3047 0 9
-26.2936 -9.3150 4.1930 0.8709 0 9
-26.4795 -9.6513 4.2364 0.3282 0 9
-26.3054 -9.8582 4.2226 0.6991 0 9
-26.1818 -10.0829 4.2172 0.4318 0 9
-25.6713 -10.1539 4.1496 0.6274 0 9
-25.4657 -10.3399 4.1314 0.9471 0 9
-25.2989 -10.5397 4.1196 0.8631 0 9
-26.0065 -11.1115 4.2510 0.6864 0 9
-25.1212 -11.0030 4.1224 0.6187 0 9
-25.5623 -11.4729 4.2116 0.8942 0 9
-26.3206 -12.1004 4.3544 0.6279 0 9
-25.3538 -11.9348 4.2122 0.7647 0 9
-25.0601 -12.0746 4.1813 0.3851 0 9
-25.3370 -12.4917 4.2462 0.7446 0 9
-25.0850 -12.6507 4.2230 0.9031 0 9
-25.0730 -12.9304 4.2405 0.8511 0 9
-24.9778 -13.1687 4.2444 0.6791 0 9
-24.9310 -13.4335 4.2569 0.6146 0 9
-19.8906 -10.9509 3.4130 0.9884 0 5
-29.0519 -16.3388 5.0102 0.2129 0 9
-25.7712 -14.8021 4.4673 0.8312 0 9
-13.7800 -8.7662 2.4549 0.4497 0 9
-13.5983 -8.8244 2.4367 0.6868 0 9
-13.4359 -8.8927 2.4219 0.6704 0 9
-13.3163 -8.9878 2.4149 0.6138 0 9
-13.0427 -8.9759 2.3799 0.3459 0 9
-10.6627 -9.3582 2.1325 0.5939 0 9
-10.5663 -9.4441 2.1302 0.9842 0 9
-10.5178 -9.5733 2.1378 0.7770 0 9
-6.0669 -27.4709 4.2288 0.7227 0 9
-5.7303 -27.1087 4.1649 0.8183 0 9
-5.4998 -27.2330 4.1762 0.9712 0 9
-5.1614 -26.8045 4.1031 0.0742 0 9
-4.9445 -26.9906 4.1246 0.8485 0 9
-4.5869 -26.3828 4.0252 0.7683 0 9
-4.3372 -26.3568 4.0151 0.9471 0 9
-4.2222 -27.1906 4.1361 0.5907 0 9
-3.9340 -26.9396 4.0923 0.8652 0 9
-3.6644 -26.7852 4.0637 0.7839 0 9
-3.3560 -26.3003 3.9854 0.6732 0 9
-3.1444 -26.5521 4.0191 0.6908 0 9
-2.9634 -27.1223 4.1011 0.5467 0 9
-2.7281 -27.2493 4.1164 0.9292 0 9
-2.4737 -27.1871 4.1035 0.4869 0 9
-2.2224 -27.1431 4.0937 0.9008 0 9
-1.9676 -27.0359 4.0746 0.4961 0 9
-1.7312 -27.1805 4.0939 0.8128 0 9
-1.4991 -27.4479 4.1320 0.9953 0 9
-1.2088 -26.5389 3.9933 0.5573 0 9
-0.9754 -26.7321 4.0209 0.8447 0 9
-0.7434 -27.0974 4.0747 0.4957 0 9
-0.4996 -27.1733 4.0852 0.7117 0 9
-0.2560 -27.4100 4.1203 0.7891 0 9
-0.0083 -28.1399 4.2298 0.6214 0 9
0.2482 -28.3746 4.2653 0.7754 0 9
0.5054 -28.3997 4.2696 0.6650 0 9
0.8046 -29.9754 4.5073 0.8726 0 9
1.0508 -29.2729 4.4030 0.2482 0 9
1.3557 -30.1558 4.5374 0.4620 0 9
14.5260 -6.2166 2.3750 0.4957 0 12
14.8135 -6.1817 2.4128 0.4880 0 12
27.3721 7.6920 4.2738 0.8089 0 5
13.8251 16.7210 3.2612 0.4019 0 5
13.8657 16.6808 2.7625 0.9049 0 5
-8.1694 5.3763 1.2455 0.3751 0 5
-8.2090 5.2966 1.2442 0.3753 0 5
-30.2005 -8.0040 3.9791 0.8835 0 9
-29.9530 -8.2291 3.9561 0.6966 0 9
-28.9962 -8.2490 3.8395 0.6438 0 9
-28.9795 -8.5283 3.8473 0.4096 0 9
-28.9583 -8.8074 3.8549 0.7135 0 9
-28.9061 -9.0779 3.8587 0.6037 0 9
-28.0218 -9.0795 3.7515 0.6990 0 9
-27.6694 -9.2426 3.7154 0.9174 0 9
-27.3308 -9.4051 3.6812 0.3326 0 9
-26.7182 -9.4654 3.6100 0.3946 0 9
-26.6138 -9.7002 3.6076 0.5407 0 9
-26.5957 -9.9670 3.6173 0.9165 0 9
-26.2315 -10.1020 3.5800 0.8707 0 9
-25.9959 -10.2822 3.5604 0.8212 0 9
-25.8913 -10.5127 3.5589 0.8313 0 9
-25.9605 -10.8153 3.5817 0.8857 0 9
-25.8789 -11.0570 3.5841 0.8511 0 9
-25.7988 -11.2998 3.5871 0.3362 0 9
-26.1205 -11.7234 3.6464 0.5422 0 9
-26.0166 -11.9606 3.6468 0.8490 0 9
-25.8495 -12.1682 3.6387 0.4331 0 9
-25.8679 -12.4639 3.6570 0.9202 0 9
-26.7529 -13.1897 3.7988 0.3005 0 9
-26.8530 -13.5423 3.8303 0.8729 0 9
-26.8176 -13.8301 3.8429 0.7888 0 9
-25.3653 -13.3730 3.6520 0.6452 0 9
-26.3706 -14.2092 3.8151 0.6729 0 9
-19.8894 -10.9502 2.8916 0.9916 0 5
-25.1355 -14.1362 3.6728 0.5970 0 9
-27.3305 -15.6978 4.0141 0.4407 0 9
-26.7653 -15.6967 3.9518 0.2398 0 9
-27.4280 -16.4205 4.0714 0.8396 0 9
-10.6537 -9.3503 1.8053 0.9869 0 9
-10.5619 -9.4402 1.8042 0.9875 0 9
-10.5161 -9.5718 1.8110 0.7797 0 9
-7.2477 -27.9713 3.6800 0.4468 0 9
-6.9345 -27.7953 3.6485 0.6102 0 9
-6.6217 -27.6023 3.6151 0.4663 0 9
-6.3255 -27.4602 3.5889 0.8649 0 9
-6.0732 -27.4995 3.5867 0.7787 0 9
-5.8063 -27.4684 3.5757 0.8220 0 9
-5.7332 -28.3889 3.6886 0.2367 0 9
-5.3396 -27.7304 3.5966 0.4288 0 9
-5.0782 -27.7207 3.5892 0.7099 0 9
-4.5885 -26.3923 3.4117 0.4682 0 9
-4.5335 -27.5499 3.5559 0.6825 0 9
-4.0721 -26.2245 3.3799 0.6916 0 9
-3.9106 -26.7791 3.4467 0.9575 0 9
-3.6071 -26.3664 3.3893 0.6790 0 9
-3.3296 -26.0937 3.3502 0.8047 0 9
-3.1565 -26.6549 3.4185 0.8060 0 9
-2.8533 -26.1152 3.3458 0.5368 0 9
-2.7319 -27.2869 3.4926 0.7747 0 9
-2.5199 -27.6945 3.5417 0.9351 0 9
-2.2243 -27.1660 3.4714 0.8483 0 9
-2.0440 -28.0844 3.5863 0.8498 0 9
-1.7984 -28.2364 3.6034 0.4647 0 9
-1.5199 -27.8287 3.5495 0.9767 0 9
-1.2769 -28.0328 3.5739 0.7329 0 9
-1.0142 -27.7931 3.5421 0.7699 0 9
-0.7753 -28.2566 3.6001 0.6874 0 9
-0.5178 -28.1605 3.5871 0.6788 0 9
-0.2643 -28.2904 3.6032 0.6303 0 9
-0.0088 -29.8511 3.8018 0.6666 0 9
0.2627 -30.0287 3.8246 0.6457 0 9
0.5403 -30.3652 3.8679 0.8473 0 9
0.8413 -31.3426 3.9932 0.6355 0 9
1.3234 -36.8674 4.6984 0.6669 0 9
1.6669 -37.0785 4.7270 0.3829 0 9
2.3449 -37.1626 4.7424 0.8053 0 9
13.8236 16.7192 2.7629 0.9258 0 5
13.8649 16.6799 2.2673 0.9073 0 5
11.4895 36.5475 4.0048 0.6797 0 5
-8.1683 5.3756 1.0222 0.3761 0 5
-8.2078 5.2958 1.0211 0.3763 0 5
-29.9325 -8.2234 3.2449 0.7341 0 9
-29.9035 -8.5071 3.2500 0.7457 0 9
-28.0791 -8.2633 3.0597 0.7886 0 9
-28.1397 -8.5584 3.0746 0.7047 0 9
-28.3934 -8.9169 3.1110 0.9151 0 9
-30.1599 -9.7722 3.3141 0.4734 0 9
-27.1681 -9.0752 2.9943 0.6091 0 9
-26.8334 -9.2339 2.9665 0.8398 0 9
-26.9055 -9.5318 2.9838 0.5500 0 9
-27.2262 -9.9234 3.0292 0.7693 0 9
-27.7342 -10.3937 3.0961 0.7998 0 9
-27.5605 -10.6138 3.0873 0.8884 0 9
-27.1377 -10.7339 3.0507 0.9182 0 9
-26.8089 -10.8852 3.0247 0.6228 0 9
-26.7360 -11.1383 3.0277 0.4191 0 9
-26.7302 -11.4207 3.0386 0.8064 0 9
-26.5687 -11.6370 3.0321 0.4839 0 9
-26.5830 -11.9310 3.0459 0.8269 0 9
-27.0150 -12.4196 3.1082 0.4971 0 9
-27.0289 -12.7234 3.1229 0.3370 0 9
-26.9901 -13.0046 3.1318 0.6207 0 9
-28.3421 -13.9733 3.3033 0.0927 0 9
-27.5342 -13.8859 3.2236 0.3374 0 9
-27.4685 -14.1658 3.2308 0.2213 0 9
-27.1160 -14.2959 3.2044 0.8696 0 9
-27.0250 -14.5618 3.2091 0.9425 0 9
-19.8881 -10.9495 2.3733 0.9942 0 5
-27.0903 -15.5598 3.2658 0.5564 0 9
-10.6469 -9.3444 1.4808 0.6371 0 9
-10.5448 -9.4249 1.4784 0.9791 0 9
-10.4853 -9.5438 1.4821 0.7610 0 9
-7.4419 -29.8290 3.2138 0.3636 0 9
-7.0805 -29.5148 3.1729 0.3257 0 9
-6.7212 -29.1777 3.1300 0.4678 0 9
-6.4287 -29.1092 3.1163 0.5517 0 9
-6.3491 -30.0359 3.2092 0.5330 0 9
-5.7337 -28.3917 3.0278 0.5892 0 9
-5.5043 -28.5856 3.0431 0.6479 0 9
-4.8885 -26.6853 2.8360 0.5628 0 9
-4.7147 -27.1181 2.8773 0.5188 0 9
-4.4707 -27.1686 2.8783 0.7920 0 9
-4.2044 -27.0761 2.8643 0.5898 0 9
-3.9403 -26.9830 2.8506 0.4476 0 9
-3.7339 -27.2935 2.8797 0.9489 0 9
-3.4522 -27.0542 2.8510 0.8014 0 9
-3.2035 -27.0515 2.8476 0.7727 0 9
-2.9689 -27.1725 2.8574 0.7693 0 9
-2.7115 -27.0832 2.8453 0.8757 0 9
-2.4478 -26.9024 2.8239 0.6707 0 9
-2.2213 -27.1292 2.8454 0.4720 0 9
-2.0329 -27.9330 2.9277 0.8570 0 9
-1.7747 -27.8643 2.9187 0.4445 0 9
-1.5184 -27.8015 2.9106 0.6884 0 9
-1.2587 -27.6336 2.8917 0.7869 0 9
-1.0184 -27.9091 2.9194 0.7991 0 9
-0.7999 -29.1545 3.0488 0.4837 0 9
-0.5336 -29.0217 3.0343 0.3299 0 9
-0.2929 -31.3576 3.2781 0.5425 0 9
-0.0094 -31.7430 3.3183 0.6897 0 9
0.2780 -31.7786 3.3221 0.6889 0 9
0.5754 -32.3373 3.3809 0.2214 0 9
1.0659 -39.7065 4.1522 0.6042 0 9
1.3863 -38.6179 4.0395 0.9808 0 9
1.6683 -37.1093 3.8831 0.3959 0 9
13.8228 16.7183 2.2676 0.9283 0 5
13.8641 16.6789 1.7744 0.9092 0 5
11.4887 36.5447 3.1343 0.6812 0 5
-8.1668 5.3745 0.7999 0.3768 0 5
-8.2063 5.2948 0.7991 0.3770 0 5
-32.1042 -8.5086 2.7174 0.6888 0 9
-30.5917 -8.4045 2.5957 0.4343 0 9
-30.1188 -8.5683 2.5620 0.7408 0 9
-29.4202 -9.5325 2.5303 0.3918 0 9
-29.4513 -9.8378 2.5405 0.8372 0 9
-29.8509 -10.2723 2.5829 0.2845 0 9
-28.1504 -10.2603 2.4514 0.5217 0 9
-28.7873 -10.7883 2.5153 0.2805 0 9
-26.8933 -10.3569 2.3579 0.5421 0 9
-26.7840 -10.5940 2.3566 0.5264 0 9
-26.9940 -10.9604 2.3837 0.6845 0 9
-25.9461 -10.8093 2.2997 0.7606 0 9
-25.8405 -11.0406 2.2991 0.8323 0 9
-25.8107 -11.3050 2.3055 0.4181 0 9
-25.5414 -11.4634 2.2906 0.6882 0 9
-28.0588 -12.8994 2.5267 0.5811 0 9
-26.5780 -12.5111 2.4035 0.7147 0 9
-26.6611 -12.8460 2.4214 0.9133 0 9
-25.7327 -12.6867 2.3474 0.7668 0 9
-25.5103 -12.8652 2.3376 0.9546 0 9
-25.3855 -13.0916 2.3369 0.5175 0 9
-25.7117 -13.5556 2.3782 0.6544 0 9
-26.5576 -14.3100 2.4683 0.9213 0 9
-19.8868 -10.9488 1.8574 0.9964 0 5
-26.6853 -15.0078 2.5049 0.8263 0 9
-10.6481 -9.3454 1.1592 0.6658 0 9
-10.5255 -9.4076 1.1550 0.9828 0 9
-10.4477 -9.5095 1.1559 0.7653 0 9
-10.4878 -9.7209 1.1700 0.2103 0 9
-7.0802 -28.3793 2.3931 0.6317 0 9
-6.6268 -27.6232 2.3242 0.6402 0 9
-6.3494 -27.5636 2.3143 0.6795 0 9
-6.0873 -27.5632 2.3095 0.4050 0 9
-5.8614 -27.7288 2.3188 0.4386 0 9
-5.5524 -27.4937 2.2949 0.6268 0 9
-5.2839 -27.4410 2.2864 0.6258 0 9
-5.0379 -27.5008 2.2875 0.7528 0 9
-4.8202 -27.7249 2.3024 0.3834 0 9
-4.4750 -27.1943 2.2549 0.7758 0 9
-4.2464 -27.3467 2.2643 0.4512 0 9
-3.9598 -27.1163 2.2421 0.9295 0 9
-3.8989 -28.4993 2.3535 0.6199 0 9
-3.6073 -28.2698 2.3317 0.6635 0 9
-3.3473 -28.2661 2.3288 0.6308 0 9
-3.3184 -30.3711 2.4997 0.8099 0 9
-2.9265 -29.2306 2.4035 0.6630 0 9
-2.7132 -29.8192 2.4498 0.4741 0 9
-2.9139 -35.5885 2.9215 0.6046 0 9
-2.1092 -28.9813 2.3775 0.7909 0 9
-1.8463 -28.9875 2.3765 0.8279 0 9
-1.6851 -30.8531 2.5281 0.5024 0 9
-1.6098 -35.3417 2.8946 0.6978 0 9
-1.1672 -31.9875 2.6189 0.5143 0 9
-0.7635 -27.8300 2.2779 0.8007 0 9
-0.6757 -36.7498 3.0073 0.7185 0 9
-0.3356 -35.9287 2.9398 0.9363 0 9
-0.0108 -36.4971 2.9861 0.6873 0 9
0.3245 -37.0990 3.0355 0.6404 0 9
13.8221 16.7173 1.7748 0.9303 0 5
13.8633 16.6780 1.2835 0.9107 0 5
11.4878 36.5419 2.2671 0.6824 0 5
-8.1645 5.3730 0.5785 0.3775 0 5
-8.2040 5.2933 0.5778 0.3777 0 5
-28.6049 -8.6999 1.7695 0.3383 0 9
-28.3758 -8.9114 1.7603 0.6235 0 9
-27.8901 -9.0368 1.7352 0.8125 0 9
-27.7807 -9.2798 1.7335 0.9474 0 9
-28.0362 -9.6479 1.7548 0.8092 0 9
-27.3273 -9.6812 1.7159 0.8530 0 9
-27.3584 -9.9716 1.7234 0.1978 0 9
-27.1151 -10.1617 1.7138 0.6069 0 9
-26.7825 -10.3142 1.6986 0.7548 0 9
-29.3493 -11.9167 1.8748 0.9044 0 9
-27.5750 -11.4879 1.7680 0.7413 0 9
-27.9551 -11.9441 1.7992 0.9568 0 9
-27.8895 -12.2155 1.8020 0.9591 0 9
-29.5150 -13.2469 1.9147 0.2557 0 9
-28.0247 -12.8838 1.8255 0.3717 0 9
-27.2519 -12.8283 1.7827 0.2172 0 9
-27.1314 -13.0726 1.7824 0.4371 0 9
-27.0371 -13.3298 1.7841 0.4471 0 9
-19.8856 -10.9481 1.3435 0.9980 0 5
-10.6656 -9.3607 0.8399 0.6835 0 9
-10.5245 -9.4068 0.8354 0.9941 0 9
-10.4303 -9.4937 0.8347 0.9947 0 9
-10.4167 -9.6550 0.8406 0.7691 0 9
-6.9020 -28.7707 1.7511 0.2859 0 9
-5.5105 -28.6180 1.7249 0.3959 0 9
-5.4107 -29.5358 1.7772 0.4494 0 9
-5.1272 -29.4904 1.7716 0.3357 0 9
-4.6763 -28.4176 1.7045 0.1844 0 9
-4.3518 -28.0258 1.6786 0.5299 0 9
-4.0586 -27.7928 1.6624 0.6872 0 9
-3.8483 -28.1295 1.6803 0.5562 0 9
-3.5801 -28.0564 1.6740 0.8752 0 9
-3.5833 -30.2587 1.8034 0.7503 0 9
-3.0154 -27.5986 1.6431 0.8946 0 9
-2.7355 -27.3229 1.6252 0.4513 0 9
-2.4960 -27.4319 1.6303 0.6273 0 9
-2.2630 -27.6384 1.6412 0.7126 0 9
-2.0490 -28.1530 1.6706 0.8632 0 9
-1.7550 -27.5544 1.6341 0.5526 0 9
-1.5291 -27.9972 1.6595 0.6523 0 9
-1.3040 -28.6289 1.6962 0.8264 0 9
-1.0385 -28.4613 1.6856 0.5768 0 9
-0.7847 -28.6030 1.6935 0.4917 0 9
-0.2872 -30.7456 1.8198 0.3055 0 9
-0.0091 -30.5941 1.8107 0.4698 0 9
0.2691 -30.7621 1.8207 0.4281 0 9
0.5468 -30.7291 1.8190 0.5587 0 9
13.8213 16.7164 1.2837 0.9318 0 5
13.8623 16.6769 0.7940 0.9117 0 5
11.4869 36.5391 1.4023 0.6831 0 5
-8.1622 5.3715 0.3577 0.3780 0 5
-8.2017 5.2919 0.3574 0.3782 0 5
-29.3260 -11.9072 1.1588 0.9471 0 9
-19.8843 -10.9474 0.8310 0.9992 0 5
-10.6812 -9.3744 0.5203 0.7147 0 9
-10.5259 -9.4080 0.5169 0.9950 0 9
-10.4320 -9.4952 0.5165 0.9965 0 9
-10.3982 -9.6379 0.5191 0.7736 0 9
-3.5780 -30.2142 1.1139 0.7758 0 9
-2.1324 -29.2994 1.0755 0.8803 0 9
-1.8625 -29.2427 1.0728 0.1348 0 9
-0.9687 -35.3076 1.2932 0.2419 0 5
13.8204 16.7153 0.7941 0.9328 0 5
13.8607 16.6749 0.3052 0.9123 0 5
11.4857 36.5352 0.5391 0.6835 0 5
-8.1599 5.3700 0.1375 0.3783 0 5
-8.1994 5.2904 0.1374 0.3785 0 5
-25.2419 1.4525 0.3559 0.5403 0 5
-29.2741 -11.8862 0.4447 0.9376 0 9
-19.8829 -10.9466 0.3195 0.9998 0 5
-10.6813 -9.3745 0.2000 0.7787 0 9
-10.5315 -9.4131 0.1988 0.9989 0 9
-10.4405 -9.5030 0.1987 0.9963 0 9
-10.4005 -9.6399 0.1996 0.7560 0 9
-3.5769 -30.2047 0.4281 0.7718 0 9
-3.3130 -30.3223 0.4294 0.1863 0 9
-2.8863 -39.6587 0.5597 0.6209 0 9
-2.5394 -39.8691 0.5623 0.4378 0 9
-0.9684 -35.2963 0.4969 0.2420 0 5
13.8188 16.7134 0.3053 0.9334 0 5
13.8591 16.6730 -0.1830 0.9125 0 5
11.4839 36.5296 -0.3234 0.6837 0 5
-8.1576 5.3685 -0.0825 0.3784 0 5
-8.1971 5.2889 -0.0824 0.3786 0 5
-25.2370 1.4522 -0.2135 0.5404 0 5
-29.2699 -11.8845 -0.2668 0.9102 0 9
-19.8815 -10.9459 -0.1917 0.9999 0 5
-10.6727 -9.3670 -0.1199 0.7777 0 9
-10.5375 -9.4184 -0.1194 0.9946 0 9
-10.4487 -9.5104 -0.1193 0.9949 0 9
-10.4068 -9.6458 -0.1198 0.7548 0 9
-3.5804 -30.2343 -0.2571 0.8835 0 9
-3.3098 -30.2932 -0.2574 0.8092 0 9
-2.8883 -39.6864 -0.3361 0.6627 0 9
-2.5275 -39.6832 -0.3358 0.9021 0 9
-0.9680 -35.2809 -0.2981 0.2422 0 5
22.0093 -32.4048 -0.3308 0.9885 0 9
21.6931 -29.5779 -0.3098 0.6980 0 9
28.2219 -21.3909 -0.2991 0.7657 0 9
30.9192 -20.8955 -0.3152 0.8864 0 9
33.6226 -20.5718 -0.3329 0.3077 0 9
13.8173 16.7115 -0.1831 0.9336 0 5
13.8575 16.6711 -0.6716 0.9122 0 5
11.4821 36.5239 -1.1859 0.6835 0 5
-8.1553 5.3670 -0.3024 0.3784 0 5
-8.1948 5.2874 -0.3021 0.3786 0 5
-25.2321 1.4519 -0.7829 0.5403 0 5
-29.3085 -11.9001 -0.9798 0.9313 0 9
-29.3087 -12.2101 -0.9835 0.5689 0 9
-19.8801 -10.9451 -0.7030 0.9996 0 5
-10.6981 -9.3893 -0.4409 0.7870 0 9
-10.5562 -9.4351 -0.4386 0.9952 0 9
-10.4681 -9.5281 -0.4385 0.9954 0 9
-10.4322 -9.6693 -0.4406 0.7283 0 9
-10.4808 -9.8922 -0.4464 0.3408 0 9
-7.4104 -22.5999 -0.7367 0.4235 0 12
-7.7819 -31.1918 -0.9958 0.9336 0 20
-7.4874 -31.2106 -0.9942 0.9368 0 20
-7.3198 -31.7761 -1.0101 0.1272 0 20
-7.1697 -32.4645 -1.0298 0.1247 0 20
-7.4027 -35.0206 -1.1087 0.1819 0 20
-3.5783 -30.2169 -0.9425 0.9732 0 9
-3.3148 -30.3391 -0.9454 0.7671 0 9
-2.8963 -39.7955 -1.2359 0.6318 0 9
-2.5292 -39.7094 -1.2325 0.8072 0 9
-0.9677 -35.2703 -1.0929 0.8570 0 5
21.8366 -33.4361 -1.2370 0.7108 0 9
21.5478 -32.3509 -1.2040 0.1266 0 9
21.4810 -31.6270 -1.1843 0.4534 0 9
21.5585 -31.1315 -1.1730 0.8277 0 9
21.5110 -30.4703 -1.1553 0.7235 0 9
21.1679 -29.4160 -1.1226 0.0814 0 9
21.2494 -28.9729 -1.1129 0.7992 0 9
21.1983 -28.3617 -1.0968 0.8621 0 9
21.2721 -27.9301 -1.0875 0.8049 0 9
21.5137 -27.7235 -1.0870 0.7846 0 9
21.5218 -27.2221 -1.0749 0.6254 0 9
21.5088 -26.7056 -1.0622 0.7806 0 9
21.6897 -26.4371 -1.0592 0.7135 0 9
21.6526 -25.9105 -1.0459 0.3698 0 9
21.8449 -25.6651 -1.0440 0.8744 0 9
21.9111 -25.2762 -1.0362 0.8523 0 9
21.9979 -24.9174 -1.0296 0.3655 0 9
22.1723 -24.6617 -1.0273 0.8071 0 9
22.2375 -24.2888 -1.0201 0.7532 0 9
22.2761 -23.8934 -1.0119 0.4656 0 9
22.5014 -23.7017 -1.0123 0.8509 0 9
22.7816 -23.5662 -1.0153 0.8484 0 9
22.9860 -23.3513 -1.0150 0.6154 0 9
23.2999 -23.2458 -1.0195 0.9040 0 9
23.3604 -22.8884 -1.0130 0.6041 0 9
23.6751 -22.7807 -1.0177 0.9201 0 9
23.8529 -22.5399 -1.0165 0.7371 0 9
24.3066 -22.5560 -1.0271 0.9203 0 9
24.2823 -22.1280 -1.0176 0.5936 0 9
24.6044 -22.0176 -1.0227 0.8269 0 9
24.8160 -21.8060 -1.0233 0.9036 0 9
25.0139 -21.5822 -1.0234 0.7298 0 9
25.4188 -21.5336 -1.0319 0.9848 0 9
25.6411 -21.3265 -1.0331 0.9837 0 9
25.9224 -21.1668 -1.0366 0.9981 0 9
26.6150 -21.3341 -1.0566 0.4876 0 9
26.7095 -21.0159 -1.0527 0.4071 0 9
27.0758 -20.9104 -1.0597 0.7122 0 9
27.5067 -20.8487 -1.0691 0.9745 0 9
27.9906 -20.8197 -1.0806 0.4395 0 9
28.4400 -20.7571 -1.0906 0.7725 0 9
29.0654 -20.8132 -1.1073 0.5449 0 9
29.5567 -20.7632 -1.1189 0.9317 0 9
29.8331 -20.5570 -1.1222 0.6729 0 9
30.3224 -20.4921 -1.1336 0.9818 0 9
30.8386 -20.4372 -1.1460 0.7214 0 9
31.4312 -20.4232 -1.1611 0.6175 0 9
32.0085 -20.3890 -1.1755 0.1423 0 9
32.4835 -20.2809 -1.1862 0.2018 0 9
33.0825 -20.2414 -1.2013 0.9856 0 9
33.6069 -20.1468 -1.2137 0.7482 0 9
34.1525 -20.0562 -1.2268 0.6314 0 9
13.8157 16.7096 -0.6716 0.9333 0 5
13.8559 16.6691 -1.1605 0.9114 0 5
11.4578 36.4466 -2.0454 0.9111 0 5
-13.8592 35.3404 -2.0323 0.8639 0 19
-8.1531 5.3655 -0.5225 0.3781 0 5
-8.1928 5.2861 -0.5220 0.9211 0 5
-25.2271 1.4516 -1.3528 0.5399 0 5
-29.8950 -0.7152 -1.6009 0.6582 0 10
-29.8342 -0.9838 -1.5981 0.6603 0 10
-29.7910 -1.2522 -1.5963 0.6645 0 10
-29.7676 -1.5211 -1.5957 0.6712 0 10
-29.7632 -1.7909 -1.5963 0.6684 0 10
-30.4491 -2.1087 -1.6341 0.0655 0 10
-37.0390 -11.6320 -2.0784 0.4269 0 19
-33.2035 -11.0912 -1.8742 0.5548 0 19
-31.7757 -10.9347 -1.7991 0.9811 0 19
-30.3761 -10.7613 -1.7253 0.9827 0 19
-36.9962 -14.2476 -2.1225 0.8000 0 19
-35.3888 -13.9974 -2.0374 0.4214 0 19
-29.3920 -11.9340 -1.6983 0.9470 0 9
-29.3415 -12.2238 -1.7017 0.5750 0 9
-31.4680 -13.4450 -1.8320 0.6209 0 19
-19.8787 -10.9443 -1.2149 0.9987 0 5
-10.9942 -9.4745 -0.7770 0.3295 0 9
-10.7247 -9.4127 -0.7639 0.7070 0 9
-10.5770 -9.4537 -0.7595 0.9912 0 9
-10.4849 -9.5434 -0.7590 0.9918 0 9
-10.4481 -9.6841 -0.7627 0.6802 0 9
-19.2008 -27.6917 -1.8040 0.7461 0 19
-18.8911 -27.7783 -1.7985 0.6569 0 19
-9.9588 -26.2927 -1.5053 0.6199 0 20
-9.6799 -26.2712 -1.4989 0.8854 0 20
-9.3991 -26.2383 -1.4921 0.8895 0 20
-7.7819 -31.1918 -1.7211 0.9327 0 20
-7.4739 -31.1544 -1.7152 0.9359 0 20
-7.1680 -31.1173 -1.7096 0.9390 0 20
-6.8912 -31.2034 -1.7108 0.3312 0 20
-6.7835 -32.0912 -1.7560 0.3227 0 20
-6.7907 -33.6255 -1.8365 0.3141 0 20
-6.6686 -34.6322 -1.8882 0.3055 0 20
-6.9085 -37.7116 -2.0526 0.9442 0 20
-6.7098 -38.5931 -2.0971 0.2883 0 20
-3.8873 -30.4642 -1.6442 0.3388 0 9
-3.5809 -30.2382 -1.6302 0.9712 0 9
-2.5343 -39.7891 -2.1345 0.9641 0 9
-0.9676 -35.2659 -1.8887 0.8563 0 5
21.4107 -33.4408 -2.1258 0.4363 0 1
21.3162 -32.6394 -2.0871 0.4444 0 1
21.2569 -31.9143 -2.0529 0.0535 0 1
21.5526 -31.7323 -2.0536 0.8861 0 1
21.8116 -31.4970 -2.0511 0.1790 0 9
21.5860 -30.5766 -2.0038 0.6896 0 9
21.4169 -29.7620 -1.9630 0.3746 0 9
21.7628 -29.6730 -1.9701 0.9871 0 9
21.3441 -28.5568 -1.9087 0.0242 0 9
21.2346 -27.8809 -1.8763 0.5536 0 9
21.4124 -27.5931 -1.8699 0.8396 0 9
21.4282 -27.1036 -1.8498 0.6401 0 9
21.5772 -26.7905 -1.8416 0.6926 0 9
21.6203 -26.3526 -1.8249 0.7257 0 9
21.7163 -25.9866 -1.8131 0.2894 0 9
21.8500 -25.6712 -1.8048 0.9385 0 9
21.8529 -25.2091 -1.7861 0.8646 0 9
21.9815 -24.8988 -1.7781 0.9099 0 9
21.9697 -24.4364 -1.7592 0.2570 0 9
22.1560 -24.1998 -1.7566 0.2701 0 9
22.2765 -23.8938 -1.7489 0.3450 0 9
22.4755 -23.6743 -1.7477 0.0493 0 9
22.6499 -23.4299 -1.7447 0.5557 0 9
22.9156 -23.2798 -1.7488 0.6298 0 9
23.0943 -23.0407 -1.7465 0.2318 0 9
23.3174 -22.8463 -1.7477 0.7465 0 9
23.5575 -22.6675 -1.7502 0.4019 0 9
23.8217 -22.5104 -1.7547 0.4806 0 9
24.0590 -22.3262 -1.7572 0.5474 0 9
24.4152 -22.2492 -1.7684 0.7070 0 9
24.5711 -21.9878 -1.7653 0.4442 0 9
24.8433 -21.8300 -1.7706 0.8352 0 9
25.0305 -21.5965 -1.7699 0.6082 0 9
25.2280 -21.3719 -1.7701 0.5309 0 9
25.5443 -21.2460 -1.7788 0.6951 0 9
25.9075 -21.1547 -1.7907 0.9989 0 9
26.3109 -21.0904 -1.8053 0.5152 0 9
26.8272 -21.1085 -1.8275 0.9404 0 9
27.2879 -21.0742 -1.8459 0.8554 0 9
27.5469 -20.8792 -1.8505 0.9661 0 9
27.9459 -20.7864 -1.8646 0.6945 0 9
28.5193 -20.8150 -1.8903 0.6693 0 9
29.1560 -20.8781 -1.9199 0.4619 0 9
29.3942 -20.6491 -1.9232 0.5869 0 9
30.1294 -20.7612 -1.9589 0.8333 0 9
30.3690 -20.5237 -1.9623 0.9743 0 9
30.8323 -20.4330 -1.9802 0.8695 0 9
31.6958 -20.5951 -2.0237 0.7585 0 9
31.9916 -20.3782 -2.0307 0.5891 0 9
32.6045 -20.3565 -2.0578 0.5227 0 9
32.7090 -20.0128 -2.0529 0.0535 0 1
33.0991 -19.8424 -2.0661 0.6098 0 1
33.6735 -19.7749 -2.0907 0.6027 0 1
34.2617 -19.7058 -2.1160 0.5954 0 1
13.8141 16.7077 -1.1606 0.9325 0 5
11.3489 36.4335 -2.0430 0.9121 0 5
35.9763 -0.0000 -2.7397 0.0759 0 7
35.9748 0.3253 -2.7397 0.0759 0 7
35.9704 0.6507 -2.7397 0.0759 0 7
35.9631 0.9760 -2.7397 0.0759 0 7
35.9527 1.3012 -2.7397 0.0759 0 7
35.9395 1.6263 -2.7397 0.0759 0 7
35.9233 1.9513 -2.7397 0.0759 0 7
35.9042 2.2761 -2.7397 0.0759 0 7
35.8821 2.6008 -2.7397 0.0759 0 7
35.8572 2.9252 -2.7397 0.0759 0 7
35.8293 3.2494 -2.7397 0.0759 0 7
35.7984 3.5733 -2.7397 0.0759 0 7
35.7646 3.8969 -2.7397 0.0759 0 7
35.7279 4.2202 -2.7397 0.0759 0 7
35.6883 4.5432 -2.7397 0.0759 0 7
35.6457 4.8658 -2.7397 0.0759 0 7
35.6002 5.1880 -2.7397 0.0759 0 7
35.5519 5.5097 -2.7397 0.0759 0 7
35.5006 5.8310 -2.7397 0.0759 0 7
35.4464 6.1518 -2.7397 0.0759 0 7
35.3893 6.4722 -2.7397 0.0759 0 7
35.3293 6.7920 -2.7397 0.0759 0 7
35.2664 7.1112 -2.7397 0.0759 0 7
35.2007 7.4299 -2.7397 0.0759 0 7
35.1321 7.7480 -2.7397 0.0759 0 7
35.0016 8.0518 -2.7351 0.0777 0 8
33.7985 8.0976 -2.6467 0.1231 0 8
32.9671 8.2144 -2.5873 0.0759 0 8
32.8914 8.5122 -2.5873 0.0759 0 8
32.8131 8.8093 -2.5873 0.0759 0 8
32.7321 9.1057 -2.5873 0.0759 0 8
27.2496 7.8468 -2.1595 0.9868 0 5
32.5620 9.6963 -2.5873 0.0759 0 8
32.4730 9.9904 -2.5873 0.0759 0 8
32.3813 10.2837 -2.5873 0.0759 0 8
32.2870 10.5761 -2.5873 0.0759 0 8
32.1900 10.8677 -2.5873 0.0759 0 8
32.0904 11.1584 -2.5873 0.0759 0 8
31.9882 11.4482 -2.5873 0.0759 0 8
31.8833 11.7370 -2.5873 0.0759 0 8
31.7759 12.0249 -2.5873 0.0759 0 8
31.6658 12.3118 -2.5873 0.0759 0 8
31.5532 12.5977 -2.5873 0.0759 0 8
31.4379 12.8825 -2.5873 0.0759 0 8
31.3201 13.1663 -2.5873 0.0759 0 8
31.1998 13.4491 -2.5873 0.0759 0 8
31.0769 13.7307 -2.5873 0.0759 0 8
30.9516 14.0112 -2.5873 0.0759 0 8
30.8234 14.2905 -2.5873 0.0759 0 8
30.6929 14.5687 -2.5873 0.0759 0 8
30.5599 14.8457 -2.5873 0.0759 0 8
30.4244 15.1215 -2.5873 0.0759 0 8
30.2864 15.3961 -2.5873 0.0759 0 8
30.1459 15.6693 -2.5873 0.0759 0 8
30.0029 15.9413 -2.5873 0.0759 0 8
29.8575 16.2120 -2.5873 0.0759 0 8
29.7097 16.4814 -2.5873 0.0759 0 8
29.5594 16.7494 -2.5873 0.0759 0 8
20.6096 11.9257 -1.8133 0.9387 0 19
20.5565 12.1444 -1.8182 0.7616 0 19
29.0942 17.5452 -2.5873 0.0759 0 8
28.9344 17.8076 -2.5873 0.0759 0 8
28.7720 18.0686 -2.5873 0.0759 0 8
28.6074 18.3281 -2.5873 0.0759 0 8
28.4408 18.5859 -2.5873 0.0759 0 8
28.2712 18.8425 -2.5873 0.0759 0 8
28.0997 19.0974 -2.5873 0.0759 0 8
27.9258 19.3508 -2.5873 0.0759 0 8
27.7496 19.6026 -2.5873 0.0759 0 8
27.5712 19.8528 -2.5873 0.0759 0 8
27.3905 20.1013 -2.5873 0.0759 0 8
27.2076 20.3482 -2.5873 0.0759 0 8
27.0225 20.5934 -2.5873 0.0759 0 8
26.8351 20.8370 -2.5873 0.0759 0 8
26.6455 21.0789 -2.5873 0.0759 0 8
26.4538 21.3190 -2.5873 0.0759 0 8
26.2599 21.5574 -2.5873 0.0759 0 8
26.0639 21.7940 -2.5873 0.0759 0 8
25.8657 22.0288 -2.5873 0.0759 0 8
25.6654 22.2618 -2.5873 0.0759 0 8
25.4630 22.4931 -2.5873 0.0759 0 8
25.2586 22.7224 -2.5873 0.0759 0 8
25.0520 22.9499 -2.5873 0.0759 0 8
24.8434 23.1756 -2.5873 0.0759 0 8
24.6328 23.3993 -2.5873 0.0759 0 8
24.4202 23.6211 -2.5873 0.0759 0 8
24.2056 23.8410 -2.5873 0.0759 0 8
23.9889 24.0590 -2.5873 0.0759 0 8
23.7704 24.2750 -2.5873 0.0759 0 8
23.5498 24.4889 -2.5873 0.0759 0 8
23.3274 24.7009 -2.5873 0.0759 0 8
23.1031 24.9109 -2.5873 0.0759 0 8
22.8768 25.1188 -2.5873 0.0759 0 8
22.6487 25.3247 -2.5873 0.0759 0 8
22.4187 25.5285 -2.5873 0.0759 0 8
22.1869 25.7302 -2.5873 0.0759 0 8
21.9533 25.9298 -2.5873 0.0759 0 8
13.8543 16.6672 -1.6504 0.9102 0 5
21.4807 26.3227 -2.5873 0.0759 0 8
21.2418 26.5159 -2.5873 0.0759 0 8
21.0011 26.7069 -2.5873 0.0759 0 8
20.7587 26.8958 -2.5873 0.0759 0 8
20.5145 27.0824 -2.5873 0.0759 0 8
20.2688 27.2668 -2.5873 0.0759 0 8
20.0213 27.4490 -2.5873 0.0759 0 8
19.7723 27.6290 -2.5873 0.0759 0 8
19.5216 27.8067 -2.5873 0.0759 0 8
19.2693 27.9821 -2.5873 0.0759 0 8
19.0154 28.1552 -2.5873 0.0759 0 8
18.7600 28.3261 -2.5873 0.0759 0 8
18.5031 28.4946 -2.5873 0.0759 0 8
18.2446 28.6608 -2.5873 0.0759 0 8
17.9846 28.8246 -2.5873 0.0759 0 8
17.7232 28.9861 -2.5873 0.0759 0 8
17.4603 29.1452 -2.5873 0.0759 0 8
17.1960 29.3019 -2.5873 0.0759 0 8
16.9303 29.4562 -2.5873 0.0759 0 8
16.6632 29.6081 -2.5873 0.0759 0 8
16.3947 29.7576 -2.5873 0.0759 0 8
16.1249 29.9047 -2.5873 0.0759 0 8
15.8538 30.0493 -2.5873 0.0759 0 8
15.5814 30.1915 -2.5873 0.0759 0 8
15.3077 30.3311 -2.5873 0.0759 0 8
15.0327 30.4684 -2.5873 0.0759 0 8
14.7566 30.6031 -2.5873 0.0759 0 8
14.4792 30.7353 -2.5873 0.0759 0 8
14.2006 30.8650 -2.5873 0.0759 0 8
13.9209 30.9921 -2.5873 0.0759 0 8
13.6400 31.1168 -2.5873 0.0759 0 8
13.3580 31.2389 -2.5873 0.0759 0 8
13.0749 31.3584 -2.5873 0.0759 0 8
12.7908 31.4754 -2.5873 0.0759 0 8
12.5056 31.5898 -2.5873 0.0759 0 8
12.2194 31.7016 -2.5873 0.0759 0 8
11.9322 31.8108 -2.5873 0.0759 0 8
11.6440 31.9174 -2.5873 0.0759 0 8
11.3548 32.0214 -2.5873 0.0759 0 8
11.0647 32.1228 -2.5873 0.0759 0 8
10.8778 32.5328 -2.6123 0.4411 0 8
10.7786 33.2324 -2.6605 0.4331 0 8
10.6756 33.9583 -2.7108 0.4251 0 8
10.4597 34.3547 -2.7348 0.0829 0 8
10.1657 34.5060 -2.7394 0.0827 0 8
9.8543 34.6004 -2.7397 0.0759 0 7
9.5410 34.6881 -2.7397 0.0759 0 7
9.2269 34.7729 -2.7397 0.0759 0 7
8.9120 34.8550 -2.7397 0.0759 0 7
8.5964 34.9341 -2.7397 0.0759 0 7
8.2801 35.0105 -2.7397 0.0759 0 7
7.9631 35.0839 -2.7397 0.0759 0 7
7.6455 35.1545 -2.7397 0.0759 0 7
7.3272 35.2222 -2.7397 0.0759 0 7
7.0084 35.2870 -2.7397 0.0759 0 7
6.6890 35.3490 -2.7397 0.0759 0 7
6.3690 35.4080 -2.7397 0.0759 0 7
6.0485 35.4642 -2.7397 0.0759 0 7
5.7275 35.5174 -2.7397 0.0759 0 7
5.4060 35.5678 -2.7397 0.0759 0 7
5.0841 35.6152 -2.7397 0.0759 0 7
4.7618 35.6598 -2.7397 0.0759 0 7
4.4391 35.7014 -2.7397 0.0759 0 6
4.1160 35.7400 -2.7397 0.0759 0 7
3.7926 35.7758 -2.7397 0.0759 0 7
3.4689 35.8087 -2.7397 0.0759 0 7
3.1449 35.8386 -2.7397 0.0759 0 7
2.8206 35.8655 -2.7397 0.0759 0 7
2.4961 35.8896 -2.7397 0.0759 0 7
2.1714 35.9107 -2.7397 0.0759 0 7
1.8466 35.9288 -2.7397 0.0759 0 7
1.5216 35.9441 -2.7397 0.0759 0 7
1.1964 35.9564 -2.7397 0.0759 0 7
0.8712 35.9657 -2.7397 0.0759 0 7
0.5458 35.9721 -2.7397 0.0759 0 7
0.2205 35.9756 -2.7397 0.0759 0 7
-0.1049 35.9761 -2.7397 0.0759 0 7
-0.4303 35.9737 -2.7397 0.0759 0 7
-0.7556 35.9684 -2.7397 0.0759 0 7
-1.0809 35.9600 -2.7397 0.0759 0 7
-1.4061 35.9488 -2.7397 0.0759 0 7
-1.7312 35.9346 -2.7397 0.0759 0 7
-2.0561 35.9175 -2.7397 0.0759 0 7
-2.3808 35.8974 -2.7397 0.0759 0 7
-2.7054 35.8744 -2.7397 0.0759 0 7
-3.0297 35.8485 -2.7397 0.0759 0 7
-3.3539 35.8196 -2.7397 0.0759 0 7
-3.6776 35.7878 -2.7397 0.0759 0 7
-4.0012 35.7531 -2.7397 0.0759 0 7
-4.3244 35.7154 -2.7397 0.0759 0 7
-4.6472 35.6749 -2.7397 0.0759 0 7
-4.9697 35.6314 -2.7397 0.0759 0 7
-5.2917 35.5850 -2.7397 0.0759 0 7
-5.6134 35.5357 -2.7397 0.0759 0 7
-5.9345 35.4834 -2.7397 0.0759 0 7
-6.2552 35.4283 -2.7397 0.0759 0 7
-6.5754 35.3703 -2.7397 0.0759 0 7
-6.8950 35.3094 -2.7397 0.0759 0 7
-7.2141 35.2456 -2.7397 0.0759 0 7
-7.5325 35.1789 -2.7397 0.0759 0 7
-7.8504 35.1093 -2.7397 0.0759 0 7
-8.1628 35.0163 -2.7381 0.0776 0 8
-8.4626 34.8728 -2.7327 0.0778 0 8
-8.3105 32.9430 -2.5873 0.0759 0 8
-8.6081 32.8665 -2.5873 0.0759 0 8
-8.9050 32.7873 -2.5873 0.0759 0 8
-9.2012 32.7054 -2.5873 0.0759 0 8
-9.4966 32.6208 -2.5873 0.0759 0 8
-9.7912 32.5336 -2.5873 0.0759 0 8
-10.0851 32.4437 -2.5873 0.0759 0 8
-10.3781 32.3512 -2.5873 0.0759 0 8
-10.6702 32.2560 -2.5873 0.0759 0 8
-8.7029 25.5318 -2.0542 0.9780 0 5
-11.2519 32.0577 -2.5873 0.0759 0 8
-11.5414 31.9546 -2.5873 0.0759 0 8
-11.8300 31.8490 -2.5873 0.0759 0 8
-12.1175 31.7407 -2.5873 0.0759 0 8
-12.4041 31.6298 -2.5873 0.0759 0 8
-12.6897 31.5163 -2.5873 0.0759 0 8
-12.9742 31.4002 -2.5873 0.0759 0 8
-13.2576 31.2816 -2.5873 0.0759 0 8
-13.5400 31.1604 -2.5873 0.0759 0 8
-13.8213 31.0367 -2.5873 0.0759 0 8
-14.1014 30.9104 -2.5873 0.0759 0 8
-14.3804 30.7817 -2.5873 0.0759 0 8
-14.6582 30.6503 -2.5873 0.0759 0 8
-14.9348 30.5165 -2.5873 0.0759 0 8
-15.2102 30.3802 -2.5873 0.0759 0 8
-15.4843 30.2414 -2.5873 0.0759 0 8
-15.7572 30.1001 -2.5873 0.0759 0 8
-16.0288 29.9563 -2.5873 0.0759 0 8
-16.2991 29.8101 -2.5873 0.0759 0 8
-16.5680 29.6615 -2.5873 0.0759 0 8
-16.8356 29.5105 -2.5873 0.0759 0 8
-17.1018 29.3570 -2.5873 0.0759 0 8
-17.3666 29.2011 -2.5873 0.0759 0 8
-17.6300 29.0428 -2.5873 0.0759 0 8
-17.8919 28.8822 -2.5873 0.0759 0 8
-18.1524 28.7192 -2.5873 0.0759 0 8
-11.7695 18.2531 -1.6539 0.6615 0 19
-11.8935 18.0842 -1.6483 0.9779 0 19
-18.9249 28.2162 -2.5873 0.0759 0 8
-19.1793 28.0439 -2.5873 0.0759 0 8
-19.4322 27.8693 -2.5873 0.0759 0 8
-19.6834 27.6924 -2.5873 0.0759 0 8
-19.9331 27.5132 -2.5873 0.0759 0 8
-20.1811 27.3318 -2.5873 0.0759 0 8
-20.4275 27.1482 -2.5873 0.0759 0 8
-20.6722 26.9623 -2.5873 0.0759 0 8
-20.9152 26.7742 -2.5873 0.0759 0 8
-21.1565 26.5840 -2.5873 0.0759 0 8
-21.3960 26.3916 -2.5873 0.0759 0 8
-21.6339 26.1970 -2.5873 0.0759 0 8
-21.8699 26.0002 -2.5873 0.0759 0 8
-22.1042 25.8014 -2.5873 0.0759 0 8
-22.3366 25.6004 -2.5873 0.0759 0 8
-22.5672 25.3973 -2.5873 0.0759 0 8
-22.7960 25.1922 -2.5873 0.0759 0 8
-23.0229 24.9850 -2.5873 0.0759 0 8
-23.2479 24.7757 -2.5873 0.0759 0 8
-23.4711 24.5645 -2.5873 0.0759 0 8
-23.6923 24.3512 -2.5873 0.0759 0 8
-23.9115 24.1359 -2.5873 0.0759 0 8
-24.1288 23.9187 -2.5873 0.0759 0 8
-24.3442 23.6995 -2.5873 0.0759 0 8
-24.5575 23.4783 -2.5873 0.0759 0 8
-24.7689 23.2553 -2.5873 0.0759 0 8
-24.9782 23.0303 -2.5873 0.0759 0 8
-25.1855 22.8034 -2.5873 0.0759 0 8
-25.3907 22.5747 -2.5873 0.0759 0 8
-25.5938 22.3442 -2.5873 0.0759 0 8
-25.7948 22.1118 -2.5873 0.0759 0 8
-25.9938 21.8776 -2.5873 0.0759 0 8
-26.1906 21.6416 -2.5873 0.0759 0 8
-26.3852 21.4039 -2.5873 0.0759 0 8
-26.5777 21.1643 -2.5873 0.0759 0 8
-26.7680 20.9231 -2.5873 0.0759 0 8
-26.9562 20.6801 -2.5873 0.0759 0 8
-27.1421 20.4355 -2.5873 0.0759 0 8
-27.3258 20.1892 -2.5873 0.0759 0 8
-27.5073 19.9412 -2.5873 0.0759 0 8
-27.6865 19.6916 -2.5873 0.0759 0 8
-27.8635 19.4404 -2.5873 0.0759 0 8
-28.0382 19.1876 -2.5873 0.0759 0 8
-28.2106 18.9333 -2.5873 0.0759 0 8
-8.1508 5.3640 -0.7431 0.3777 0 5
-8.1919 5.2855 -0.7424 0.9199 0 5
-28.7139 18.1609 -2.5873 0.0759 0 8
-28.8769 17.9005 -2.5873 0.0759 0 8
-29.0376 17.6386 -2.5873 0.0759 0 8
-29.1960 17.3752 -2.5873 0.0759 0 8
-17.7077 10.3226 -1.5609 0.6526 0 19
-29.5055 16.8443 -2.5873 0.0759 0 8
-29.6566 16.5768 -2.5873 0.0759 0 8
-29.8053 16.3079 -2.5873 0.0759 0 8
-29.9516 16.0376 -2.5873 0.0759 0 8
-30.0954 15.7661 -2.5873 0.0759 0 8
-30.2368 15.4933 -2.5873 0.0759 0 8
-30.3757 15.2192 -2.5873 0.0759 0 8
-30.5121 14.9438 -2.5873 0.0759 0 8
-30.6460 14.6673 -2.5873 0.0759 0 8
-30.7774 14.3895 -2.5873 0.0759 0 8
-30.9063 14.1106 -2.5873 0.0759 0 8
-31.0326 13.8305 -2.5873 0.0759 0 8
-31.1564 13.5492 -2.5873 0.0759 0 8
-31.2777 13.2669 -2.5873 0.0759 0 8
-31.3964 12.9835 -2.5873 0.0759 0 8
-31.5125 12.6990 -2.5873 0.0759 0 8
-31.6261 12.4134 -2.5873 0.0759 0 8
-31.7371 12.1269 -2.5873 0.0759 0 8
-31.8455 11.8394 -2.5873 0.0759 0 8
-31.9513 11.5509 -2.5873 0.0759 0 8
-32.0544 11.2614 -2.5873 0.0759 0 8
-32.1549 10.9710 -2.5873 0.0759 0 8
-32.2528 10.6798 -2.5873 0.0759 0 8
-32.3481 10.3876 -2.5873 0.0759 0 8
-32.4408 10.0947 -2.5873 0.0759 0 8
-32.5307 9.8008 -2.5873 0.0759 0 8
-32.6180 9.5062 -2.5873 0.0759 0 8
-32.7027 9.2108 -2.5873 0.0759 0 8
-32.7846 8.9147 -2.5873 0.0759 0 8
-32.8639 8.6178 -2.5873 0.0759 0 8
-32.9405 8.3202 -2.5873 0.0759 0 8
-33.0145 8.0220 -2.5873 0.0759 0 8
-33.0856 7.7231 -2.5873 0.0759 0 8
-33.1541 7.4235 -2.5873 0.0759 0 8
-33.2199 7.1234 -2.5873 0.0759 0 8
-33.2830 6.8226 -2.5873 0.0759 0 8
-33.3433 6.5213 -2.5873 0.0759 0 8
-33.4010 6.2195 -2.5873 0.0759 0 8
-33.4558 5.9172 -2.5873 0.0759 0 8
-33.5080 5.6143 -2.5873 0.0759 0 8
-33.5574 5.3111 -2.5873 0.0759 0 8
-33.6040 5.0073 -2.5873 0.0759 0 8
-33.6479 4.7032 -2.5873 0.0759 0 8
-33.6891 4.3987 -2.5873 0.0759 0 8
-33.7275 4.0938 -2.5873 0.0759 0 8
-33.7631 3.7886 -2.5873 0.0759 0 8
-33.7960 3.4831 -2.5873 0.0759 0 8
-33.8261 3.1773 -2.5873 0.0759 0 8
-33.8535 2.8713 -2.5873 0.0759 0 8
-33.8781 2.5650 -2.5873 0.0759 0 8
-33.8999 2.2584 -2.5873 0.0759 0 8
-25.1173 1.4453 -1.9159 0.9837 0 5
-33.9352 1.6449 -2.5873 0.0759 0 8
-33.9487 1.3379 -2.5873 0.0759 0 8
-33.9594 1.0308 -2.5873 0.0759 0 8
-33.9673 0.7236 -2.5873 0.0759 0 8
-33.9725 0.4164 -2.5873 0.0759 0 8
-33.9749 0.1091 -2.5873 0.0759 0 8
-33.9745 -0.1981 -2.5873 0.0759 0 8
-28.0066 -0.4167 -2.1330 0.9524 0 10
-27.9231 -0.6681 -2.1270 0.9522 0 10
-27.8753 -0.9192 -2.1239 0.9619 0 10
-27.8449 -1.1704 -2.1223 0.9682 0 10
-27.8315 -1.4221 -2.1222 0.9693 0 10
-27.8521 -1.6759 -2.1249 0.9490 0 10
-27.9013 -1.9322 -2.1299 0.2507 0 10
-35.8664 -2.8100 -2.7397 0.0759 0 7
-35.8395 -3.1343 -2.7397 0.0759 0 7
-35.8097 -3.4583 -2.7397 0.0759 0 7
-35.7769 -3.7820 -2.7397 0.0759 0 7
-35.7413 -4.1054 -2.7397 0.0759 0 7
-35.7027 -4.4285 -2.7397 0.0759 0 7
-35.6612 -4.7512 -2.7397 0.0759 0 7
-35.6168 -5.0736 -2.7397 0.0759 0 7
-35.5694 -5.3955 -2.7397 0.0759 0 7
-35.5191 -5.7169 -2.7397 0.0759 0 7
-35.4660 -6.0379 -2.7397 0.0759 0 7
-35.4100 -6.3585 -2.7397 0.0759 0 7
-35.3510 -6.6785 -2.7397 0.0759 0 7
-35.2891 -6.9979 -2.7397 0.0759 0 7
-35.2244 -7.3168 -2.7397 0.0759 0 7
-35.1568 -7.6351 -2.7397 0.0759 0 7
-35.0863 -7.9527 -2.7397 0.0759 0 7
-35.0129 -8.2697 -2.7397 0.0759 0 7
-34.9367 -8.5861 -2.7397 0.0759 0 7
-34.8576 -8.9017 -2.7397 0.0759 0 7
-34.7757 -9.2166 -2.7397 0.0759 0 7
-34.6909 -9.5307 -2.7397 0.0759 0 7
-34.6033 -9.8441 -2.7397 0.0759 0 7
-34.5128 -10.1566 -2.7397 0.0759 0 7
-34.4196 -10.4684 -2.7397 0.0759 0 6
-34.3235 -10.7792 -2.7397 0.0759 0 7
-33.3015 -10.7901 -2.6658 0.1989 0 8
-32.3197 -10.7960 -2.5949 0.0759 0 8
-31.7757 -10.9347 -2.5591 0.9797 0 19
-30.3761 -10.7613 -2.4541 0.9813 0 19
-29.0099 -10.5735 -2.3514 0.5763 0 19
-31.9080 -11.9579 -2.5949 0.0759 0 14
-29.9631 -11.5391 -2.4451 0.2654 0 9
-26.1394 -10.3390 -2.1406 0.7930 0 19
-24.7864 -10.0640 -2.0372 0.6053 0 19
-29.0906 -12.1193 -2.3999 0.9536 0 9
-23.3210 -9.9641 -1.9313 0.6725 0 19
-31.2125 -13.6709 -2.5949 0.0759 0 14
-21.9448 -9.8493 -1.8318 0.7649 0 19
-28.6169 -13.1560 -2.3985 0.9933 0 19
-20.5421 -9.6698 -1.7290 0.7532 0 19
-32.4103 -15.6161 -2.7397 0.0759 0 7
-25.8775 -12.7581 -2.1971 0.6615 0 19
-32.1225 -16.1998 -2.7397 0.0759 0 7
-24.4425 -12.6053 -2.0943 0.9962 0 19
-31.8243 -16.7782 -2.7397 0.0759 0 7
-23.0543 -12.4223 -1.9943 0.6880 0 19
-19.8773 -10.9435 -1.7280 0.9973 0 5
-31.3574 -17.6354 -2.7397 0.0759 0 7
-31.1966 -17.9183 -2.7397 0.0759 0 7
-31.0333 -18.1997 -2.7397 0.0759 0 7
-20.2344 -12.1138 -1.7959 0.9969 0 19
-30.6990 -18.7580 -2.7397 0.0759 0 7
-30.5281 -19.0349 -2.7397 0.0759 0 7
-18.8457 -11.9888 -1.7009 0.0759 0 19
-30.1788 -19.5840 -2.7397 0.0759 0 7
-30.0004 -19.8561 -2.7397 0.0759 0 7
-29.8196 -20.1266 -2.7397 0.0759 0 7
-29.6364 -20.3955 -2.7397 0.0759 0 7
-29.4507 -20.6627 -2.7397 0.0759 0 7
-29.2626 -20.9282 -2.7397 0.0759 0 7
-29.0722 -21.1920 -2.7397 0.0759 0 7
-28.8793 -21.4541 -2.7397 0.0759 0 7
-28.6841 -21.7144 -2.7397 0.0759 0 7
-28.4865 -21.9730 -2.7397 0.0759 0 7
-28.2866 -22.2297 -2.7397 0.0759 0 7
-28.0844 -22.4846 -2.7397 0.0759 0 7
-27.8799 -22.7377 -2.7397 0.0759 0 7
-27.6732 -22.9890 -2.7397 0.0759 0 7
-27.4641 -23.2383 -2.7397 0.0759 0 7
-10.9085 -9.4007 -1.0966 0.3037 0 9
-10.7162 -9.4052 -1.0858 0.7439 0 9
-10.5952 -9.4700 -1.0822 0.9809 0 9
-10.5073 -9.5638 -1.0820 0.9462 0 9
-10.4784 -9.7122 -1.0880 0.6682 0 9
-10.5922 -9.9973 -1.1092 0.2564 0 9
-24.7580 -23.7944 -2.6150 0.6010 0 8
-24.2820 -23.7631 -2.5873 0.0759 0 8
-24.0661 -23.9818 -2.5873 0.0759 0 8
-23.8482 -24.1985 -2.5873 0.0759 0 8
-23.6284 -24.4132 -2.5873 0.0759 0 8
-23.4066 -24.6259 -2.5873 0.0759 0 8
-23.1829 -24.8366 -2.5873 0.0759 0 8
-22.9574 -25.0452 -2.5873 0.0759 0 8
-22.7299 -25.2518 -2.5873 0.0759 0 8
-22.5006 -25.4564 -2.5873 0.0759 0 8
-22.2694 -25.6588 -2.5873 0.0759 0 8
-22.0365 -25.8592 -2.5873 0.0759 0 8
-19.8184 -23.6869 -2.3519 0.6847 0 5
-19.6498 -23.9218 -2.3575 0.7236 0 5
-21.3268 -26.4475 -2.5873 0.0759 0 8
-21.0868 -26.6393 -2.5873 0.0759 0 8
-20.8449 -26.8289 -2.5873 0.0759 0 8
-20.6014 -27.0164 -2.5873 0.0759 0 8
-20.3563 -27.2016 -2.5873 0.0759 0 8
-20.1094 -27.3846 -2.5873 0.0759 0 8
-19.8609 -27.5653 -2.5873 0.0759 0 8
-19.6108 -27.7438 -2.5873 0.0759 0 8
-19.2102 -27.7053 -2.5674 0.7450 0 19
-18.9010 -27.7929 -2.5596 0.6559 0 19
-18.8509 -28.2656 -2.5873 0.0759 0 8
-18.5945 -28.4350 -2.5873 0.0759 0 8
-18.3366 -28.6020 -2.5873 0.0759 0 8
-18.0771 -28.7667 -2.5873 0.0759 0 8
-17.8162 -28.9290 -2.5873 0.0759 0 8
-17.5539 -29.0889 -2.5873 0.0759 0 8
-17.2900 -29.2465 -2.5873 0.0759 0 8
-17.0248 -29.4017 -2.5873 0.0759 0 8
-16.7582 -29.5545 -2.5873 0.0759 0 8
-16.4902 -29.7048 -2.5873 0.0759 0 8
-16.2209 -29.8527 -2.5873 0.0759 0 8
-15.9503 -29.9982 -2.5873 0.0759 0 8
-15.6783 -30.1412 -2.5873 0.0759 0 8
-15.4051 -30.2819 -2.5873 0.0759 0 8
-15.1305 -30.4199 -2.5873 0.0759 0 8
-14.8548 -30.5555 -2.5873 0.0759 0 8
-14.5779 -30.6886 -2.5873 0.0759 0 8
-14.2997 -30.8192 -2.5873 0.0759 0 8
-14.0204 -30.9472 -2.5873 0.0759 0 8
-13.7399 -31.0728 -2.5873 0.0759 0 8
-13.4583 -31.1958 -2.5873 0.0759 0 8
-13.1756 -31.3162 -2.5873 0.0759 0 8
-12.8919 -31.4341 -2.5873 0.0759 0 8
-12.6070 -31.5494 -2.5873 0.0759 0 8
-12.3212 -31.6622 -2.5873 0.0759 0 8
-9.9219 -26.1951 -2.1331 0.8837 0 20
-9.6399 -26.1626 -2.1233 0.8878 0 20
-9.3604 -26.1303 -2.1137 0.8918 0 20
-11.1679 -32.0871 -2.5873 0.0759 0 8
-10.8772 -32.1868 -2.5873 0.0759 0 8
-10.5857 -32.2838 -2.5873 0.0759 0 8
-10.2933 -32.3783 -2.5873 0.0759 0 8
-10.0000 -32.4700 -2.5873 0.0759 0 8
-9.7060 -32.5592 -2.5873 0.0759 0 8
-9.4111 -32.6456 -2.5873 0.0759 0 8
-9.1154 -32.7294 -2.5873 0.0759 0 8
-8.8190 -32.8105 -2.5873 0.0759 0 8
-8.5220 -32.8889 -2.5873 0.0759 0 8
-7.8167 -31.3315 -2.4591 0.9971 0 20
-7.9257 -33.0377 -2.5873 0.0759 0 8
-7.5294 -32.6863 -2.5544 0.8087 0 20
-6.9043 -31.2627 -2.4381 0.8756 0 20
-6.8994 -32.6394 -2.5405 0.2064 0 20
-6.7256 -33.3027 -2.5873 0.0759 0 8
-6.4241 -33.3622 -2.5873 0.0759 0 8
-6.1221 -33.4189 -2.5873 0.0759 0 8
-5.8196 -33.4729 -2.5873 0.0759 0 8
-5.5166 -33.5242 -2.5873 0.0759 0 8
-5.2132 -33.5727 -2.5873 0.0759 0 8
-4.3829 -30.0136 -2.3099 0.9615 0 9
-4.1032 -29.9932 -2.3053 0.9638 0 9
-3.8228 -29.9585 -2.2999 0.9661 0 9
-3.5436 -29.9239 -2.2947 0.9683 0 9
-3.2657 -29.8895 -2.2897 0.9704 0 9
-3.0865 -30.8293 -2.3595 0.2205 0 9
-3.0787 -33.8353 -2.5873 0.0759 0 8
-2.7725 -33.8617 -2.5873 0.0759 0 8
-2.4662 -33.8854 -2.5873 0.0759 0 8
-2.1596 -33.9063 -2.5873 0.0759 0 8
-1.8528 -33.9245 -2.5873 0.0759 0 8
-1.5459 -33.9399 -2.5873 0.0759 0 8
-1.2389 -33.9524 -2.5873 0.0759 0 8
-0.9318 -33.9623 -2.5873 0.0759 0 8
-0.6246 -33.9693 -2.5873 0.0759 0 8
-0.3174 -33.9736 -2.5873 0.0759 0 8
-0.0107 -35.8830 -2.7326 0.0779 0 8
0.3145 -35.9517 -2.7379 0.0778 0 8
0.6401 -35.9706 -2.7397 0.0759 0 7
0.9654 -35.9633 -2.7397 0.0759 0 7
1.2906 -35.9531 -2.7397 0.0759 0 7
1.6157 -35.9400 -2.7397 0.0759 0 7
1.9407 -35.9239 -2.7397 0.0759 0 7
2.2655 -35.9049 -2.7397 0.0759 0 7
2.5901 -35.8829 -2.7397 0.0759 0 7
2.9146 -35.8580 -2.7397 0.0759 0 7
3.2388 -35.8302 -2.7397 0.0759 0 7
3.5627 -35.7994 -2.7397 0.0759 0 7
3.8863 -35.7658 -2.7397 0.0759 0 7
4.2096 -35.7291 -2.7397 0.0759 0 7
4.5326 -35.6896 -2.7397 0.0759 0 7
4.8552 -35.6472 -2.7397 0.0759 0 7
5.1774 -35.6018 -2.7397 0.0759 0 7
5.4992 -35.5535 -2.7397 0.0759 0 7
5.8205 -35.5023 -2.7397 0.0759 0 7
6.1413 -35.4482 -2.7397 0.0759 0 7
6.4617 -35.3912 -2.7397 0.0759 0 7
6.7815 -35.3313 -2.7397 0.0759 0 7
7.1008 -35.2686 -2.7397 0.0759 0 7
7.4195 -35.2029 -2.7397 0.0759 0 7
7.7375 -35.1344 -2.7397 0.0759 0 7
8.0550 -35.0629 -2.7397 0.0759 0 7
8.3718 -34.9887 -2.7397 0.0759 0 7
8.6879 -34.9115 -2.7397 0.0759 0 7
9.0033 -34.8315 -2.7397 0.0759 0 7
9.3179 -34.7487 -2.7397 0.0759 0 7
9.6318 -34.6630 -2.7397 0.0759 0 7
9.9449 -34.5744 -2.7397 0.0759 0 7
10.2572 -34.4831 -2.7397 0.0759 0 7
