ply
format ascii 1.0
element vertex 1383
property float32 x
property float32 y
property float32 z
property float32 CosAngle
property uint32 ObjIdx
property uint32 ObjTag
end_header
9.4776 2.3637 -2.7949 0.2751 0 7
9.4558 2.4493 -2.7949 0.2751 0 7
9.4332 2.5348 -2.7949 0.2751 0 7
9.4099 2.6201 -2.7949 0.2751 0 7
9.3858 2.7052 -2.7949 0.2751 0 7
9.3609 2.7900 -2.7949 0.2751 0 7
9.3353 2.8747 -2.7949 0.2751 0 7
9.3089 2.9591 -2.7949 0.2751 0 7
9.2817 3.0432 -2.7949 0.2751 0 7
9.2538 3.1271 -2.7949 0.2751 0 7
9.2251 3.2107 -2.7949 0.2751 0 7
9.1957 3.2941 -2.7949 0.2751 0 7
9.1655 3.3772 -2.7949 0.2751 0 7
9.1345 3.4600 -2.7949 0.2751 0 7
9.1028 3.5426 -2.7949 0.2751 0 7
9.0704 3.6248 -2.7949 0.2751 0 7
9.0372 3.7068 -2.7949 0.2751 0 7
9.0033 3.7884 -2.7949 0.2751 0 7
8.9686 3.8698 -2.7949 0.2751 0 7
8.9332 3.9508 -2.7949 0.2751 0 7
8.8971 4.0315 -2.7949 0.2751 0 7
8.8602 4.1119 -2.7949 0.2751 0 7
8.8226 4.1919 -2.7949 0.2751 0 7
8.7843 4.2716 -2.7949 0.2751 0 7
8.7453 4.3509 -2.7949 0.2751 0 7
8.7056 4.4299 -2.7949 0.2751 0 7
8.6651 4.5085 -2.7949 0.2751 0 7
8.6239 4.5868 -2.7949 0.2751 0 7
8.5821 4.6647 -2.7949 0.2751 0 7
8.5395 4.7422 -2.7949 0.2751 0 7
8.4962 4.8193 -2.7949 0.2751 0 7
8.4522 4.8960 -2.7949 0.2751 0 7
8.4076 4.9723 -2.7949 0.2751 0 7
8.3622 5.0482 -2.7949 0.2751 0 7
8.3162 5.1237 -2.7949 0.2751 0 7
8.2695 5.1988 -2.7949 0.2751 0 7
8.2221 5.2734 -2.7949 0.2751 0 7
8.1740 5.3476 -2.7949 0.2751 0 7
8.1253 5.4214 -2.7949 0.2751 0 7
8.0758 5.4947 -2.7949 0.2751 0 7
8.0258 5.5676 -2.7949 0.2751 0 7
7.9750 5.6400 -2.7949 0.2751 0 7
7.9237 5.7120 -2.7949 0.2751 0 7
7.8716 5.7835 -2.7949 0.2751 0 7
7.8190 5.8545 -2.7949 0.2751 0 7
7.7656 5.9250 -2.7949 0.2751 0 7
7.7117 5.9951 -2.7949 0.2751 0 7
7.6571 6.0646 -2.7949 0.2751 0 7
7.6019 6.1337 -2.7949 0.2751 0 7
7.5457 6.2019 -2.7948 0.2736 0 8
7.4852 6.2666 -2.7933 0.2738 0 8
7.4242 6.3307 -2.7918 0.2739 0 8
7.3626 6.3942 -2.7903 0.2741 0 8
7.3005 6.4571 -2.7888 0.2742 0 8
7.0977 6.3932 -2.7333 0.0091 0 8
6.8057 6.2427 -2.6425 0.2751 0 8
6.7490 6.3041 -2.6425 0.2751 0 8
6.6916 6.3649 -2.6425 0.2751 0 8
6.6337 6.4252 -2.6425 0.2751 0 8
6.5753 6.4850 -2.6425 0.2751 0 8
6.5163 6.5443 -2.6425 0.2751 0 8
6.4568 6.6030 -2.6425 0.2751 0 8
6.3968 6.6612 -2.6425 0.2751 0 8
6.3362 6.7188 -2.6425 0.2751 0 8
6.2751 6.7759 -2.6425 0.2751 0 8
6.2136 6.8324 -2.6425 0.2751 0 8
6.1514 6.8884 -2.6425 0.2751 0 8
6.0888 6.9438 -2.6425 0.2751 0 8
6.0257 6.9986 -2.6425 0.2751 0 8
5.9621 7.0528 -2.6425 0.2751 0 8
5.8981 7.1065 -2.6425 0.2751 0 8
5.8335 7.1596 -2.6425 0.2751 0 8
5.7684 7.2121 -2.6425 0.2751 0 8
5.7029 7.2641 -2.6425 0.2751 0 8
5.6369 7.3154 -2.6425 0.2751 0 8
5.5705 7.3661 -2.6425 0.2751 0 8
5.5036 7.4162 -2.6425 0.2751 0 8
5.4362 7.4657 -2.6425 0.2751 0 8
5.3684 7.5147 -2.6425 0.2751 0 8
5.3002 7.5629 -2.6425 0.2751 0 8
5.2315 7.6106 -2.6425 0.2751 0 8
5.1624 7.6577 -2.6425 0.2751 0 8
5.0929 7.7041 -2.6425 0.2751 0 8
5.0229 7.7498 -2.6425 0.2751 0 8
4.9525 7.7950 -2.6425 0.2751 0 8
4.8818 7.8395 -2.6425 0.2751 0 8
4.8106 7.8834 -2.6425 0.2751 0 8
4.7391 7.9266 -2.6425 0.2751 0 8
4.6671 7.9692 -2.6425 0.2751 0 8
4.5948 8.0111 -2.6425 0.2751 0 8
4.5221 8.0524 -2.6425 0.2751 0 8
4.4490 8.0930 -2.6425 0.2751 0 8
4.3756 8.1329 -2.6425 0.2751 0 8
4.3018 8.1722 -2.6425 0.2751 0 8
4.2276 8.2108 -2.6425 0.2751 0 8
4.1531 8.2487 -2.6425 0.2751 0 8
4.0783 8.2860 -2.6425 0.2751 0 8
4.0031 8.3225 -2.6425 0.2751 0 8
3.9276 8.3584 -2.6425 0.2751 0 8
3.8518 8.3937 -2.6425 0.2751 0 8
3.7757 8.4282 -2.6425 0.2751 0 8
3.6992 8.4620 -2.6425 0.2751 0 8
3.6225 8.4952 -2.6425 0.2751 0 8
3.5454 8.5276 -2.6425 0.2751 0 8
3.4681 8.5593 -2.6425 0.2751 0 8
3.3904 8.5904 -2.6425 0.2751 0 8
3.3126 8.6207 -2.6425 0.2751 0 8
3.2344 8.6504 -2.6425 0.2751 0 8
3.1559 8.6793 -2.6425 0.2751 0 8
3.0772 8.7075 -2.6425 0.2751 0 8
2.9983 8.7350 -2.6425 0.2751 0 8
2.9191 8.7618 -2.6425 0.2751 0 8
2.8397 8.7878 -2.6425 0.2751 0 8
2.7600 8.8132 -2.6425 0.2751 0 8
2.6801 8.8378 -2.6425 0.2751 0 8
2.6000 8.8617 -2.6425 0.2751 0 8
2.5197 8.8849 -2.6425 0.2751 0 8
2.4392 8.9073 -2.6425 0.2751 0 8
2.3584 8.9290 -2.6425 0.2751 0 8
2.2775 8.9500 -2.6425 0.2751 0 8
2.1964 8.9703 -2.6425 0.2751 0 8
2.1151 8.9898 -2.6425 0.2751 0 8
2.0337 9.0085 -2.6425 0.2751 0 8
1.9520 9.0266 -2.6425 0.2751 0 8
1.8702 9.0439 -2.6425 0.2751 0 8
1.7883 9.0604 -2.6425 0.2751 0 8
1.7062 9.0763 -2.6425 0.2751 0 8
1.6240 9.0913 -2.6425 0.2751 0 8
1.5416 9.1057 -2.6425 0.2751 0 8
1.4591 9.1193 -2.6425 0.2751 0 8
1.3765 9.1321 -2.6425 0.2751 0 8
1.2938 9.1442 -2.6425 0.2751 0 8
1.2110 9.1555 -2.6425 0.2751 0 8
1.1280 9.1661 -2.6425 0.2751 0 8
1.0450 9.1759 -2.6425 0.2751 0 8
0.9619 9.1850 -2.6425 0.2751 0 8
0.8787 9.1933 -2.6425 0.2751 0 8
0.7955 9.2009 -2.6425 0.2751 0 8
0.7122 9.2078 -2.6425 0.2751 0 8
0.6288 9.2138 -2.6425 0.2751 0 8
0.5454 9.2191 -2.6425 0.2751 0 8
0.4619 9.2237 -2.6425 0.2751 0 8
0.3784 9.2275 -2.6425 0.2751 0 8
0.2948 9.2305 -2.6425 0.2751 0 8
0.2113 9.2328 -2.6425 0.2751 0 8
0.1277 9.2344 -2.6425 0.2751 0 8
0.0441 9.2351 -2.6425 0.2751 0 8
-0.0395 9.2352 -2.6425 0.2751 0 8
-0.1231 9.2344 -2.6425 0.2751 0 8
-0.2067 9.2329 -2.6425 0.2751 0 8
-0.2903 9.2307 -2.6425 0.2751 0 8
-0.3738 9.2277 -2.6425 0.2751 0 8
-0.4573 9.2239 -2.6425 0.2751 0 8
-0.5408 9.2194 -2.6425 0.2751 0 8
-0.6242 9.2141 -2.6425 0.2751 0 8
-0.7076 9.2081 -2.6425 0.2751 0 8
-0.7909 9.2013 -2.6425 0.2751 0 8
-0.8742 9.1938 -2.6425 0.2751 0 8
-0.9574 9.1855 -2.6425 0.2751 0 8
-1.0405 9.1764 -2.6425 0.2751 0 8
-1.1235 9.1666 -2.6425 0.2751 0 8
-1.2064 9.1561 -2.6425 0.2751 0 8
-1.2893 9.1448 -2.6425 0.2751 0 8
-1.3720 9.1328 -2.6425 0.2751 0 8
-1.4546 9.1200 -2.6425 0.2751 0 8
-1.5371 9.1064 -2.6425 0.2751 0 8
-1.6195 9.0922 -2.6425 0.2751 0 8
-1.7017 9.0771 -2.6425 0.2751 0 8
-1.7838 9.0613 -2.6425 0.2751 0 8
-1.8657 9.0448 -2.6425 0.2751 0 8
-1.9476 9.0276 -2.6425 0.2751 0 8
-2.0292 9.0096 -2.6425 0.2751 0 8
-2.1107 8.9908 -2.6425 0.2751 0 8
-2.1920 8.9714 -2.6425 0.2751 0 8
-2.2731 8.9511 -2.6425 0.2751 0 8
-2.3540 8.9302 -2.6425 0.2751 0 8
-2.4348 8.9085 -2.6425 0.2751 0 8
-2.5153 8.8861 -2.6425 0.2751 0 8
-2.5956 8.8630 -2.6425 0.2751 0 8
-2.6757 8.8391 -2.6425 0.2751 0 8
-2.7557 8.8145 -2.6425 0.2751 0 8
-2.8353 8.7892 -2.6425 0.2751 0 8
-2.9148 8.7632 -2.6425 0.2751 0 8
-2.9940 8.7365 -2.6425 0.2751 0 8
-3.0729 8.7090 -2.6425 0.2751 0 8
-3.1516 8.6808 -2.6425 0.2751 0 8
-3.2301 8.6520 -2.6425 0.2751 0 8
-3.3083 8.6224 -2.6425 0.2751 0 8
-3.3862 8.5921 -2.6425 0.2751 0 8
-3.4638 8.5611 -2.6425 0.2751 0 8
-3.5412 8.5294 -2.6425 0.2751 0 8
-3.6182 8.4970 -2.6425 0.2751 0 8
-3.6950 8.4638 -2.6425 0.2751 0 8
-3.7715 8.4300 -2.6425 0.2751 0 8
-3.8476 8.3956 -2.6425 0.2751 0 8
-3.9235 8.3604 -2.6425 0.2751 0 8
-3.9990 8.3245 -2.6425 0.2751 0 8
-4.0742 8.2880 -2.6425 0.2751 0 8
-4.1490 8.2508 -2.6425 0.2751 0 8
-4.2236 8.2129 -2.6425 0.2751 0 8
-4.2977 8.1743 -2.6425 0.2751 0 8
-4.3715 8.1351 -2.6425 0.2751 0 8
-4.4450 8.0952 -2.6425 0.2751 0 8
-4.5181 8.0546 -2.6425 0.2751 0 8
-4.5908 8.0134 -2.6425 0.2751 0 8
-4.6632 7.9715 -2.6425 0.2751 0 8
-4.7351 7.9290 -2.6425 0.2751 0 8
-4.8067 7.8858 -2.6425 0.2751 0 8
-4.8779 7.8419 -2.6425 0.2751 0 8
-4.9487 7.7975 -2.6425 0.2751 0 8
-5.0191 7.7523 -2.6425 0.2751 0 8
-5.0890 7.7066 -2.6425 0.2751 0 8
-5.1586 7.6602 -2.6425 0.2751 0 8
-5.2277 7.6132 -2.6425 0.2751 0 8
-5.2964 7.5656 -2.6425 0.2751 0 8
-5.3647 7.5173 -2.6425 0.2751 0 8
-5.4325 7.4684 -2.6425 0.2751 0 8
-5.4999 7.4190 -2.6425 0.2751 0 8
-5.5668 7.3689 -2.6425 0.2751 0 8
-5.6333 7.3182 -2.6425 0.2751 0 8
-5.6993 7.2669 -2.6425 0.2751 0 8
-5.7649 7.2150 -2.6425 0.2751 0 8
-5.8299 7.1625 -2.6425 0.2751 0 8
-5.8945 7.1095 -2.6425 0.2751 0 8
-5.9586 7.0558 -2.6425 0.2751 0 8
-6.0223 7.0016 -2.6425 0.2751 0 8
-3.8190 4.3596 -1.6584 0.8392 0 5
-3.8605 4.3273 -1.6593 0.9247 0 5
-6.2102 6.8355 -2.6425 0.2751 0 8
-6.2718 6.7790 -2.6425 0.2751 0 8
-6.3329 6.7219 -2.6425 0.2751 0 8
-6.3935 6.6643 -2.6425 0.2751 0 8
-6.4535 6.6062 -2.6425 0.2751 0 8
-6.5131 6.5475 -2.6425 0.2751 0 8
-6.5721 6.4883 -2.6425 0.2751 0 8
-6.6305 6.4285 -2.6425 0.2751 0 8
-6.6885 6.3682 -2.6425 0.2751 0 8
-6.7458 6.3074 -2.6425 0.2751 0 8
-6.8026 6.2461 -2.6425 0.2751 0 8
-6.8589 6.1843 -2.6425 0.2751 0 8
-6.9146 6.1219 -2.6425 0.2751 0 8
-6.9697 6.0591 -2.6425 0.2751 0 8
-7.0243 5.9958 -2.6425 0.2751 0 8
-7.0783 5.9319 -2.6425 0.2751 0 8
-7.1317 5.8676 -2.6425 0.2751 0 8
-7.1845 5.8028 -2.6425 0.2751 0 8
-7.2367 5.7375 -2.6425 0.2751 0 8
-7.2884 5.6718 -2.6425 0.2751 0 8
-7.3394 5.6056 -2.6425 0.2751 0 8
-7.3899 5.5389 -2.6425 0.2751 0 8
-7.4397 5.4718 -2.6425 0.2751 0 8
-7.4889 5.4042 -2.6425 0.2751 0 8
-7.5375 5.3362 -2.6425 0.2751 0 8
-7.5855 5.2678 -2.6425 0.2751 0 8
-7.6329 5.1989 -2.6425 0.2751 0 8
-7.6797 5.1296 -2.6425 0.2751 0 8
-7.7258 5.0599 -2.6425 0.2751 0 8
-7.7713 4.9897 -2.6425 0.2751 0 8
-7.8161 4.9192 -2.6425 0.2751 0 8
-7.8603 4.8482 -2.6425 0.2751 0 8
-7.9039 4.7769 -2.6425 0.2751 0 8
-7.9468 4.7051 -2.6425 0.2751 0 8
-7.9891 4.6330 -2.6425 0.2751 0 8
-8.0307 4.5605 -2.6425 0.2751 0 8
-8.0716 4.4876 -2.6425 0.2751 0 8
-8.1119 4.4144 -2.6425 0.2751 0 8
-8.1515 4.3407 -2.6425 0.2751 0 8
-8.1905 4.2668 -2.6425 0.2751 0 8
-8.2288 4.1925 -2.6425 0.2751 0 8
-8.2664 4.1178 -2.6425 0.2751 0 8
-8.3033 4.0428 -2.6425 0.2751 0 8
-8.3396 3.9675 -2.6425 0.2751 0 8
-8.3752 3.8918 -2.6425 0.2751 0 8
-8.4101 3.8159 -2.6425 0.2751 0 8
-8.4862 3.7581 -2.6557 0.4812 0 8
-8.6572 3.7405 -2.6985 0.4736 0 8
-1.3235 0.5577 -0.4110 0.0125 432 10
-1.3102 0.5381 -0.4053 0.2347 432 10
-1.3095 0.5241 -0.4036 0.2356 432 10
-1.3087 0.5100 -0.4019 0.2366 432 10
-1.3077 0.4961 -0.4002 0.2376 432 10
-1.3067 0.4822 -0.3985 0.2386 432 10
-1.3055 0.4684 -0.3969 0.2396 432 10
-1.3043 0.4547 -0.3952 0.2406 432 10
-1.3029 0.4410 -0.3936 0.2416 432 10
-1.3014 0.4274 -0.3919 0.2426 432 10
-1.2998 0.4139 -0.3903 0.2436 432 10
-1.2981 0.4004 -0.3887 0.2447 432 10
-1.2963 0.3871 -0.3871 0.2457 432 10
-1.2944 0.3738 -0.3855 0.2467 432 10
-1.2924 0.3606 -0.3839 0.2477 432 10
-1.2903 0.3474 -0.3824 0.2487 432 10
-1.2881 0.3343 -0.3808 0.2497 432 10
-1.2858 0.3214 -0.3792 0.2508 432 10
-1.2834 0.3084 -0.3777 0.2518 432 10
-1.2816 0.2958 -0.3764 0.2760 432 10
-1.2833 0.2839 -0.3761 0.2762 432 10
-1.2849 0.2721 -0.3758 0.2764 432 10
-1.2864 0.2603 -0.3755 0.2766 432 10
-1.2877 0.2484 -0.3753 0.2768 432 10
-1.2890 0.2366 -0.3750 0.2770 432 10
-1.2902 0.2248 -0.3747 0.2772 432 10
-1.2912 0.2129 -0.3744 0.2774 432 10
-1.2922 0.2011 -0.3742 0.2776 432 10
-1.2930 0.1892 -0.3739 0.2778 432 10
-1.2937 0.1774 -0.3736 0.2780 432 10
-1.2944 0.1656 -0.3734 0.2782 432 10
-1.2949 0.1537 -0.3731 0.2771 432 10
-1.2955 0.1419 -0.3729 0.2773 432 10
-1.2960 0.1301 -0.3727 0.2775 432 10
-1.2963 0.1183 -0.3725 0.2776 432 10
-1.2966 0.1065 -0.3722 0.2778 432 10
-1.2967 0.0947 -0.3720 0.2780 432 10
-1.2967 0.0829 -0.3718 0.2781 432 10
-1.2967 0.0711 -0.3716 0.2783 432 10
-1.2965 0.0594 -0.3714 0.2785 432 10
-1.2962 0.0476 -0.3711 0.2786 432 10
-1.2958 0.0358 -0.3709 0.2788 432 10
-1.2954 0.0241 -0.3707 0.2789 432 10
-1.2948 0.0124 -0.3705 0.2791 432 10
-1.2941 0.0006 -0.3703 0.2793 432 10
-1.2947 -0.0111 -0.3705 0.2791 432 10
-1.2953 -0.0228 -0.3707 0.2790 432 10
-1.2958 -0.0346 -0.3709 0.2788 432 10
-1.2962 -0.0463 -0.3711 0.2786 432 10
-1.2965 -0.0581 -0.3713 0.2785 432 10
-1.2967 -0.0698 -0.3716 0.2783 432 10
-1.2967 -0.0816 -0.3718 0.2782 432 10
-1.2967 -0.0934 -0.3720 0.2780 432 10
-1.2966 -0.1052 -0.3722 0.2778 432 10
-1.2963 -0.1170 -0.3724 0.2777 432 10
-1.2960 -0.1288 -0.3727 0.2775 432 10
-1.2955 -0.1406 -0.3729 0.2773 432 10
-1.2950 -0.1524 -0.3731 0.2772 432 10
-1.2944 -0.1643 -0.3733 0.2782 432 10
-1.2938 -0.1761 -0.3736 0.2780 432 10
-1.2931 -0.1879 -0.3739 0.2778 432 10
-1.2923 -0.1998 -0.3742 0.2776 432 10
-1.2913 -0.2116 -0.3744 0.2774 432 10
-1.2903 -0.2235 -0.3747 0.2772 432 10
-1.2891 -0.2353 -0.3750 0.2770 432 10
-1.2879 -0.2471 -0.3752 0.2768 432 10
-1.2865 -0.2590 -0.3755 0.2766 432 10
-1.2851 -0.2708 -0.3758 0.2764 432 10
-1.2835 -0.2826 -0.3760 0.2762 432 10
-1.2818 -0.2945 -0.3763 0.2760 432 10
-1.2832 -0.3070 -0.3775 0.2519 432 10
-1.2856 -0.3199 -0.3791 0.2509 432 10
-1.2879 -0.3329 -0.3806 0.2498 432 10
-1.2901 -0.3460 -0.3822 0.2488 432 10
-1.2922 -0.3591 -0.3838 0.2478 432 10
-1.2942 -0.3723 -0.3853 0.2468 432 10
-1.2961 -0.3856 -0.3869 0.2458 432 10
-1.2979 -0.3990 -0.3885 0.2448 432 10
-1.2997 -0.4124 -0.3901 0.2437 432 10
-1.3012 -0.4259 -0.3918 0.2427 432 10
-1.3027 -0.4395 -0.3934 0.2417 432 10
-1.3041 -0.4532 -0.3950 0.2407 432 10
-1.3054 -0.4669 -0.3967 0.2397 432 10
-1.3066 -0.4807 -0.3984 0.2387 432 10
-1.3076 -0.4946 -0.4000 0.2377 432 10
-1.3086 -0.5085 -0.4017 0.2367 432 10
-1.3094 -0.5225 -0.4034 0.2357 432 10
-1.3101 -0.5366 -0.4051 0.2348 432 10
-1.3107 -0.5507 -0.4068 0.2338 432 10
-8.9705 -3.8653 -2.7949 0.2751 0 7
-8.9352 -3.9464 -2.7949 0.2751 0 7
-8.8991 -4.0271 -2.7949 0.2751 0 7
-8.8623 -4.1075 -2.7949 0.2751 0 7
-8.8247 -4.1875 -2.7949 0.2751 0 7
-8.7864 -4.2672 -2.7949 0.2751 0 7
-8.7475 -4.3466 -2.7949 0.2751 0 7
-8.7078 -4.4256 -2.7949 0.2751 0 7
-8.6673 -4.5042 -2.7949 0.2751 0 7
-8.6262 -4.5825 -2.7949 0.2751 0 7
-8.5844 -4.6604 -2.7949 0.2751 0 7
-8.5418 -4.7379 -2.7949 0.2751 0 7
-8.4986 -4.8151 -2.7949 0.2751 0 7
-8.4547 -4.8918 -2.7949 0.2751 0 7
-8.4100 -4.9681 -2.7949 0.2751 0 7
-8.3647 -5.0440 -2.7949 0.2751 0 7
-8.3187 -5.1196 -2.7949 0.2751 0 7
-8.2720 -5.1946 -2.7949 0.2751 0 7
-8.2247 -5.2693 -2.7949 0.2751 0 7
-8.1767 -5.3436 -2.7949 0.2751 0 7
-8.1279 -5.4173 -2.7949 0.2751 0 7
-8.0786 -5.4907 -2.7949 0.2751 0 7
-8.0285 -5.5636 -2.7949 0.2751 0 7
-7.9778 -5.6361 -2.7949 0.2751 0 7
-7.9265 -5.7080 -2.7949 0.2751 0 7
-7.8745 -5.7796 -2.7949 0.2751 0 7
-7.8219 -5.8506 -2.7949 0.2751 0 7
-7.7686 -5.9212 -2.7949 0.2751 0 7
-7.7147 -5.9912 -2.7949 0.2751 0 7
-7.6601 -6.0608 -2.7949 0.2751 0 7
-7.6050 -6.1299 -2.7949 0.2751 0 6
-7.5491 -6.1985 -2.7949 0.2751 0 6
-7.4927 -6.2666 -2.7949 0.2751 0 7
-7.4357 -6.3342 -2.7949 0.2751 0 7
-7.3781 -6.4012 -2.7949 0.2751 0 7
-7.3198 -6.4677 -2.7949 0.2751 0 7
-7.2610 -6.5337 -2.7949 0.2751 0 7
-7.2015 -6.5992 -2.7949 0.2751 0 7
-7.1334 -6.6565 -2.7918 0.6549 0 8
-7.0028 -6.6542 -2.7641 0.6615 0 8
-6.8747 -6.6520 -2.7372 0.6680 0 8
-6.7490 -6.6497 -2.7110 0.6744 0 8
-6.6256 -6.6474 -2.6855 0.6808 0 8
-6.5045 -6.6452 -2.6607 0.6872 0 8
-6.4185 -6.6772 -2.6502 0.2751 0 8
-6.3578 -6.7350 -2.6502 0.2751 0 8
-6.2966 -6.7923 -2.6502 0.2751 0 14
-6.2349 -6.8490 -2.6502 0.2751 0 14
-6.1726 -6.9052 -2.6502 0.2751 0 14
-6.1099 -6.9607 -2.6502 0.2751 0 14
-6.0466 -7.0158 -2.6502 0.2751 0 14
-5.9828 -7.0702 -2.6502 0.2751 0 14
-5.9186 -7.1241 -2.6502 0.2751 0 14
-5.8539 -7.1774 -2.6502 0.2751 0 14
-5.7887 -7.2301 -2.6502 0.2751 0 14
-5.6113 -7.1400 -2.5984 0.4270 0 19
-5.4885 -7.1154 -2.5713 0.9117 0 19
-5.4254 -7.1669 -2.5720 0.8565 0 19
-5.5231 -7.4349 -2.6502 0.2751 0 14
-5.4556 -7.4846 -2.6502 0.2751 0 14
-5.3876 -7.5336 -2.6502 0.2751 0 14
-5.3192 -7.5821 -2.6502 0.2751 0 14
-5.2504 -7.6299 -2.6502 0.2751 0 14
-5.1811 -7.6772 -2.6502 0.2751 0 14
-5.1114 -7.7237 -2.6502 0.2751 0 14
-5.0412 -7.7697 -2.6502 0.2751 0 14
-4.9707 -7.8150 -2.6502 0.2751 0 14
-4.8998 -7.8597 -2.6502 0.2751 0 14
-4.8284 -7.9037 -2.6502 0.2751 0 14
-4.7567 -7.9471 -2.6502 0.2751 0 14
-4.1188 -7.0248 -2.3301 0.9430 0 19
-4.0479 -7.0494 -2.3260 0.9446 0 19
-4.0035 -7.1206 -2.3374 0.7895 0 19
-4.4659 -8.1141 -2.6502 0.2751 0 14
-4.3922 -8.1542 -2.6502 0.2751 0 14
-4.3183 -8.1936 -2.6502 0.2751 0 14
-4.2439 -8.2324 -2.6502 0.2751 0 14
-4.1692 -8.2704 -2.6502 0.2751 0 14
-4.0942 -8.3078 -2.6502 0.2751 0 14
-4.0188 -8.3446 -2.6502 0.2751 0 14
-3.9431 -8.3806 -2.6502 0.2751 0 14
-3.8671 -8.4159 -2.6502 0.2751 0 14
-3.7907 -8.4506 -2.6502 0.2751 0 14
-3.7141 -8.4846 -2.6502 0.2751 0 14
-3.6371 -8.5178 -2.6502 0.2751 0 14
-3.5599 -8.5504 -2.6502 0.2751 0 14
-3.4823 -8.5823 -2.6502 0.2751 0 14
-2.7520 -6.9627 -2.1422 0.6552 0 19
-2.6780 -6.9590 -2.1336 0.9609 0 19
-2.6197 -6.9958 -2.1375 0.6961 0 19
-3.1694 -8.7027 -2.6502 0.2751 0 14
-3.0905 -8.7311 -2.6502 0.2751 0 14
-3.0113 -8.7587 -2.6502 0.2751 0 14
-2.9319 -8.7856 -2.6502 0.2751 0 14
-2.2791 -7.0410 -2.1176 0.8970 0 19
-2.2076 -7.0370 -2.1103 0.9001 0 19
-2.1367 -7.0331 -2.1032 0.9031 0 19
-2.0662 -7.0292 -2.0964 0.9060 0 19
-2.5314 -8.9092 -2.6502 0.2751 0 14
-2.4506 -8.9318 -2.6502 0.2751 0 14
-2.3697 -8.9536 -2.6502 0.2751 0 14
-2.2885 -8.9747 -2.6502 0.2751 0 14
-2.2072 -8.9950 -2.6502 0.2751 0 14
-1.6521 -7.0063 -2.0597 0.9222 0 19
-1.5845 -7.0026 -2.0543 0.9246 0 19
-1.5136 -6.9825 -2.0443 0.1556 0 19
-1.4502 -6.9952 -2.0441 0.9292 0 19
-1.3642 -6.8939 -2.0109 0.7712 0 19
-1.2955 -6.8728 -2.0012 0.9509 0 19
-1.2350 -6.8938 -2.0040 0.9496 0 19
-1.1847 -6.9765 -2.0248 0.5582 0 19
-1.4679 -9.1448 -2.6502 0.2751 0 14
-1.0499 -6.9417 -2.0089 0.3368 0 19
-0.9897 -6.9697 -2.0143 0.9430 0 19
-1.2190 -9.1813 -2.6502 0.2751 0 14
-1.1359 -9.1920 -2.6502 0.2751 0 14
-1.0526 -9.2019 -2.6502 0.2751 0 14
-0.9693 -9.2110 -2.6502 0.2751 0 14
-0.8859 -9.2194 -2.6502 0.2751 0 14
-0.8024 -9.2271 -2.6502 0.2751 0 14
-0.7188 -9.2339 -2.6502 0.2751 0 14
-0.6352 -9.2401 -2.6502 0.2751 0 14
-0.5515 -9.2454 -2.6502 0.2751 0 14
-0.4678 -9.2501 -2.6502 0.2751 0 14
-0.3841 -9.2539 -2.6502 0.2751 0 14
-0.3003 -9.2570 -2.6502 0.2751 0 14
-0.2165 -9.2593 -2.6502 0.2751 0 14
-0.1089 -7.6058 -2.1765 0.9574 0 9
-0.0365 -6.9170 -1.9792 0.9597 0 19
0.0258 -6.8241 -1.9526 0.8695 0 19
0.0872 -6.7948 -1.9444 0.8732 0 19
0.1490 -6.8082 -1.9486 0.9011 0 19
0.2129 -6.8802 -1.9696 0.3923 0 19
0.2761 -6.8998 -1.9759 0.9613 0 19
0.3385 -6.8963 -1.9757 0.9614 0 19
0.4646 -7.9876 -2.2894 0.8723 0 9
0.5350 -7.9551 -2.2814 0.9661 0 9
0.6057 -7.9337 -2.2767 0.9681 0 9
0.6762 -7.9125 -2.2723 0.9700 0 9
0.7500 -7.9297 -2.2791 0.9032 0 9
0.8251 -7.9551 -2.2885 0.8995 0 9
0.9017 -7.9877 -2.3001 0.7649 0 9
0.9808 -8.0353 -2.3162 0.7595 0 9
1.0931 -8.3277 -2.4033 0.2644 0 9
1.2316 -8.7668 -2.5331 0.2540 0 9
1.3212 -8.8246 -2.5532 0.2520 0 9
1.4122 -8.8826 -2.5735 0.2500 0 9
1.4657 -8.7099 -2.5273 0.2751 0 9
1.5445 -8.6963 -2.5273 0.2751 0 9
1.4002 -7.4892 -2.1801 0.9558 0 9
1.3431 -6.8408 -1.9948 0.9522 0 19
1.4068 -6.8373 -1.9974 0.9509 0 19
1.4389 -6.6859 -1.9569 0.5032 0 19
1.4914 -6.6370 -1.9464 0.9371 0 19
1.5518 -6.6250 -1.9470 0.8100 0 19
1.6244 -6.6626 -1.9623 0.1980 0 19
2.2752 -8.9781 -2.6502 0.2751 0 14
2.3564 -8.9571 -2.6502 0.2751 0 14
2.4373 -8.9354 -2.6502 0.2751 0 14
2.5181 -8.9130 -2.6502 0.2751 0 14
2.5987 -8.8898 -2.6502 0.2751 0 14
2.6791 -8.8659 -2.6502 0.2751 0 14
2.7592 -8.8413 -2.6502 0.2751 0 14
2.8391 -8.8160 -2.6502 0.2751 0 14
2.9188 -8.7899 -2.6502 0.2751 0 14
2.9983 -8.7631 -2.6502 0.2751 0 14
3.0775 -8.7356 -2.6502 0.2751 0 14
3.1564 -8.7074 -2.6502 0.2751 0 14
3.2351 -8.6785 -2.6502 0.2751 0 14
3.3135 -8.6489 -2.6502 0.2751 0 14
3.3917 -8.6185 -2.6502 0.2751 0 14
3.4696 -8.5875 -2.6502 0.2751 0 14
3.5472 -8.5557 -2.6502 0.2751 0 14
3.6245 -8.5232 -2.6502 0.2751 0 14
3.7015 -8.4901 -2.6502 0.2751 0 14
3.7782 -8.4562 -2.6502 0.2751 0 14
3.8546 -8.4217 -2.6502 0.2751 0 14
3.9306 -8.3864 -2.6502 0.2751 0 14
4.0064 -8.3505 -2.6502 0.2751 0 14
4.0818 -8.3139 -2.6502 0.2751 0 14
4.1569 -8.2766 -2.6502 0.2751 0 14
4.2316 -8.2387 -2.6502 0.2751 0 14
4.3060 -8.2000 -2.6502 0.2751 0 14
4.3801 -8.1607 -2.6502 0.2751 0 14
4.4538 -8.1207 -2.6502 0.2751 0 14
4.5271 -8.0801 -2.6502 0.2751 0 14
4.6001 -8.0388 -2.6502 0.2751 0 14
4.6726 -7.9968 -2.6502 0.2751 0 14
4.7448 -7.9542 -2.6502 0.2751 0 14
4.8166 -7.9109 -2.6502 0.2751 0 14
4.8880 -7.8670 -2.6502 0.2751 0 14
4.9591 -7.8224 -2.6502 0.2751 0 14
5.0297 -7.7772 -2.6502 0.2751 0 14
5.0999 -7.7313 -2.6502 0.2751 0 14
5.1696 -7.6849 -2.6502 0.2751 0 14
5.2390 -7.6378 -2.6502 0.2751 0 14
5.3079 -7.5900 -2.6502 0.2751 0 14
5.3764 -7.5417 -2.6502 0.2751 0 14
5.4445 -7.4927 -2.6502 0.2751 0 14
5.5121 -7.4431 -2.6502 0.2751 0 14
5.5792 -7.3929 -2.6502 0.2751 0 14
5.6459 -7.3421 -2.6502 0.2751 0 14
5.7121 -7.2907 -2.6502 0.2751 0 14
5.7779 -7.2387 -2.6502 0.2751 0 14
5.8432 -7.1861 -2.6502 0.2751 0 14
5.9080 -7.1329 -2.6502 0.2751 0 14
5.9723 -7.0791 -2.6502 0.2751 0 14
6.0361 -7.0248 -2.6502 0.2751 0 14
6.0995 -6.9698 -2.6502 0.2751 0 14
6.1623 -6.9143 -2.6502 0.2751 0 14
6.2247 -6.8583 -2.6502 0.2751 0 14
6.2865 -6.8016 -2.6502 0.2751 0 14
6.3478 -6.7445 -2.6502 0.2751 0 8
6.4086 -6.6867 -2.6502 0.2751 0 8
6.8223 -6.9906 -2.7949 0.2751 0 7
6.8853 -6.9285 -2.7949 0.2751 0 7
6.9477 -6.8659 -2.7949 0.2751 0 7
7.0096 -6.8027 -2.7949 0.2751 0 7
7.0708 -6.7390 -2.7949 0.2751 0 7
7.1316 -6.6747 -2.7949 0.2751 0 7
7.1917 -6.6099 -2.7949 0.2751 0 7
7.2512 -6.5445 -2.7949 0.2751 0 7
7.3102 -6.4786 -2.7949 0.2751 0 7
7.3685 -6.4122 -2.7949 0.2751 0 7
7.4263 -6.3452 -2.7949 0.2751 0 7
7.4834 -6.2777 -2.7949 0.2751 0 7
7.5399 -6.2097 -2.7949 0.2751 0 7
7.5958 -6.1412 -2.7949 0.2751 0 7
7.6511 -6.0722 -2.7949 0.2751 0 7
7.7057 -6.0027 -2.7949 0.2751 0 7
7.7598 -5.9327 -2.7949 0.2751 0 7
7.8131 -5.8622 -2.7949 0.2751 0 7
7.8659 -5.7913 -2.7949 0.2751 0 7
7.9180 -5.7198 -2.7949 0.2751 0 7
7.9694 -5.6479 -2.7949 0.2751 0 7
8.0202 -5.5755 -2.7949 0.2751 0 7
8.0704 -5.5027 -2.7949 0.2751 0 7
8.1199 -5.4294 -2.7949 0.2751 0 7
8.1687 -5.3557 -2.7949 0.2751 0 7
8.2168 -5.2816 -2.7949 0.2751 0 7
8.2643 -5.2070 -2.7949 0.2751 0 7
8.3111 -5.1319 -2.7949 0.2751 0 7
8.3572 -5.0565 -2.7949 0.2751 0 7
8.4026 -4.9806 -2.7949 0.2751 0 7
8.4474 -4.9044 -2.7949 0.2751 0 7
8.4914 -4.8277 -2.7949 0.2751 0 7
8.5348 -4.7506 -2.7949 0.2751 0 7
8.5774 -4.6732 -2.7949 0.2751 0 7
8.6194 -4.5954 -2.7949 0.2751 0 7
8.6606 -4.5171 -2.7949 0.2751 0 7
8.7012 -4.4386 -2.7949 0.2751 0 7
8.7410 -4.3596 -2.7949 0.2751 0 7
8.7801 -4.2803 -2.7949 0.2751 0 7
8.8185 -4.2007 -2.7949 0.2751 0 7
8.8561 -4.1207 -2.7949 0.2751 0 7
8.8931 -4.0403 -2.7949 0.2751 0 7
8.9293 -3.9597 -2.7949 0.2751 0 7
8.9648 -3.8787 -2.7949 0.2751 0 7
8.9995 -3.7974 -2.7949 0.2751 0 7
9.0335 -3.7157 -2.7949 0.2751 0 7
9.0668 -3.6338 -2.7949 0.2751 0 7
9.0993 -3.5516 -2.7949 0.2751 0 7
9.1311 -3.4691 -2.7949 0.2751 0 7
9.1621 -3.3863 -2.7949 0.2751 0 7
9.1924 -3.3032 -2.7949 0.2751 0 7
9.2219 -3.2199 -2.7949 0.2751 0 7
9.2507 -3.1363 -2.7949 0.2751 0 7
9.2787 -3.0524 -2.7949 0.2751 0 7
9.3059 -2.9683 -2.7949 0.2751 0 7
9.3324 -2.8839 -2.7949 0.2751 0 7
9.3581 -2.7993 -2.7949 0.2751 0 7
9.3831 -2.7145 -2.7949 0.2751 0 7
9.4073 -2.6295 -2.7949 0.2751 0 7
9.4307 -2.5442 -2.7949 0.2751 0 7
9.4533 -2.4587 -2.7949 0.2751 0 7
9.4752 -2.3731 -2.7949 0.2751 0 7
9.4963 -2.2872 -2.7949 0.2751 0 7
9.5166 -2.2011 -2.7949 0.2751 0 7
9.5362 -2.1149 -2.7949 0.2751 0 7
9.5549 -2.0285 -2.7949 0.2751 0 7
9.5729 -1.9419 -2.7949 0.2751 0 7
9.5901 -1.8552 -2.7949 0.2751 0 7
9.6065 -1.7683 -2.7949 0.2751 0 7
9.6221 -1.6813 -2.7949 0.2751 0 7
9.6369 -1.5941 -2.7949 0.2751 0 7
9.6509 -1.5068 -2.7949 0.2751 0 7
9.6642 -1.4194 -2.7949 0.2751 0 7
9.6766 -1.3318 -2.7949 0.2751 0 7
9.6883 -1.2442 -2.7949 0.2751 0 7
9.6992 -1.1564 -2.7949 0.2751 0 7
9.7092 -1.0686 -2.7949 0.2751 0 7
9.7185 -0.9807 -2.7949 0.2751 0 7
9.7270 -0.8927 -2.7949 0.2751 0 7
9.7347 -0.8046 -2.7949 0.2751 0 7
9.7416 -0.7164 -2.7949 0.2751 0 7
9.7476 -0.6282 -2.7949 0.2751 0 7
9.7529 -0.5399 -2.7949 0.2751 0 7
9.7574 -0.4516 -2.7949 0.2751 0 7
9.7611 -0.3633 -2.7949 0.2751 0 7
9.7640 -0.2749 -2.7949 0.2751 0 7
9.7661 -0.1865 -2.7949 0.2751 0 7
9.7674 -0.0981 -2.7949 0.2751 0 7
9.7679 -0.0097 -2.7949 0.2751 0 7
9.7675 0.0787 -2.7949 0.2751 0 7
9.7664 0.1671 -2.7949 0.2751 0 7
9.7645 0.2555 -2.7949 0.2751 0 7
9.7618 0.3439 -2.7949 0.2751 0 7
9.7583 0.4323 -2.7949 0.2751 0 7
9.7540 0.5206 -2.7949 0.2751 0 7
9.7489 0.6089 -2.7949 0.2751 0 7
9.7430 0.6971 -2.7949 0.2751 0 7
9.7362 0.7852 -2.7949 0.2751 0 7
9.7287 0.8733 -2.7949 0.2751 0 7
9.7204 0.9614 -2.7949 0.2751 0 7
9.7113 1.0493 -2.7949 0.2751 0 7
9.7014 1.1372 -2.7949 0.2751 0 7
9.6908 1.2250 -2.7949 0.2751 0 7
9.6793 1.3126 -2.7949 0.2751 0 7
9.6670 1.4002 -2.7949 0.2751 0 7
9.6539 1.4876 -2.7949 0.2751 0 7
9.6400 1.5750 -2.7949 0.2751 0 7
9.6254 1.6622 -2.7949 0.2751 0 7
9.6100 1.7492 -2.7949 0.2751 0 7
9.5937 1.8361 -2.7949 0.2751 0 7
9.5767 1.9229 -2.7949 0.2751 0 7
9.5589 2.0095 -2.7949 0.2751 0 7
9.5403 2.0960 -2.7949 0.2751 0 7
9.5210 2.1822 -2.7949 0.2751 0 7
9.5008 2.2683 -2.7949 0.2751 0 7
9.4799 2.3542 -2.7949 0.2751 0 7
9.4582 2.4400 -2.7949 0.2751 0 7
9.4357 2.5255 -2.7949 0.2751 0 7
9.4125 2.6108 -2.7949 0.2751 0 7
9.3885 2.6959 -2.7949 0.2751 0 7
9.3637 2.7808 -2.7949 0.2751 0 7
9.3381 2.8654 -2.7949 0.2751 0 7
9.3118 2.9498 -2.7949 0.2751 0 7
9.2847 3.0340 -2.7949 0.2751 0 7
9.2569 3.1179 -2.7949 0.2751 0 7
9.2283 3.2016 -2.7949 0.2751 0 7
9.1989 3.2850 -2.7949 0.2751 0 7
9.1688 3.3681 -2.7949 0.2751 0 7
9.1379 3.4510 -2.7949 0.2751 0 7
9.1063 3.5335 -2.7949 0.2751 0 7
9.0740 3.6158 -2.7949 0.2751 0 7
9.0409 3.6978 -2.7949 0.2751 0 7
9.0070 3.7795 -2.7949 0.2751 0 7
8.9724 3.8609 -2.7949 0.2751 0 7
8.9371 3.9419 -2.7949 0.2751 0 7
8.9011 4.0227 -2.7949 0.2751 0 7
8.8643 4.1031 -2.7949 0.2751 0 7
8.8268 4.1832 -2.7949 0.2751 0 7
8.7886 4.2629 -2.7949 0.2751 0 7
8.7496 4.3423 -2.7949 0.2751 0 7
8.7100 4.4213 -2.7949 0.2751 0 7
8.6696 4.4999 -2.7949 0.2751 0 7
8.6285 4.5782 -2.7949 0.2751 0 7
8.5867 4.6562 -2.7949 0.2751 0 7
8.5442 4.7337 -2.7949 0.2751 0 7
8.5010 4.8108 -2.7949 0.2751 0 7
8.4571 4.8876 -2.7949 0.2751 0 7
8.4125 4.9640 -2.7949 0.2751 0 7
8.3672 5.0399 -2.7949 0.2751 0 7
8.3213 5.1154 -2.7949 0.2751 0 7
8.2746 5.1905 -2.7949 0.2751 0 7
8.2273 5.2652 -2.7949 0.2751 0 7
8.1793 5.3395 -2.7949 0.2751 0 7
8.1306 5.4133 -2.7949 0.2751 0 7
8.0813 5.4867 -2.7949 0.2751 0 7
8.0313 5.5596 -2.7949 0.2751 0 7
7.9806 5.6321 -2.7949 0.2751 0 7
7.9293 5.7041 -2.7949 0.2751 0 7
7.8774 5.7756 -2.7949 0.2751 0 7
7.8248 5.8467 -2.7949 0.2751 0 7
7.7715 5.9173 -2.7949 0.2751 0 7
7.7176 5.9874 -2.7949 0.2751 0 7
7.6631 6.0570 -2.7949 0.2751 0 7
7.6080 6.1261 -2.7949 0.2751 0 7
7.5522 6.1948 -2.7949 0.2751 0 7
7.4919 6.2595 -2.7935 0.2737 0 8
7.4309 6.3237 -2.7920 0.2739 0 8
7.3694 6.3873 -2.7904 0.2740 0 8
7.3073 6.4502 -2.7889 0.2742 0 8
7.2447 6.5126 -2.7874 0.2743 0 8
6.8119 6.2360 -2.6425 0.2751 0 8
6.7552 6.2974 -2.6425 0.2751 0 8
6.6979 6.3583 -2.6425 0.2751 0 8
6.6401 6.4186 -2.6425 0.2751 0 8
6.5817 6.4785 -2.6425 0.2751 0 8
6.5228 6.5378 -2.6425 0.2751 0 8
6.4634 6.5966 -2.6425 0.2751 0 8
6.4034 6.6548 -2.6425 0.2751 0 8
6.3429 6.7125 -2.6425 0.2751 0 8
6.2819 6.7696 -2.6425 0.2751 0 8
6.2203 6.8262 -2.6425 0.2751 0 8
6.1583 6.8822 -2.6425 0.2751 0 8
6.0957 6.9377 -2.6425 0.2751 0 8
6.0327 6.9926 -2.6425 0.2751 0 8
5.9691 7.0469 -2.6425 0.2751 0 8
5.9051 7.1007 -2.6425 0.2751 0 8
5.8406 7.1538 -2.6425 0.2751 0 8
5.7756 7.2064 -2.6425 0.2751 0 8
5.7101 7.2584 -2.6425 0.2751 0 8
5.6442 7.3098 -2.6425 0.2751 0 8
5.5778 7.3606 -2.6425 0.2751 0 8
5.5109 7.4108 -2.6425 0.2751 0 8
5.4436 7.4604 -2.6425 0.2751 0 8
5.3759 7.5093 -2.6425 0.2751 0 8
5.3077 7.5577 -2.6425 0.2751 0 8
5.2390 7.6054 -2.6425 0.2751 0 8
5.1700 7.6525 -2.6425 0.2751 0 8
5.1005 7.6990 -2.6425 0.2751 0 8
5.0306 7.7449 -2.6425 0.2751 0 8
4.9603 7.7901 -2.6425 0.2751 0 8
4.8896 7.8347 -2.6425 0.2751 0 8
4.8185 7.8786 -2.6425 0.2751 0 8
4.7469 7.9219 -2.6425 0.2751 0 8
4.6750 7.9645 -2.6425 0.2751 0 8
4.6027 8.0065 -2.6425 0.2751 0 8
4.5301 8.0479 -2.6425 0.2751 0 8
4.4570 8.0885 -2.6425 0.2751 0 8
4.3836 8.1286 -2.6425 0.2751 0 8
4.3099 8.1679 -2.6425 0.2751 0 8
4.2358 8.2066 -2.6425 0.2751 0 8
4.1613 8.2446 -2.6425 0.2751 0 8
4.0865 8.2819 -2.6425 0.2751 0 8
4.0114 8.3186 -2.6425 0.2751 0 8
3.9359 8.3545 -2.6425 0.2751 0 8
3.8601 8.3898 -2.6425 0.2751 0 8
3.7840 8.4244 -2.6425 0.2751 0 8
3.7076 8.4583 -2.6425 0.2751 0 8
3.6309 8.4916 -2.6425 0.2751 0 8
3.5539 8.5241 -2.6425 0.2751 0 8
3.4766 8.5559 -2.6425 0.2751 0 8
3.3990 8.5870 -2.6425 0.2751 0 8
3.3211 8.6174 -2.6425 0.2751 0 8
3.2430 8.6471 -2.6425 0.2751 0 8
3.1646 8.6761 -2.6425 0.2751 0 8
3.0859 8.7044 -2.6425 0.2751 0 8
3.0070 8.7320 -2.6425 0.2751 0 8
2.9278 8.7589 -2.6425 0.2751 0 8
2.8484 8.7850 -2.6425 0.2751 0 8
2.7688 8.8104 -2.6425 0.2751 0 8
2.6889 8.8351 -2.6425 0.2751 0 8
1.6145 0.0000 -0.5016 0.0561 432 10
1.6223 0.0147 -0.5040 0.0558 432 10
1.6295 0.0295 -0.5063 0.0555 432 10
1.6361 0.0444 -0.5085 0.0553 432 10
1.6420 0.0595 -0.5104 0.0551 432 10
1.6473 0.0746 -0.5123 0.0549 432 10
1.6519 0.0898 -0.5139 0.0547 432 10
1.6558 0.1051 -0.5154 0.0545 432 10
1.6590 0.1204 -0.5167 0.0544 432 10
1.6615 0.1357 -0.5179 0.0543 432 10
1.6633 0.1510 -0.5188 0.0542 432 10
1.6644 0.1663 -0.5196 0.0541 432 10
1.6647 0.1815 -0.5202 0.0540 432 10
1.6644 0.1968 -0.5206 0.0540 432 10
1.6632 0.2119 -0.5209 0.0540 432 10
1.6614 0.2270 -0.5209 0.0540 432 10
1.6589 0.2420 -0.5208 0.0540 432 10
1.6574 0.2571 -0.5210 0.0627 432 10
1.6573 0.2725 -0.5218 0.0627 432 10
1.6566 0.2878 -0.5223 0.0626 432 10
1.6703 0.3057 -0.5275 0.0463 432 10
1.6865 0.3245 -0.5336 0.0458 432 10
8.8189 1.7799 -2.7949 0.2967 0 7
8.8024 1.8596 -2.7949 0.2967 0 7
8.7852 1.9392 -2.7949 0.2967 0 7
8.7673 2.0187 -2.7949 0.2967 0 7
8.7487 2.0979 -2.7949 0.2967 0 7
8.7293 2.1770 -2.7949 0.2967 0 7
8.7092 2.2560 -2.7949 0.2967 0 7
8.6885 2.3347 -2.7949 0.2967 0 7
8.6670 2.4133 -2.7949 0.2967 0 7
8.6448 2.4916 -2.7949 0.2967 0 7
8.6219 2.5698 -2.7949 0.2967 0 7
8.5983 2.6477 -2.7949 0.2967 0 7
8.5739 2.7254 -2.7949 0.2967 0 7
8.5489 2.8029 -2.7949 0.2967 0 7
8.5232 2.8802 -2.7949 0.2967 0 7
8.4968 2.9572 -2.7949 0.2967 0 7
8.4697 3.0340 -2.7949 0.2967 0 7
8.4418 3.1106 -2.7949 0.2967 0 7
8.4133 3.1869 -2.7949 0.2967 0 7
8.3842 3.2629 -2.7949 0.2967 0 7
8.3543 3.3386 -2.7949 0.2967 0 7
8.3237 3.4141 -2.7949 0.2967 0 7
8.2925 3.4893 -2.7949 0.2967 0 7
8.2605 3.5643 -2.7949 0.2967 0 7
8.2279 3.6389 -2.7949 0.2967 0 7
8.1947 3.7132 -2.7949 0.2967 0 7
8.1607 3.7872 -2.7949 0.2967 0 7
8.1261 3.8610 -2.7949 0.2967 0 7
8.0908 3.9344 -2.7949 0.2967 0 7
8.0549 4.0074 -2.7949 0.2967 0 7
8.0183 4.0802 -2.7949 0.2967 0 7
7.9810 4.1526 -2.7949 0.2967 0 7
7.9431 4.2247 -2.7949 0.2967 0 7
7.9045 4.2964 -2.7949 0.2967 0 7
7.8653 4.3678 -2.7949 0.2967 0 7
7.8254 4.4388 -2.7949 0.2967 0 7
7.7849 4.5095 -2.7949 0.2967 0 7
7.7438 4.5797 -2.7949 0.2967 0 7
7.7020 4.6496 -2.7949 0.2967 0 7
7.6596 4.7192 -2.7949 0.2967 0 7
7.6166 4.7883 -2.7949 0.2967 0 7
7.5729 4.8571 -2.7949 0.2967 0 7
7.5287 4.9254 -2.7949 0.2967 0 7
7.4838 4.9934 -2.7949 0.2967 0 7
7.4383 5.0609 -2.7949 0.2967 0 7
7.3921 5.1280 -2.7949 0.2967 0 7
7.3454 5.1947 -2.7949 0.2967 0 7
7.2981 5.2610 -2.7949 0.2967 0 7
7.2502 5.3269 -2.7949 0.2967 0 7
7.2017 5.3923 -2.7949 0.2967 0 7
7.1526 5.4572 -2.7949 0.2967 0 7
7.1029 5.5218 -2.7949 0.2967 0 7
7.0526 5.5858 -2.7949 0.2967 0 7
7.0017 5.6494 -2.7949 0.2967 0 7
6.9489 5.7114 -2.7944 0.2967 0 8
6.8935 5.7713 -2.7930 0.2969 0 8
6.8376 5.8305 -2.7916 0.2970 0 8
6.7812 5.8893 -2.7902 0.2972 0 8
6.7243 5.9475 -2.7889 0.2973 0 8
6.6669 6.0052 -2.7875 0.2975 0 8
6.2820 5.7623 -2.6482 0.3057 0 8
6.2161 5.8064 -2.6425 0.2967 0 8
6.1762 5.8746 -2.6480 0.3178 0 8
6.1100 5.9180 -2.6425 0.2967 0 8
6.0562 5.9730 -2.6425 0.2967 0 8
6.0019 6.0276 -2.6425 0.2967 0 8
5.9471 6.0817 -2.6425 0.2967 0 8
5.8918 6.1353 -2.6425 0.2967 0 8
5.8360 6.1883 -2.6425 0.2967 0 8
5.7797 6.2409 -2.6425 0.2967 0 8
5.7230 6.2930 -2.6425 0.2967 0 8
5.6658 6.3445 -2.6425 0.2967 0 8
5.6081 6.3956 -2.6425 0.2967 0 8
5.5500 6.4461 -2.6425 0.2967 0 8
5.4914 6.4960 -2.6425 0.2967 0 8
5.4324 6.5455 -2.6425 0.2967 0 8
5.3729 6.5944 -2.6425 0.2967 0 8
5.3130 6.6428 -2.6425 0.2967 0 8
5.2527 6.6905 -2.6425 0.2967 0 8
5.1919 6.7378 -2.6425 0.2967 0 8
5.1307 6.7846 -2.6425 0.2967 0 8
5.0691 6.8307 -2.6425 0.2967 0 8
5.0070 6.8763 -2.6425 0.2967 0 8
4.9446 6.9214 -2.6425 0.2967 0 8
4.8817 6.9658 -2.6425 0.2967 0 8
4.8185 7.0098 -2.6425 0.2967 0 8
4.7548 7.0531 -2.6425 0.2967 0 8
4.6908 7.0958 -2.6425 0.2967 0 8
4.6263 7.1380 -2.6425 0.2967 0 8
4.5616 7.1796 -2.6425 0.2967 0 8
4.4964 7.2206 -2.6425 0.2967 0 8
4.4308 7.2610 -2.6425 0.2967 0 8
4.3649 7.3008 -2.6425 0.2967 0 8
4.2987 7.3400 -2.6425 0.2967 0 8
4.2321 7.3786 -2.6425 0.2967 0 8
4.1651 7.4166 -2.6425 0.2967 0 8
4.0978 7.4540 -2.6425 0.2967 0 8
4.0301 7.4908 -2.6425 0.2967 0 8
3.9622 7.5270 -2.6425 0.2967 0 8
3.8939 7.5626 -2.6425 0.2967 0 8
3.8252 7.5975 -2.6425 0.2967 0 8
3.7563 7.6318 -2.6425 0.2967 0 8
3.6871 7.6655 -2.6425 0.2967 0 8
3.6175 7.6985 -2.6425 0.2967 0 8
3.5477 7.7310 -2.6425 0.2967 0 8
3.4776 7.7628 -2.6425 0.2967 0 8
3.4072 7.7939 -2.6425 0.2967 0 8
3.3365 7.8245 -2.6425 0.2967 0 8
3.2655 7.8543 -2.6425 0.2967 0 8
3.1943 7.8836 -2.6425 0.2967 0 8
3.1228 7.9122 -2.6425 0.2967 0 8
3.0510 7.9401 -2.6425 0.2967 0 8
2.9790 7.9674 -2.6425 0.2967 0 8
2.9068 7.9941 -2.6425 0.2967 0 8
2.8343 8.0200 -2.6425 0.2967 0 8
2.7616 8.0454 -2.6425 0.2967 0 8
2.6886 8.0700 -2.6425 0.2967 0 8
2.6155 8.0940 -2.6425 0.2967 0 8
2.5421 8.1174 -2.6425 0.2967 0 8
2.4685 8.1401 -2.6425 0.2967 0 8
2.3948 8.1621 -2.6425 0.2967 0 8
2.3208 8.1834 -2.6425 0.2967 0 8
2.2466 8.2041 -2.6425 0.2967 0 8
2.1722 8.2241 -2.6425 0.2967 0 8
2.0977 8.2434 -2.6425 0.2967 0 8
2.0230 8.2621 -2.6425 0.2967 0 8
1.9481 8.2800 -2.6425 0.2967 0 8
1.8731 8.2973 -2.6425 0.2967 0 8
1.7979 8.3140 -2.6425 0.2967 0 8
1.7226 8.3299 -2.6425 0.2967 0 8
1.6471 8.3451 -2.6425 0.2967 0 8
1.5715 8.3597 -2.6425 0.2967 0 8
1.4958 8.3736 -2.6425 0.2967 0 8
1.4199 8.3868 -2.6425 0.2967 0 8
1.3439 8.3993 -2.6425 0.2967 0 8
1.2679 8.4111 -2.6425 0.2967 0 8
1.1917 8.4223 -2.6425 0.2967 0 8
1.1154 8.4327 -2.6425 0.2967 0 8
1.0390 8.4424 -2.6425 0.2967 0 8
0.9625 8.4515 -2.6425 0.2967 0 8
0.8860 8.4599 -2.6425 0.2967 0 8
0.8094 8.4675 -2.6425 0.2967 0 8
0.7327 8.4745 -2.6425 0.2967 0 8
0.6559 8.4808 -2.6425 0.2967 0 8
0.5792 8.4864 -2.6425 0.2967 0 8
0.5023 8.4913 -2.6425 0.2967 0 8
0.4254 8.4955 -2.6425 0.2967 0 8
0.3485 8.4990 -2.6425 0.2967 0 8
0.2716 8.5018 -2.6425 0.2967 0 8
0.1946 8.5039 -2.6425 0.2967 0 8
0.1176 8.5053 -2.6425 0.2967 0 8
0.0406 8.5060 -2.6425 0.2967 0 8
-0.0364 8.5061 -2.6425 0.2967 0 8
-0.1134 8.5054 -2.6425 0.2967 0 8
-0.1904 8.5040 -2.6425 0.2967 0 8
-0.2673 8.5019 -2.6425 0.2967 0 8
-0.3443 8.4992 -2.6425 0.2967 0 8
-0.4212 8.4957 -2.6425 0.2967 0 8
-0.4981 8.4915 -2.6425 0.2967 0 8
-0.5749 8.4867 -2.6425 0.2967 0 8
-0.6517 8.4811 -2.6425 0.2967 0 8
-0.7285 8.4749 -2.6425 0.2967 0 8
-0.8052 8.4679 -2.6425 0.2967 0 8
-0.8818 8.4603 -2.6425 0.2967 0 8
-0.9583 8.4520 -2.6425 0.2967 0 8
-1.0348 8.4430 -2.6425 0.2967 0 8
-1.1112 8.4332 -2.6425 0.2967 0 8
-1.1875 8.4228 -2.6425 0.2967 0 8
-1.2637 8.4117 -2.6425 0.2967 0 8
-1.3398 8.4000 -2.6425 0.2967 0 8
-1.4157 8.3875 -2.6425 0.2967 0 8
-1.4916 8.3743 -2.6425 0.2967 0 8
-1.5674 8.3605 -2.6425 0.2967 0 8
-1.6430 8.3460 -2.6425 0.2967 0 8
-1.7185 8.3307 -2.6425 0.2967 0 8
-1.7938 8.3148 -2.6425 0.2967 0 8
-1.8690 8.2983 -2.6425 0.2967 0 8
-1.9440 8.2810 -2.6425 0.2967 0 8
-2.0189 8.2631 -2.6425 0.2967 0 8
-2.0936 8.2445 -2.6425 0.2967 0 8
-2.1682 8.2252 -2.6425 0.2967 0 8
-2.2425 8.2052 -2.6425 0.2967 0 8
-2.3167 8.1846 -2.6425 0.2967 0 8
-2.3907 8.1633 -2.6425 0.2967 0 8
-2.4645 8.1413 -2.6425 0.2967 0 8
-2.5381 8.1186 -2.6425 0.2967 0 8
-2.6115 8.0953 -2.6425 0.2967 0 8
-2.6847 8.0714 -2.6425 0.2967 0 8
-2.7576 8.0467 -2.6425 0.2967 0 8
-2.8303 8.0214 -2.6425 0.2967 0 8
-2.9028 7.9955 -2.6425 0.2967 0 8
-2.9751 7.9689 -2.6425 0.2967 0 8
-3.0471 7.9416 -2.6425 0.2967 0 8
-3.1189 7.9137 -2.6425 0.2967 0 8
-3.1904 7.8852 -2.6425 0.2967 0 8
-3.2616 7.8560 -2.6425 0.2967 0 8
-3.3326 7.8261 -2.6425 0.2967 0 8
-3.4033 7.7956 -2.6425 0.2967 0 8
-3.4737 7.7645 -2.6425 0.2967 0 8
-3.5439 7.7328 -2.6425 0.2967 0 8
-3.6137 7.7004 -2.6425 0.2967 0 8
-3.6833 7.6673 -2.6425 0.2967 0 8
-3.7525 7.6337 -2.6425 0.2967 0 8
-3.8215 7.5994 -2.6425 0.2967 0 8
-3.8901 7.5645 -2.6425 0.2967 0 8
-3.9584 7.5290 -2.6425 0.2967 0 8
-4.0264 7.4928 -2.6425 0.2967 0 8
-4.0941 7.4561 -2.6425 0.2967 0 8
-4.1614 7.4187 -2.6425 0.2967 0 8
-4.2284 7.3807 -2.6425 0.2967 0 8
-4.2950 7.3422 -2.6425 0.2967 0 8
-4.3613 7.3030 -2.6425 0.2967 0 8
-4.4272 7.2632 -2.6425 0.2967 0 8
-4.4928 7.2228 -2.6425 0.2967 0 8
-4.5580 7.1819 -2.6425 0.2967 0 8
-4.6228 7.1403 -2.6425 0.2967 0 8
-4.6873 7.0982 -2.6425 0.2967 0 8
-4.7513 7.0554 -2.6425 0.2967 0 8
-4.8150 7.0121 -2.6425 0.2967 0 8
-4.8783 6.9683 -2.6425 0.2967 0 8
-4.9412 6.9238 -2.6425 0.2967 0 8
-5.0036 6.8788 -2.6425 0.2967 0 8
-5.0657 6.8332 -2.6425 0.2967 0 8
-5.1273 6.7871 -2.6425 0.2967 0 8
-5.1886 6.7404 -2.6425 0.2967 0 8
-5.2494 6.6932 -2.6425 0.2967 0 8
-5.3097 6.6454 -2.6425 0.2967 0 8
-5.3697 6.5970 -2.6425 0.2967 0 8
-5.4292 6.5482 -2.6425 0.2967 0 8
-5.4882 6.4988 -2.6425 0.2967 0 8
-5.5468 6.4488 -2.6425 0.2967 0 8
-3.8185 4.3590 -1.8003 0.8336 0 5
-3.8600 4.3267 -1.8013 0.9187 0 5
-5.7199 6.2958 -2.6425 0.2967 0 8
-5.7766 6.2438 -2.6425 0.2967 0 8
-5.8329 6.1912 -2.6425 0.2967 0 8
-5.8887 6.1382 -2.6425 0.2967 0 8
-5.9440 6.0846 -2.6425 0.2967 0 8
-5.9989 6.0306 -2.6425 0.2967 0 8
-6.0532 5.9760 -2.6425 0.2967 0 8
-6.1071 5.9210 -2.6425 0.2967 0 8
-6.1604 5.8655 -2.6425 0.2967 0 8
-6.2132 5.8095 -2.6425 0.2967 0 8
-6.2656 5.7530 -2.6425 0.2967 0 8
-6.3174 5.6960 -2.6425 0.2967 0 8
-6.3687 5.6386 -2.6425 0.2967 0 8
-6.4195 5.5807 -2.6425 0.2967 0 8
-6.4697 5.5224 -2.6425 0.2967 0 8
-6.5195 5.4636 -2.6425 0.2967 0 8
-6.5687 5.4044 -2.6425 0.2967 0 8
-6.6173 5.3447 -2.6425 0.2967 0 8
-6.6654 5.2846 -2.6425 0.2967 0 8
-6.7130 5.2240 -2.6425 0.2967 0 8
-6.7600 5.1630 -2.6425 0.2967 0 8
-6.8064 5.1016 -2.6425 0.2967 0 8
-6.8523 5.0398 -2.6425 0.2967 0 8
-6.8977 4.9776 -2.6425 0.2967 0 8
-6.9425 4.9149 -2.6425 0.2967 0 8
-6.9867 4.8519 -2.6425 0.2967 0 8
-7.0303 4.7884 -2.6425 0.2967 0 8
-7.0734 4.7246 -2.6425 0.2967 0 8
-7.1158 4.6604 -2.6425 0.2967 0 8
-7.1577 4.5958 -2.6425 0.2967 0 8
-7.1990 4.5308 -2.6425 0.2967 0 8
-7.2398 4.4655 -2.6425 0.2967 0 8
-7.2799 4.3997 -2.6425 0.2967 0 8
-7.3194 4.3337 -2.6425 0.2967 0 8
-7.3583 4.2672 -2.6425 0.2967 0 8
-7.3967 4.2004 -2.6425 0.2967 0 8
-7.4344 4.1333 -2.6425 0.2967 0 8
-7.4715 4.0659 -2.6425 0.2967 0 8
-7.5080 3.9981 -2.6425 0.2967 0 8
-7.5439 3.9299 -2.6425 0.2967 0 8
-7.5791 3.8615 -2.6425 0.2967 0 8
-7.6418 3.8066 -2.6522 0.5196 0 8
-7.7868 3.7913 -2.6906 0.5122 0 8
-7.9360 3.7755 -2.7302 0.5048 0 8
-1.2468 0.5794 -0.4271 0.0130 432 10
-1.1909 0.5403 -0.4063 0.2524 432 10
-1.1912 0.5275 -0.4047 0.2534 432 10
-1.1913 0.5147 -0.4032 0.2544 432 10
-1.1914 0.5020 -0.4016 0.2554 432 10
-1.1913 0.4893 -0.4001 0.2563 432 10
-1.1911 0.4767 -0.3986 0.2573 432 10
-1.1909 0.4641 -0.3971 0.2583 432 10
-1.1905 0.4516 -0.3955 0.2593 432 10
-1.1900 0.4391 -0.3940 0.2603 432 10
-1.1894 0.4267 -0.3925 0.2613 432 10
-1.1886 0.4144 -0.3911 0.2623 432 10
-1.1878 0.4021 -0.3896 0.2633 432 10
-1.1869 0.3898 -0.3881 0.2643 432 10
-1.1859 0.3776 -0.3866 0.2653 432 10
-1.1848 0.3655 -0.3852 0.2663 432 10
-1.1836 0.3534 -0.3837 0.2673 432 10
-1.1823 0.3414 -0.3823 0.2683 432 10
-1.1808 0.3294 -0.3808 0.2693 432 10
-1.1793 0.3175 -0.3794 0.2703 432 10
-1.1777 0.3057 -0.3780 0.2713 432 10
-1.1772 0.2942 -0.3770 0.2971 432 10
-1.1790 0.2834 -0.3767 0.2973 432 10
-1.1808 0.2725 -0.3765 0.2975 432 10
-1.1824 0.2616 -0.3762 0.2977 432 10
-1.1839 0.2507 -0.3760 0.2979 432 10
-1.1853 0.2398 -0.3757 0.2981 432 10
-1.1867 0.2290 -0.3754 0.2983 432 10
-1.1879 0.2181 -0.3752 0.2985 432 10
-1.1890 0.2072 -0.3749 0.2987 432 10
-1.1901 0.1962 -0.3747 0.2989 432 10
-1.1910 0.1853 -0.3745 0.2991 432 10
-1.1919 0.1744 -0.3742 0.2993 432 10
-1.1926 0.1635 -0.3740 0.2995 432 10
-1.1932 0.1526 -0.3737 0.2997 432 10
-1.1938 0.1417 -0.3735 0.2999 432 10
-1.1942 0.1308 -0.3732 0.3001 432 10
-1.1946 0.1199 -0.3730 0.3003 432 10
-1.1948 0.1091 -0.3727 0.2992 432 10
-1.1951 0.0982 -0.3725 0.2994 432 10
-1.1953 0.0873 -0.3723 0.2995 432 10
-1.1954 0.0764 -0.3721 0.2997 432 10
-1.1954 0.0656 -0.3719 0.2999 432 10
-1.1953 0.0547 -0.3717 0.3000 432 10
-1.1951 0.0439 -0.3715 0.3002 432 10
-1.1948 0.0330 -0.3713 0.3003 432 10
-1.1944 0.0222 -0.3711 0.3005 432 10
-1.1939 0.0114 -0.3709 0.3007 432 10
-1.1933 0.0006 -0.3707 0.3008 432 10
-1.1939 -0.0102 -0.3709 0.3007 432 10
-1.1944 -0.0210 -0.3711 0.3005 432 10
-1.1948 -0.0319 -0.3713 0.3004 432 10
-1.1951 -0.0427 -0.3715 0.3002 432 10
-1.1953 -0.0535 -0.3717 0.3000 432 10
-1.1954 -0.0644 -0.3719 0.2999 432 10
-1.1954 -0.0753 -0.3721 0.2997 432 10
-1.1953 -0.0861 -0.3723 0.2995 432 10
-1.1952 -0.0970 -0.3725 0.2994 432 10
-1.1949 -0.1079 -0.3727 0.2992 432 10
-1.1946 -0.1187 -0.3729 0.3003 432 10
-1.1943 -0.1296 -0.3732 0.3001 432 10
-1.1938 -0.1405 -0.3734 0.2999 432 10
-1.1933 -0.1514 -0.3737 0.2998 432 10
-1.1927 -0.1623 -0.3739 0.2996 432 10
-1.1919 -0.1732 -0.3742 0.2994 432 10
-1.1911 -0.1842 -0.3744 0.2992 432 10
-1.1902 -0.1951 -0.3747 0.2990 432 10
-1.1892 -0.2060 -0.3749 0.2988 432 10
-1.1880 -0.2169 -0.3752 0.2986 432 10
-1.1868 -0.2278 -0.3754 0.2984 432 10
-1.1855 -0.2386 -0.3757 0.2982 432 10
-1.1841 -0.2495 -0.3759 0.2980 432 10
-1.1826 -0.2604 -0.3762 0.2978 432 10
-1.1809 -0.2713 -0.3764 0.2976 432 10
-1.1792 -0.2822 -0.3767 0.2974 432 10
-1.1774 -0.2930 -0.3769 0.2972 432 10
-1.1776 -0.3044 -0.3778 0.2714 432 10
-1.1792 -0.3162 -0.3793 0.2704 432 10
-1.1807 -0.3281 -0.3807 0.2694 432 10
-1.1821 -0.3401 -0.3821 0.2684 432 10
-1.1834 -0.3521 -0.3836 0.2674 432 10
-1.1846 -0.3641 -0.3850 0.2664 432 10
-1.1858 -0.3763 -0.3865 0.2654 432 10
-1.1868 -0.3885 -0.3879 0.2644 432 10
-1.1877 -0.4007 -0.3894 0.2634 432 10
-1.1886 -0.4130 -0.3909 0.2624 432 10
-1.1893 -0.4254 -0.3924 0.2614 432 10
-1.1899 -0.4378 -0.3939 0.2604 432 10
-1.1904 -0.4502 -0.3954 0.2594 432 10
-1.1908 -0.4627 -0.3969 0.2584 432 10
-1.1911 -0.4753 -0.3984 0.2574 432 10
-1.1913 -0.4879 -0.3999 0.2564 432 10
-1.1914 -0.5006 -0.4015 0.2555 432 10
-1.1913 -0.5133 -0.4030 0.2545 432 10
-1.1912 -0.5261 -0.4045 0.2535 432 10
-1.1909 -0.5389 -0.4061 0.2526 432 10
-1.2007 -0.5565 -0.4111 0.0135 432 10
-8.1280 -3.8569 -2.7949 0.2967 0 7
-8.0928 -3.9303 -2.7949 0.2967 0 7
-8.0569 -4.0034 -2.7949 0.2967 0 7
-8.0203 -4.0762 -2.7949 0.2967 0 7
-7.9831 -4.1486 -2.7949 0.2967 0 7
-7.9452 -4.2207 -2.7949 0.2967 0 7
-7.9067 -4.2925 -2.7949 0.2967 0 7
-7.8675 -4.3639 -2.7949 0.2967 0 7
-7.8277 -4.4349 -2.7949 0.2967 0 7
-7.7872 -4.5056 -2.7949 0.2967 0 7
-7.7461 -4.5759 -2.7949 0.2967 0 7
-7.7043 -4.6458 -2.7949 0.2967 0 7
-7.6620 -4.7154 -2.7949 0.2967 0 7
-7.6190 -4.7845 -2.7949 0.2967 0 7
-7.5754 -4.8533 -2.7949 0.2967 0 7
-7.5311 -4.9217 -2.7949 0.2967 0 7
-7.4862 -4.9897 -2.7949 0.2967 0 7
-7.4408 -5.0572 -2.7949 0.2967 0 7
-7.3947 -5.1244 -2.7949 0.2967 0 7
-7.3480 -5.1911 -2.7949 0.2967 0 7
-7.3007 -5.2574 -2.7949 0.2967 0 7
-7.2528 -5.3233 -2.7949 0.2967 0 7
-7.2043 -5.3887 -2.7949 0.2967 0 7
-7.1553 -5.4537 -2.7949 0.2967 0 7
-7.1056 -5.5182 -2.7949 0.2967 0 7
-7.0554 -5.5823 -2.7949 0.2967 0 7
-7.0045 -5.6460 -2.7949 0.2967 0 7
-6.9531 -5.7091 -2.7949 0.2967 0 7
-6.9012 -5.7718 -2.7949 0.2967 0 7
-6.8487 -5.8341 -2.7949 0.2967 0 7
-6.7956 -5.8958 -2.7949 0.2967 0 7
-6.7419 -5.9571 -2.7949 0.2967 0 7
-6.6877 -6.0179 -2.7949 0.2967 0 7
-6.6330 -6.0782 -2.7949 0.2967 0 6
-6.5777 -6.1380 -2.7949 0.2967 0 6
-6.5219 -6.1973 -2.7949 0.2967 0 7
-6.4655 -6.2560 -2.7949 0.2967 0 7
-6.4086 -6.3143 -2.7949 0.2967 0 7
-6.3512 -6.3721 -2.7949 0.2967 0 7
-6.2932 -6.4293 -2.7949 0.2967 0 7
-6.2348 -6.4860 -2.7949 0.2967 0 7
-6.1758 -6.5422 -2.7949 0.2967 0 7
-6.1163 -6.5978 -2.7949 0.2967 0 7
-6.0049 -6.5964 -2.7712 0.7115 0 8
-5.8949 -6.5945 -2.7479 0.7176 0 8
-5.7867 -6.5925 -2.7251 0.7235 0 8
-5.6802 -6.5906 -2.7030 0.7295 0 8
-5.5754 -6.5887 -2.6814 0.7354 0 8
-5.4722 -6.5867 -2.6603 0.7412 0 8
-5.3917 -6.6107 -2.6502 0.2967 0 8
-5.3317 -6.6593 -2.6502 0.2967 0 8
-5.2712 -6.7072 -2.6502 0.2967 0 8
-5.2102 -6.7547 -2.6502 0.2967 0 14
-5.1489 -6.8016 -2.6502 0.2967 0 14
-5.0871 -6.8479 -2.6502 0.2967 0 14
-5.0249 -6.8937 -2.6502 0.2967 0 14
-4.9623 -6.9389 -2.6502 0.2967 0 14
-4.8993 -6.9835 -2.6502 0.2967 0 14
-4.8358 -7.0276 -2.6502 0.2967 0 14
-4.7720 -7.0711 -2.6502 0.2967 0 14
-4.7078 -7.1140 -2.6502 0.2967 0 14
-4.6432 -7.1563 -2.6502 0.2967 0 14
-4.5783 -7.1980 -2.6502 0.2967 0 14
-4.5129 -7.2392 -2.6502 0.2967 0 14
-4.4472 -7.2797 -2.6502 0.2967 0 14
-4.3811 -7.3197 -2.6502 0.2967 0 14
-4.1188 -7.0248 -2.5298 0.9367 0 19
-4.0479 -7.0494 -2.5254 0.9383 0 19
-4.0035 -7.1206 -2.5378 0.7842 0 19
-4.1133 -7.4735 -2.6502 0.2967 0 14
-4.0455 -7.5104 -2.6502 0.2967 0 14
-3.9773 -7.5467 -2.6502 0.2967 0 14
-3.9089 -7.5824 -2.6502 0.2967 0 14
-3.8401 -7.6175 -2.6502 0.2967 0 14
-3.7709 -7.6519 -2.6502 0.2967 0 14
-3.7015 -7.6858 -2.6502 0.2967 0 14
-3.6318 -7.7189 -2.6502 0.2967 0 14
-3.5618 -7.7515 -2.6502 0.2967 0 14
-3.4915 -7.7834 -2.6502 0.2967 0 14
-3.4209 -7.8147 -2.6502 0.2967 0 14
-3.3500 -7.8454 -2.6502 0.2967 0 14
-3.2788 -7.8754 -2.6502 0.2967 0 14
-3.2074 -7.9047 -2.6502 0.2967 0 14
-2.7520 -6.9627 -2.3259 0.6508 0 19
-2.6780 -6.9590 -2.3164 0.9545 0 19
-2.6197 -6.9958 -2.3207 0.6914 0 19
-2.9192 -8.0157 -2.6502 0.2967 0 14
-2.8465 -8.0417 -2.6502 0.2967 0 14
-2.7736 -8.0672 -2.6502 0.2967 0 14
-2.7004 -8.0920 -2.6502 0.2967 0 14
-2.6271 -8.1161 -2.6502 0.2967 0 14
-2.5535 -8.1395 -2.6502 0.2967 0 14
-2.4797 -8.1623 -2.6502 0.2967 0 14
-2.4057 -8.1844 -2.6502 0.2967 0 14
-2.3315 -8.2059 -2.6502 0.2967 0 14
-2.2572 -8.2266 -2.6502 0.2967 0 14
-2.1826 -8.2467 -2.6502 0.2967 0 14
-2.1079 -8.2661 -2.6502 0.2967 0 14
-2.0330 -8.2849 -2.6502 0.2967 0 14
-1.9579 -8.3029 -2.6502 0.2967 0 14
-1.8826 -8.3203 -2.6502 0.2967 0 14
-1.8073 -8.3370 -2.6502 0.2967 0 14
-1.7317 -8.3530 -2.6502 0.2967 0 14
-1.3642 -6.8939 -2.1832 0.7660 0 19
-1.2955 -6.8728 -2.1727 0.9446 0 19
-1.2350 -6.8938 -2.1758 0.9432 0 19
-1.1847 -6.9765 -2.1984 0.5545 0 19
-1.3520 -8.4228 -2.6502 0.2967 0 14
-1.2757 -8.4347 -2.6502 0.2967 0 14
-1.1993 -8.4459 -2.6502 0.2967 0 14
-1.1228 -8.4564 -2.6502 0.2967 0 14
-1.0462 -8.4663 -2.6502 0.2967 0 14
-0.9695 -8.4754 -2.6502 0.2967 0 14
-0.7319 -6.9555 -2.1727 0.9428 0 19
-0.6680 -6.9519 -2.1697 0.9441 0 19
-0.6042 -6.9484 -2.1668 0.9454 0 19
-0.5406 -6.9449 -2.1640 0.9466 0 19
-0.4772 -6.9414 -2.1615 0.9477 0 19
-0.4139 -6.9379 -2.1592 0.9487 0 19
-0.3507 -6.9344 -2.1570 0.9496 0 19
-0.2877 -6.9309 -2.1550 0.9505 0 19
-0.2766 -8.5262 -2.6502 0.2967 0 14
-0.1994 -8.5283 -2.6502 0.2967 0 14
-0.1089 -7.6058 -2.3631 0.9510 0 9
-0.0401 -7.6189 -2.3669 0.9517 0 9
0.0258 -6.8241 -2.1200 0.8637 0 19
0.0872 -6.7948 -2.1111 0.8674 0 19
0.1490 -6.8082 -2.1156 0.8951 0 19
0.2129 -6.8802 -2.1384 0.3897 0 19
0.3038 -7.5923 -2.3605 0.9543 0 9
0.3724 -7.5870 -2.3598 0.9546 0 9
0.4410 -7.5817 -2.3593 0.9548 0 9
0.5095 -7.5764 -2.3590 0.9549 0 9
0.5780 -7.5711 -2.3589 0.9550 0 9
0.5882 -6.8825 -2.1459 0.9545 0 19
0.6478 -6.8487 -2.1371 0.2938 0 19
0.7110 -6.8550 -2.1410 0.2933 0 19
0.7745 -6.8608 -2.1449 0.2927 0 19
0.8381 -6.8660 -2.1488 0.2922 0 19
0.8994 -6.8524 -2.1471 0.3005 0 19
0.9597 -6.8319 -2.1433 0.3011 0 19
1.0268 -6.8583 -2.1544 0.9508 0 19
1.0898 -6.8548 -2.1563 0.9500 0 19
1.2652 -7.5180 -2.3684 0.9511 0 9
1.3343 -7.5127 -2.3704 0.9503 0 9
1.4002 -7.4892 -2.3669 0.9494 0 9
1.6436 -8.3708 -2.6502 0.2967 0 14
1.7193 -8.3556 -2.6502 0.2967 0 14
1.4389 -6.6859 -2.1246 0.4998 0 19
1.4914 -6.6370 -2.1133 0.9308 0 19
1.5518 -6.6250 -2.1139 0.8045 0 19
1.6244 -6.6626 -2.1305 0.1967 0 19
2.0955 -8.2693 -2.6502 0.2967 0 14
2.1703 -8.2500 -2.6502 0.2967 0 14
2.2449 -8.2300 -2.6502 0.2967 0 14
2.3193 -8.2093 -2.6502 0.2967 0 14
2.3935 -8.1880 -2.6502 0.2967 0 14
2.4675 -8.1660 -2.6502 0.2967 0 14
2.5414 -8.1433 -2.6502 0.2967 0 14
2.6150 -8.1200 -2.6502 0.2967 0 14
2.6884 -8.0960 -2.6502 0.2967 0 14
2.7616 -8.0713 -2.6502 0.2967 0 14
2.8345 -8.0460 -2.6502 0.2967 0 14
2.9072 -8.0200 -2.6502 0.2967 0 14
2.9797 -7.9933 -2.6502 0.2967 0 14
3.0519 -7.9660 -2.6502 0.2967 0 14
3.1239 -7.9381 -2.6502 0.2967 0 14
3.1956 -7.9095 -2.6502 0.2967 0 14
3.2671 -7.8802 -2.6502 0.2967 0 14
3.3383 -7.8503 -2.6502 0.2967 0 14
3.4092 -7.8198 -2.6502 0.2967 0 14
3.4799 -7.7886 -2.6502 0.2967 0 14
3.5502 -7.7568 -2.6502 0.2967 0 14
3.6203 -7.7243 -2.6502 0.2967 0 14
3.6901 -7.6913 -2.6502 0.2967 0 14
3.7595 -7.6575 -2.6502 0.2967 0 14
3.8287 -7.6232 -2.6502 0.2967 0 14
3.8975 -7.5882 -2.6502 0.2967 0 14
