ply
format ascii 1.0
element vertex 1370
property float32 x
property float32 y
property float32 z
property float32 CosAngle
property uint32 ObjIdx
property uint32 ObjTag
end_header
13.7533 4.3703 -2.7545 0.1875 0 7
13.7132 4.4946 -2.7545 0.1875 0 7
13.6720 4.6185 -2.7545 0.1875 0 7
13.6297 4.7421 -2.7545 0.1875 0 6
13.5862 4.8652 -2.7545 0.1875 0 6
13.5416 4.9880 -2.7545 0.1875 0 6
13.4959 5.1103 -2.7545 0.1875 0 6
13.4491 5.2322 -2.7545 0.1875 0 7
13.4012 5.3537 -2.7545 0.1875 0 7
13.3522 5.4748 -2.7545 0.1875 0 7
13.3021 5.5953 -2.7545 0.1875 0 7
13.2510 5.7155 -2.7545 0.1875 0 6
13.1987 5.8352 -2.7545 0.1875 0 6
13.1453 5.9544 -2.7545 0.1875 0 6
13.0909 6.0731 -2.7545 0.1875 0 6
13.0354 6.1913 -2.7545 0.1875 0 7
12.9789 6.3090 -2.7545 0.1875 0 7
12.9212 6.4262 -2.7545 0.1875 0 7
12.8626 6.5429 -2.7545 0.1875 0 7
12.8028 6.6590 -2.7545 0.1875 0 6
12.7420 6.7746 -2.7545 0.1875 0 6
12.6802 6.8896 -2.7545 0.1875 0 6
12.6174 7.0041 -2.7545 0.1875 0 6
12.5535 7.1179 -2.7545 0.1875 0 7
12.4885 7.2312 -2.7545 0.1875 0 7
12.4226 7.3440 -2.7545 0.1875 0 7
12.3556 7.4561 -2.7545 0.1875 0 7
12.2877 7.5676 -2.7545 0.1875 0 6
12.2187 7.6785 -2.7545 0.1875 0 6
12.1487 7.7887 -2.7545 0.1875 0 6
12.0777 7.8983 -2.7545 0.1875 0 6
12.0057 8.0073 -2.7545 0.1875 0 7
11.9328 8.1156 -2.7545 0.1875 0 7
11.8589 8.2233 -2.7545 0.1875 0 7
11.7840 8.3302 -2.7545 0.1875 0 7
11.7081 8.4365 -2.7545 0.1875 0 6
11.6313 8.5421 -2.7545 0.1875 0 6
11.5535 8.6470 -2.7545 0.1875 0 6
11.4748 8.7512 -2.7545 0.1875 0 6
11.3951 8.8547 -2.7545 0.1875 0 7
11.3145 8.9575 -2.7545 0.1875 0 7
11.2330 9.0595 -2.7545 0.1875 0 7
11.1506 9.1608 -2.7545 0.1875 0 7
11.0672 9.2613 -2.7545 0.1875 0 6
10.9829 9.3611 -2.7545 0.1875 0 6
10.8978 9.4601 -2.7545 0.1875 0 6
10.8117 9.5583 -2.7545 0.1875 0 6
10.7211 9.6524 -2.7536 0.1844 0 6
10.6247 9.7412 -2.7514 0.1846 0 8
10.5277 9.8290 -2.7492 0.1847 0 8
9.8801 9.3932 -2.6021 0.1875 0 8
9.7947 9.4822 -2.6021 0.1875 0 8
9.7085 9.5705 -2.6021 0.1875 0 8
9.6215 9.6579 -2.6021 0.1875 0 8
9.5337 9.7446 -2.6021 0.1875 0 8
8.3513 8.6920 -2.3008 0.5342 339 5
9.3558 9.9155 -2.6021 0.1875 0 8
9.2657 9.9998 -2.6021 0.1875 0 8
9.1748 10.0832 -2.6021 0.1875 0 8
9.0832 10.1658 -2.6021 0.1875 0 8
8.9908 10.2476 -2.6021 0.1875 0 8
8.8977 10.3285 -2.6021 0.1875 0 8
8.8039 10.4086 -2.6021 0.1875 0 8
8.7093 10.4879 -2.6021 0.1875 0 8
8.6141 10.5662 -2.6021 0.1875 0 8
8.5181 10.6438 -2.6021 0.1875 0 8
8.4214 10.7204 -2.6021 0.1875 0 8
8.3241 10.7962 -2.6021 0.1875 0 8
8.2260 10.8711 -2.6021 0.1875 0 8
8.1273 10.9450 -2.6021 0.1875 0 8
8.0280 11.0181 -2.6021 0.1875 0 8
7.9279 11.0904 -2.6021 0.1875 0 8
7.8273 11.1616 -2.6021 0.1875 0 8
7.7259 11.2320 -2.6021 0.1875 0 8
7.6240 11.3015 -2.6021 0.1875 0 8
7.5214 11.3700 -2.6021 0.1875 0 8
7.4182 11.4376 -2.6021 0.1875 0 8
7.3144 11.5042 -2.6021 0.1875 0 8
7.2100 11.5700 -2.6021 0.1875 0 8
7.1050 11.6347 -2.6021 0.1875 0 8
6.9994 11.6985 -2.6021 0.1875 0 8
6.8933 11.7614 -2.6021 0.1875 0 8
6.7866 11.8233 -2.6021 0.1875 0 8
6.6793 11.8842 -2.6021 0.1875 0 8
6.5715 11.9442 -2.6021 0.1875 0 8
6.4631 12.0032 -2.6021 0.1875 0 8
6.3542 12.0612 -2.6021 0.1875 0 8
6.2448 12.1182 -2.6021 0.1875 0 8
6.1349 12.1742 -2.6021 0.1875 0 8
6.0245 12.2292 -2.6021 0.1875 0 8
5.9136 12.2832 -2.6021 0.1875 0 8
5.8022 12.3362 -2.6021 0.1875 0 8
5.6903 12.3882 -2.6021 0.1875 0 8
5.5780 12.4392 -2.6021 0.1875 0 8
5.4652 12.4892 -2.6021 0.1875 0 8
5.3519 12.5381 -2.6021 0.1875 0 8
5.2383 12.5860 -2.6021 0.1875 0 8
5.1242 12.6329 -2.6021 0.1875 0 8
5.0096 12.6788 -2.6021 0.1875 0 8
4.8947 12.7236 -2.6021 0.1875 0 8
4.7794 12.7674 -2.6021 0.1875 0 8
4.6636 12.8101 -2.6021 0.1875 0 8
4.5475 12.8518 -2.6021 0.1875 0 8
4.4310 12.8924 -2.6021 0.1875 0 8
4.3142 12.9320 -2.6021 0.1875 0 8
4.1970 12.9705 -2.6021 0.1875 0 8
4.0794 13.0079 -2.6021 0.1875 0 8
3.9616 13.0443 -2.6021 0.1875 0 22
3.8434 13.0796 -2.6021 0.1875 0 22
3.7248 13.1139 -2.6021 0.1875 0 22
3.6060 13.1470 -2.6021 0.1875 0 22
3.4869 13.1791 -2.6021 0.1875 0 22
3.3675 13.2102 -2.6021 0.1875 0 22
3.2478 13.2401 -2.6021 0.1875 0 22
3.1279 13.2689 -2.6021 0.1875 0 22
3.0077 13.2967 -2.6021 0.1875 0 22
2.8873 13.3234 -2.6021 0.1875 0 22
2.7666 13.3490 -2.6021 0.1875 0 22
2.6456 13.3734 -2.6021 0.1875 0 22
2.5245 13.3968 -2.6021 0.1875 0 22
2.4032 13.4191 -2.6021 0.1875 0 22
2.2816 13.4403 -2.6021 0.1875 0 22
2.1599 13.4604 -2.6021 0.1875 0 22
2.0380 13.4794 -2.6021 0.1875 0 22
1.9160 13.4973 -2.6021 0.1875 0 22
1.7938 13.5141 -2.6021 0.1875 0 22
1.6714 13.5298 -2.6021 0.1875 0 22
1.5489 13.5443 -2.6021 0.1875 0 22
1.4263 13.5578 -2.6021 0.1875 0 22
1.3035 13.5701 -2.6021 0.1875 0 22
1.1807 13.5814 -2.6021 0.1875 0 22
1.0578 13.5915 -2.6021 0.1875 0 22
0.9347 13.6005 -2.6021 0.1875 0 22
0.8116 13.6084 -2.6021 0.1875 0 22
0.6884 13.6152 -2.6021 0.1875 0 22
0.5652 13.6209 -2.6021 0.1875 0 22
0.4419 13.6254 -2.6021 0.1875 0 22
0.3186 13.6289 -2.6021 0.1875 0 22
0.1952 13.6312 -2.6021 0.1875 0 22
0.0719 13.6324 -2.6021 0.1875 0 22
-0.0515 13.6325 -2.6021 0.1875 0 22
-0.1749 13.6315 -2.6021 0.1875 0 22
-0.2982 13.6293 -2.6021 0.1875 0 22
-0.4215 13.6261 -2.6021 0.1875 0 22
-0.5448 13.6217 -2.6021 0.1875 0 22
-0.6681 13.6162 -2.6021 0.1875 0 22
-0.7912 13.6096 -2.6021 0.1875 0 22
-0.9144 13.6019 -2.6021 0.1875 0 22
-1.0374 13.5931 -2.6021 0.1875 0 22
-1.1604 13.5831 -2.6021 0.1875 0 22
-1.2833 13.5721 -2.6021 0.1875 0 22
-1.4060 13.5599 -2.6021 0.1875 0 22
-1.5287 13.5466 -2.6021 0.1875 0 22
-1.6512 13.5323 -2.6021 0.1875 0 22
-1.7736 13.5168 -2.6021 0.1875 0 22
-1.8958 13.5001 -2.6021 0.1875 0 22
-2.0179 13.4824 -2.6021 0.1875 0 22
-2.1398 13.4636 -2.6021 0.1875 0 22
-2.2616 13.4437 -2.6021 0.1875 0 22
-2.3831 13.4227 -2.6021 0.1875 0 22
-2.5045 13.4006 -2.6021 0.1875 0 22
-2.6257 13.3774 -2.6021 0.1875 0 22
-2.7466 13.3531 -2.6021 0.1875 0 22
-2.8673 13.3277 -2.6021 0.1875 0 22
-2.9878 13.3012 -2.6021 0.1875 0 22
-3.1081 13.2736 -2.6021 0.1875 0 22
-3.2281 13.2449 -2.6021 0.1875 0 22
-3.3478 13.2152 -2.6021 0.1875 0 22
-3.4672 13.1843 -2.6021 0.1875 0 22
-3.5864 13.1524 -2.6021 0.1875 0 22
-3.7053 13.1194 -2.6021 0.1875 0 22
-2.0666 7.0721 -1.4064 0.4117 0 9
-2.0891 6.9160 -1.3790 0.4041 0 9
-2.1207 6.7976 -1.3592 0.8158 0 9
-2.1710 6.7436 -1.3523 0.8185 0 9
-2.2204 6.6891 -1.3453 0.8228 0 9
-2.2694 6.6351 -1.3385 0.8269 0 9
-2.3290 6.6135 -1.3383 0.9183 0 9
-2.3925 6.6024 -1.3404 0.9622 0 9
-2.4551 6.5884 -1.3420 0.9611 0 9
-2.5179 6.5744 -1.3438 0.9598 0 9
-2.5967 6.6008 -1.3539 0.8135 0 9
-2.6734 6.6193 -1.3626 0.8083 0 9
-5.2195 12.5939 -2.6021 0.1875 0 22
-5.3332 12.5461 -2.6021 0.1875 0 22
-5.4465 12.4973 -2.6021 0.1875 0 22
-5.5594 12.4475 -2.6021 0.1875 0 22
-5.6718 12.3967 -2.6021 0.1875 0 22
-5.7838 12.3449 -2.6021 0.1875 0 22
-5.8952 12.2920 -2.6021 0.1875 0 22
-6.0062 12.2382 -2.6021 0.1875 0 22
-6.1167 12.1833 -2.6021 0.1875 0 22
-6.2267 12.1275 -2.6021 0.1875 0 22
-6.3362 12.0706 -2.6021 0.1875 0 22
-6.4452 12.0128 -2.6021 0.1875 0 22
-6.5536 11.9540 -2.6021 0.1875 0 22
-6.6615 11.8942 -2.6021 0.1875 0 22
-6.7689 11.8334 -2.6021 0.1875 0 22
-6.8757 11.7717 -2.6021 0.1875 0 22
-6.9819 11.7090 -2.6021 0.1875 0 22
-7.0876 11.6453 -2.6021 0.1875 0 22
-7.1927 11.5807 -2.6021 0.1875 0 22
-7.2972 11.5152 -2.6021 0.1875 0 22
-7.4011 11.4487 -2.6021 0.1875 0 22
-7.5044 11.3812 -2.6021 0.1875 0 22
-7.6071 11.3129 -2.6021 0.1875 0 22
-7.7091 11.2435 -2.6021 0.1875 0 22
-7.8106 11.1733 -2.6021 0.1875 0 22
-7.9114 11.1022 -2.6021 0.1875 0 22
-8.0115 11.0301 -2.6021 0.1875 0 22
-8.1110 10.9572 -2.6021 0.1875 0 22
-8.2098 10.8833 -2.6021 0.1875 0 22
-8.3079 10.8086 -2.6021 0.1875 0 22
-8.4054 10.7330 -2.6021 0.1875 0 22
-8.5022 10.6565 -2.6021 0.1875 0 22
-8.5983 10.5791 -2.6021 0.1875 0 8
-8.6937 10.5009 -2.6021 0.1875 0 8
-8.7883 10.4218 -2.6021 0.1875 0 8
-8.8823 10.3418 -2.6021 0.1875 0 8
-8.9755 10.2610 -2.6021 0.1875 0 8
-9.0680 10.1794 -2.6021 0.1875 0 8
-9.1597 10.0969 -2.6021 0.1875 0 8
-9.2507 10.0136 -2.6021 0.1875 0 8
-9.3410 9.9295 -2.6021 0.1875 0 8
-9.4304 9.8445 -2.6021 0.1875 0 8
-9.5191 9.7588 -2.6021 0.1875 0 8
-9.6071 9.6722 -2.6021 0.1875 0 8
-9.6942 9.5849 -2.6021 0.1875 0 8
-9.7805 9.4968 -2.6021 0.1875 0 8
-9.8661 9.4079 -2.6021 0.1875 0 8
-9.9508 9.3182 -2.6021 0.1875 0 8
-10.0347 9.2278 -2.6021 0.1875 0 8
-10.1178 9.1366 -2.6021 0.1875 0 8
-10.2001 9.0447 -2.6021 0.1875 0 8
-10.2815 8.9520 -2.6021 0.1875 0 8
-10.3621 8.8586 -2.6021 0.1875 0 8
-10.4418 8.7645 -2.6021 0.1875 0 8
-10.5207 8.6696 -2.6021 0.1875 0 8
-10.5987 8.5741 -2.6021 0.1875 0 8
-10.6759 8.4778 -2.6021 0.1875 0 8
-10.7522 8.3809 -2.6021 0.1875 0 8
-10.8276 8.2832 -2.6021 0.1875 0 8
-10.9021 8.1849 -2.6021 0.1875 0 8
-10.9757 8.0859 -2.6021 0.1875 0 8
-11.0484 7.9863 -2.6021 0.1875 0 8
-11.1202 7.8860 -2.6021 0.1875 0 8
-11.1911 7.7850 -2.6021 0.1875 0 8
-11.2611 7.6834 -2.6021 0.1875 0 8
-11.3302 7.5812 -2.6021 0.1875 0 8
-11.3983 7.4784 -2.6021 0.1875 0 8
-11.4655 7.3749 -2.6021 0.1875 0 8
-11.5318 7.2709 -2.6021 0.1875 0 8
-11.5971 7.1662 -2.6021 0.1875 0 8
-11.6615 7.0610 -2.6021 0.1875 0 8
-11.7249 6.9552 -2.6021 0.1875 0 8
-11.7874 6.8488 -2.6021 0.1875 0 8
-11.8489 6.7419 -2.6021 0.1875 0 8
-11.9094 6.6343 -2.6021 0.1875 0 8
-11.9689 6.5263 -2.6021 0.1875 0 8
-12.0275 6.4177 -2.6021 0.1875 0 8
-12.0851 6.3086 -2.6021 0.1875 0 8
-12.1417 6.1990 -2.6021 0.1875 0 8
-12.1973 6.0889 -2.6021 0.1875 0 8
-12.2519 5.9783 -2.6021 0.1875 0 8
-12.3055 5.8671 -2.6021 0.1875 0 8
-12.3581 5.7555 -2.6021 0.1875 0 8
-13.1199 5.9665 -2.7511 0.1831 0 8
-13.1838 5.8521 -2.7533 0.1830 0 8
-13.2424 5.7353 -2.7545 0.1875 0 7
-13.2938 5.6152 -2.7545 0.1875 0 7
-13.3440 5.4947 -2.7545 0.1875 0 7
-13.3932 5.3737 -2.7545 0.1875 0 7
-13.4413 5.2523 -2.7545 0.1875 0 7
-13.4883 5.1305 -2.7545 0.1875 0 7
-13.5341 5.0082 -2.7545 0.1875 0 7
-13.5789 4.8855 -2.7545 0.1875 0 7
-13.6225 4.7624 -2.7545 0.1875 0 7
-13.6651 4.6390 -2.7545 0.1875 0 7
-13.7065 4.5151 -2.7545 0.1875 0 7
-13.7468 4.3909 -2.7545 0.1875 0 7
-13.7860 4.2663 -2.7545 0.1875 0 7
-13.8240 4.1414 -2.7545 0.1875 0 7
-13.8609 4.0161 -2.7545 0.1875 0 7
-13.8967 3.8905 -2.7545 0.1875 0 7
-13.9313 3.7646 -2.7545 0.1875 0 7
-13.9648 3.6384 -2.7545 0.1875 0 7
-13.9972 3.5119 -2.7545 0.1875 0 7
-14.0284 3.3851 -2.7545 0.1875 0 7
-14.0585 3.2580 -2.7545 0.1875 0 7
-14.0874 3.1306 -2.7545 0.1875 0 7
-14.1151 3.0030 -2.7545 0.1875 0 7
-14.1417 2.8752 -2.7545 0.1875 0 7
-14.1672 2.7471 -2.7545 0.1875 0 7
-14.1914 2.6188 -2.7545 0.1875 0 7
-14.2146 2.4902 -2.7545 0.1875 0 7
-14.2365 2.3615 -2.7545 0.1875 0 7
-14.2573 2.2326 -2.7545 0.1875 0 7
-14.2769 2.1035 -2.7545 0.1875 0 7
-14.2954 1.9742 -2.7545 0.1875 0 7
-14.3126 1.8448 -2.7545 0.1875 0 7
-14.3287 1.7152 -2.7545 0.1875 0 7
-14.3437 1.5854 -2.7545 0.1875 0 7
-14.3574 1.4556 -2.7545 0.1875 0 7
-14.3700 1.3256 -2.7545 0.1875 0 7
-14.3814 1.1955 -2.7545 0.1875 0 7
-14.3917 1.0653 -2.7545 0.1875 0 7
-14.4007 0.9351 -2.7545 0.1875 0 7
-14.4086 0.8047 -2.7545 0.1875 0 7
-14.4153 0.6743 -2.7545 0.1875 0 7
-14.4208 0.5438 -2.7545 0.1875 0 7
-14.4251 0.4133 -2.7545 0.1875 0 7
-14.4283 0.2827 -2.7545 0.1875 0 7
-14.4302 0.1522 -2.7545 0.1875 0 7
-14.4310 0.0216 -2.7545 0.1875 0 7
-14.4306 -0.1090 -2.7545 0.1875 0 7
-14.4290 -0.2396 -2.7545 0.1875 0 7
-14.4263 -0.3702 -2.7545 0.1875 0 7
-14.4223 -0.5007 -2.7545 0.1875 0 7
-14.4172 -0.6312 -2.7545 0.1875 0 7
-14.4109 -0.7616 -2.7545 0.1875 0 7
-14.4034 -0.8920 -2.7545 0.1875 0 7
-14.3948 -1.0223 -2.7545 0.1875 0 7
-14.3849 -1.1525 -2.7545 0.1875 0 7
-14.3739 -1.2826 -2.7545 0.1875 0 7
-14.3617 -1.4127 -2.7545 0.1875 0 7
-14.3483 -1.5426 -2.7545 0.1875 0 7
-14.3338 -1.6723 -2.7545 0.1875 0 7
-14.3181 -1.8020 -2.7545 0.1875 0 7
-14.3012 -1.9315 -2.7545 0.1875 0 7
-14.2831 -2.0608 -2.7545 0.1875 0 7
-14.2639 -2.1900 -2.7545 0.1875 0 7
-14.2435 -2.3190 -2.7545 0.1875 0 7
-14.2219 -2.4478 -2.7545 0.1875 0 7
-14.1992 -2.5763 -2.7545 0.1875 0 7
-14.1753 -2.7047 -2.7545 0.1875 0 7
-14.1502 -2.8329 -2.7545 0.1875 0 7
-14.1240 -2.9608 -2.7545 0.1875 0 7
-14.0967 -3.0885 -2.7545 0.1875 0 7
-14.0681 -3.2160 -2.7545 0.1875 0 7
-14.0385 -3.3431 -2.7545 0.1875 0 7
-14.0076 -3.4700 -2.7545 0.1875 0 7
-13.9757 -3.5966 -2.7545 0.1875 0 7
-13.9425 -3.7230 -2.7545 0.1875 0 7
-13.9083 -3.8490 -2.7545 0.1875 0 7
-13.8729 -3.9747 -2.7545 0.1875 0 7
-13.8363 -4.1000 -2.7545 0.1875 0 7
-13.7987 -4.2251 -2.7545 0.1875 0 7
-13.7599 -4.3498 -2.7545 0.1875 0 7
-13.7199 -4.4741 -2.7545 0.1875 0 7
-13.6789 -4.5981 -2.7545 0.1875 0 7
-13.6367 -4.7217 -2.7545 0.1875 0 7
-13.5934 -4.8449 -2.7545 0.1875 0 7
-13.5490 -4.9677 -2.7545 0.1875 0 7
-13.5035 -5.0901 -2.7545 0.1875 0 7
-13.4569 -5.2121 -2.7545 0.1875 0 7
-13.4092 -5.3337 -2.7545 0.1875 0 7
-13.3604 -5.4548 -2.7545 0.1875 0 7
-13.3105 -5.5755 -2.7545 0.1875 0 7
-13.2595 -5.6957 -2.7545 0.1875 0 7
-13.2074 -5.8154 -2.7545 0.1875 0 7
-13.1542 -5.9347 -2.7545 0.1875 0 7
-13.1000 -6.0535 -2.7545 0.1875 0 7
-13.0447 -6.1718 -2.7545 0.1875 0 7
-12.9883 -6.2896 -2.7545 0.1875 0 7
-12.9308 -6.4069 -2.7545 0.1875 0 7
-12.8723 -6.5236 -2.7545 0.1875 0 7
-12.8128 -6.6398 -2.7545 0.1875 0 7
-12.7522 -6.7555 -2.7545 0.1875 0 7
-12.6905 -6.8706 -2.7545 0.1875 0 7
-12.6278 -6.9852 -2.7545 0.1875 0 7
-12.5641 -7.0992 -2.7545 0.1875 0 7
-12.4993 -7.2126 -2.7545 0.1875 0 7
-12.4336 -7.3254 -2.7545 0.1875 0 7
-12.3668 -7.4376 -2.7545 0.1875 0 7
-12.2990 -7.5492 -2.7545 0.1875 0 7
-12.2301 -7.6602 -2.7545 0.1875 0 7
-12.1603 -7.7705 -2.7545 0.1875 0 7
-12.0895 -7.8803 -2.7545 0.1875 0 7
-12.0177 -7.9893 -2.7545 0.1875 0 7
-11.9449 -8.0978 -2.7545 0.1875 0 7
-11.8711 -8.2055 -2.7545 0.1875 0 7
-11.7964 -8.3126 -2.7545 0.1875 0 7
-11.7207 -8.4190 -2.7545 0.1875 0 7
-11.6440 -8.5247 -2.7545 0.1875 0 7
-11.5664 -8.6298 -2.7545 0.1875 0 7
-11.4878 -8.7341 -2.7545 0.1875 0 7
-11.4083 -8.8377 -2.7545 0.1875 0 7
-11.3279 -8.9405 -2.7545 0.1875 0 7
-11.2465 -9.0427 -2.7545 0.1875 0 7
-11.1642 -9.1441 -2.7545 0.1875 0 7
-11.0810 -9.2447 -2.7545 0.1875 0 7
-10.9969 -9.3446 -2.7545 0.1875 0 7
-10.9119 -9.4438 -2.7545 0.1875 0 7
-10.8260 -9.5421 -2.7545 0.1875 0 7
-10.7392 -9.6397 -2.7545 0.1875 0 7
-10.6515 -9.7365 -2.7545 0.1875 0 7
-10.5630 -9.8325 -2.7545 0.1875 0 7
-10.4736 -9.9277 -2.7545 0.1875 0 7
-10.3833 -10.0220 -2.7545 0.1875 0 7
-10.2922 -10.1156 -2.7545 0.1875 0 7
-10.2002 -10.2083 -2.7545 0.1875 0 7
-10.1075 -10.3002 -2.7545 0.1875 0 7
-10.0138 -10.3912 -2.7545 0.1875 0 7
-9.9194 -10.4814 -2.7545 0.1875 0 7
-9.8241 -10.5708 -2.7545 0.1875 0 7
-9.7281 -10.6592 -2.7545 0.1875 0 7
-9.6312 -10.7468 -2.7545 0.1875 0 7
-9.5336 -10.8335 -2.7545 0.1875 0 7
-9.4352 -10.9194 -2.7545 0.1875 0 7
-9.3360 -11.0043 -2.7545 0.1875 0 7
-9.2360 -11.0883 -2.7545 0.1875 0 7
-9.1353 -11.1714 -2.7545 0.1875 0 7
-9.0338 -11.2536 -2.7545 0.1875 0 7
-8.9316 -11.3349 -2.7545 0.1875 0 7
-8.8287 -11.4153 -2.7545 0.1875 0 7
-8.7250 -11.4947 -2.7545 0.1875 0 7
-8.6206 -11.5732 -2.7545 0.1875 0 7
-8.5136 -11.6480 -2.7539 0.1863 0 8
-8.4010 -11.7151 -2.7517 0.1864 0 8
-8.2880 -11.7811 -2.7495 0.1866 0 8
-8.1744 -11.8461 -2.7472 0.1867 0 8
-7.6408 -11.2901 -2.6021 0.1875 0 8
-7.5384 -11.3587 -2.6021 0.1875 0 8
-7.4353 -11.4265 -2.6021 0.1875 0 8
-7.3316 -11.4933 -2.6021 0.1875 0 8
-7.2273 -11.5592 -2.6021 0.1875 0 8
-7.1224 -11.6241 -2.6021 0.1875 0 8
-7.0169 -11.6881 -2.6021 0.1875 0 8
-6.9108 -11.7511 -2.6021 0.1875 0 8
-6.8042 -11.8132 -2.6021 0.1875 0 8
-6.6971 -11.8742 -2.6021 0.1875 0 8
-6.5893 -11.9344 -2.6021 0.1875 0 8
-6.4810 -11.9935 -2.6021 0.1875 0 8
-6.3723 -12.0517 -2.6021 0.1875 0 8
-6.2629 -12.1088 -2.6021 0.1875 0 8
-6.1531 -12.1650 -2.6021 0.1875 0 8
-6.0428 -12.2202 -2.6021 0.1875 0 8
-5.9319 -12.2744 -2.6021 0.1875 0 8
-5.8206 -12.3276 -2.6021 0.1875 0 8
-5.7088 -12.3797 -2.6021 0.1875 0 8
-5.5966 -12.4309 -2.6021 0.1875 0 8
-5.4839 -12.4810 -2.6021 0.1875 0 8
-5.3707 -12.5301 -2.6021 0.1875 0 8
-5.2571 -12.5782 -2.6021 0.1875 0 8
-5.1430 -12.6253 -2.6021 0.1875 0 8
-5.0286 -12.6713 -2.6021 0.1875 0 8
-4.9137 -12.7163 -2.6021 0.1875 0 8
-4.7984 -12.7602 -2.6021 0.1875 0 8
-3.1291 -8.5553 -1.7388 0.8211 338 5
-3.0631 -8.6156 -1.7453 0.5314 338 5
-4.4503 -12.8858 -2.6021 0.1875 0 8
-4.3335 -12.9255 -2.6021 0.1875 0 8
-4.2164 -12.9642 -2.6021 0.1875 0 8
-4.0989 -13.0018 -2.6021 0.1875 0 8
-3.9811 -13.0384 -2.6021 0.1875 0 8
-3.8629 -13.0739 -2.6021 0.1875 0 8
-3.7445 -13.1083 -2.6021 0.1875 0 8
-3.6257 -13.1416 -2.6021 0.1875 0 8
-3.5066 -13.1739 -2.6021 0.1875 0 8
-3.3872 -13.2051 -2.6021 0.1875 0 8
-3.2676 -13.2352 -2.6021 0.1875 0 8
-3.1477 -13.2642 -2.6021 0.1875 0 8
-3.0276 -13.2922 -2.6021 0.1875 0 8
-2.9071 -13.3190 -2.6021 0.1875 0 8
-2.7865 -13.3448 -2.6021 0.1875 0 8
-2.6656 -13.3695 -2.6021 0.1875 0 8
-2.5445 -13.3930 -2.6021 0.1875 0 8
-2.4232 -13.4155 -2.6021 0.1875 0 8
-2.3017 -13.4369 -2.6021 0.1875 0 8
-2.1800 -13.4572 -2.6021 0.1875 0 8
-2.0582 -13.4763 -2.6021 0.1875 0 8
-1.9361 -13.4944 -2.6021 0.1875 0 8
-1.8140 -13.5114 -2.6021 0.1875 0 8
-1.6916 -13.5272 -2.6021 0.1875 0 8
-1.5691 -13.5420 -2.6021 0.1875 0 8
-1.4465 -13.5556 -2.6021 0.1875 0 8
-1.3238 -13.5682 -2.6021 0.1875 0 8
-1.2010 -13.5796 -2.6021 0.1875 0 8
-1.0780 -13.5899 -2.6021 0.1875 0 8
-0.9550 -13.5991 -2.6021 0.1875 0 8
-0.8319 -13.6072 -2.6021 0.1875 0 8
-0.7088 -13.6142 -2.6021 0.1875 0 8
-0.5855 -13.6200 -2.6021 0.1875 0 8
-0.4622 -13.6248 -2.6021 0.1875 0 8
-0.3389 -13.6284 -2.6021 0.1875 0 8
-0.2156 -13.6309 -2.6021 0.1875 0 8
-0.0922 -13.6323 -2.6021 0.1875 0 8
0.0311 -13.6326 -2.6021 0.1875 0 8
0.1545 -13.6317 -2.6021 0.1875 0 8
0.2778 -13.6298 -2.6021 0.1875 0 8
0.4012 -13.6267 -2.6021 0.1875 0 8
0.3285 -8.5340 -1.6301 0.5759 0 9
0.4008 -8.4268 -1.6103 0.5830 0 9
0.4714 -8.3233 -1.5913 0.7170 0 9
0.5461 -8.3094 -1.5895 0.9942 0 9
0.6212 -8.3036 -1.5894 0.9943 0 9
0.6966 -8.3006 -1.5900 0.8747 0 9
0.7726 -8.3037 -1.5918 0.8488 0 9
0.8522 -8.3404 -1.6003 0.8443 0 9
0.9327 -8.3774 -1.6089 0.8397 0 9
1.0385 -8.6183 -1.6569 0.2482 0 9
1.7535 -13.5194 -2.6021 0.1875 0 8
1.8756 -13.5030 -2.6021 0.1875 0 8
1.9977 -13.4854 -2.6021 0.1875 0 8
2.1197 -13.4668 -2.6021 0.1875 0 8
2.2415 -13.4471 -2.6021 0.1875 0 8
2.3631 -13.4262 -2.6021 0.1875 0 8
2.4845 -13.4043 -2.6021 0.1875 0 8
2.6057 -13.3813 -2.6021 0.1875 0 8
2.7267 -13.3571 -2.6021 0.1875 0 8
2.8474 -13.3319 -2.6021 0.1875 0 8
2.9679 -13.3056 -2.6021 0.1875 0 8
3.0882 -13.2782 -2.6021 0.1875 0 8
3.2082 -13.2497 -2.6021 0.1875 0 8
3.3280 -13.2201 -2.6021 0.1875 0 8
3.4475 -13.1895 -2.6021 0.1875 0 8
3.5667 -13.1577 -2.6021 0.1875 0 8
3.6856 -13.1249 -2.6021 0.1875 0 8
3.8043 -13.0910 -2.6021 0.1875 0 8
3.9226 -13.0561 -2.6021 0.1875 0 8
4.0406 -13.0201 -2.6021 0.1875 0 8
4.1582 -12.9830 -2.6021 0.1875 0 8
4.2755 -12.9448 -2.6021 0.1875 0 8
4.3925 -12.9056 -2.6021 0.1875 0 8
4.5091 -12.8653 -2.6021 0.1875 0 8
4.6253 -12.8240 -2.6021 0.1875 0 8
4.7412 -12.7816 -2.6021 0.1875 0 8
4.8573 -12.7380 -2.6021 0.1875 0 8
4.9717 -12.6937 -2.6021 0.1875 0 8
5.0866 -12.6481 -2.6021 0.1875 0 8
5.2008 -12.6016 -2.6021 0.1875 0 8
3.1867 -7.5277 -1.5603 0.9589 0 5
5.4278 -12.5055 -2.6021 0.1875 0 8
5.5408 -12.4558 -2.6021 0.1875 0 8
5.6533 -12.4052 -2.6021 0.1875 0 8
5.7653 -12.3535 -2.6021 0.1875 0 8
5.8769 -12.3008 -2.6021 0.1875 0 8
5.9879 -12.2471 -2.6021 0.1875 0 8
6.0985 -12.1925 -2.6021 0.1875 0 8
6.2086 -12.1368 -2.6021 0.1875 0 8
6.3182 -12.0801 -2.6021 0.1875 0 8
6.4272 -12.0224 -2.6021 0.1875 0 8
6.5357 -11.9638 -2.6021 0.1875 0 8
6.6437 -11.9041 -2.6021 0.1875 0 8
6.7512 -11.8435 -2.6021 0.1875 0 8
6.8581 -11.7820 -2.6021 0.1875 0 8
6.9644 -11.7194 -2.6021 0.1875 0 8
7.0702 -11.6559 -2.6021 0.1875 0 8
7.1754 -11.5915 -2.6021 0.1875 0 8
7.2800 -11.5261 -2.6021 0.1875 0 8
7.3840 -11.4597 -2.6021 0.1875 0 8
7.4874 -11.3924 -2.6021 0.1875 0 8
7.5902 -11.3242 -2.6021 0.1875 0 8
7.6923 -11.2550 -2.6021 0.1875 0 8
7.7939 -11.1850 -2.6021 0.1875 0 8
7.8948 -11.1140 -2.6021 0.1875 0 8
7.9950 -11.0421 -2.6021 0.1875 0 8
8.0946 -10.9693 -2.6021 0.1875 0 8
8.1935 -10.8956 -2.6021 0.1875 0 8
8.2918 -10.8210 -2.6021 0.1875 0 8
8.3894 -10.7455 -2.6021 0.1875 0 8
8.4863 -10.6692 -2.6021 0.1875 0 8
8.5825 -10.5919 -2.6021 0.1875 0 8
8.6780 -10.5139 -2.6021 0.1875 0 8
8.7727 -10.4349 -2.6021 0.1875 0 8
8.8668 -10.3551 -2.6021 0.1875 0 8
8.9602 -10.2744 -2.6021 0.1875 0 8
9.0528 -10.1929 -2.6021 0.1875 0 8
9.1446 -10.1106 -2.6021 0.1875 0 8
9.2357 -10.0274 -2.6021 0.1875 0 8
9.3261 -9.9434 -2.6021 0.1875 0 8
9.4157 -9.8586 -2.6021 0.1875 0 8
9.5045 -9.7730 -2.6021 0.1875 0 8
9.5926 -9.6866 -2.6021 0.1875 0 8
9.6798 -9.5994 -2.6021 0.1875 0 8
9.7663 -9.5114 -2.6021 0.1875 0 8
9.8520 -9.4226 -2.6021 0.1875 0 8
9.9369 -9.3331 -2.6021 0.1875 0 8
10.0209 -9.2428 -2.6021 0.1875 0 8
10.1041 -9.1518 -2.6021 0.1875 0 8
10.1865 -9.0599 -2.6021 0.1875 0 8
10.2681 -8.9674 -2.6021 0.1875 0 8
10.3488 -8.8741 -2.6021 0.1875 0 8
10.4287 -8.7801 -2.6021 0.1875 0 8
10.5077 -8.6854 -2.6021 0.1875 0 8
10.5859 -8.5899 -2.6021 0.1875 0 8
10.6632 -8.4938 -2.6021 0.1875 0 8
10.7396 -8.3969 -2.6021 0.1875 0 8
10.8152 -8.2994 -2.6021 0.1875 0 8
10.8898 -8.2012 -2.6021 0.1875 0 8
10.9636 -8.1023 -2.6021 0.1875 0 8
11.0365 -8.0028 -2.6021 0.1875 0 8
11.1084 -7.9026 -2.6021 0.1875 0 8
11.1795 -7.8017 -2.6021 0.1875 0 8
11.2496 -7.7003 -2.6021 0.1875 0 8
11.3189 -7.5981 -2.6021 0.1875 0 8
11.3871 -7.4954 -2.6021 0.1875 0 8
11.4545 -7.3921 -2.6021 0.1875 0 8
11.5209 -7.2881 -2.6021 0.1875 0 8
11.5864 -7.1835 -2.6021 0.1875 0 8
11.6509 -7.0784 -2.6021 0.1875 0 8
11.7145 -6.9727 -2.6021 0.1875 0 8
11.7771 -6.8664 -2.6021 0.1875 0 8
11.8388 -6.7596 -2.6021 0.1875 0 8
11.8995 -6.6521 -2.6021 0.1875 0 8
11.9592 -6.5442 -2.6021 0.1875 0 8
12.0179 -6.4357 -2.6021 0.1875 0 8
12.0756 -6.3267 -2.6021 0.1875 0 8
12.1324 -6.2171 -2.6021 0.1875 0 8
12.1882 -6.1071 -2.6021 0.1875 0 8
12.2429 -5.9966 -2.6021 0.1875 0 8
12.2967 -5.8855 -2.6021 0.1875 0 8
12.3495 -5.7740 -2.6021 0.1875 0 8
12.4012 -5.6620 -2.6021 0.1875 0 8
12.4519 -5.5496 -2.6021 0.1875 0 8
12.6656 -5.5079 -2.6363 0.2031 0 8
13.2507 -5.6204 -2.7474 0.1894 0 8
13.3115 -5.5046 -2.7495 0.1893 0 8
13.3714 -5.3882 -2.7517 0.1891 0 8
13.4303 -5.2712 -2.7539 0.1881 0 8
13.4806 -5.1506 -2.7545 0.1875 0 7
13.5266 -5.0284 -2.7545 0.1875 0 7
13.5716 -4.9058 -2.7545 0.1875 0 7
13.6154 -4.7828 -2.7545 0.1875 0 7
13.6581 -4.6594 -2.7545 0.1875 0 7
13.6997 -4.5356 -2.7545 0.1875 0 6
13.7402 -4.4114 -2.7545 0.1875 0 6
13.7796 -4.2869 -2.7545 0.1875 0 6
13.8178 -4.1620 -2.7545 0.1875 0 6
13.8549 -4.0368 -2.7545 0.1875 0 7
13.8909 -3.9113 -2.7545 0.1875 0 7
13.9257 -3.7854 -2.7545 0.1875 0 7
13.9594 -3.6592 -2.7545 0.1875 0 7
13.9919 -3.5328 -2.7545 0.1875 0 7
14.0233 -3.4060 -2.7545 0.1875 0 6
14.0536 -3.2790 -2.7545 0.1875 0 6
14.0827 -3.1517 -2.7545 0.1875 0 6
14.1106 -3.0241 -2.7545 0.1875 0 6
14.1374 -2.8963 -2.7545 0.1875 0 7
14.1630 -2.7682 -2.7545 0.1875 0 7
14.1875 -2.6400 -2.7545 0.1875 0 7
14.2108 -2.5115 -2.7545 0.1875 0 7
14.2329 -2.3828 -2.7545 0.1875 0 6
14.2539 -2.2539 -2.7545 0.1875 0 6
14.2737 -2.1248 -2.7545 0.1875 0 6
14.2924 -1.9956 -2.7545 0.1875 0 6
14.3099 -1.8661 -2.7545 0.1875 0 7
14.3262 -1.7366 -2.7545 0.1875 0 7
14.3413 -1.6069 -2.7545 0.1875 0 7
14.3552 -1.4770 -2.7545 0.1875 0 7
14.3680 -1.3471 -2.7545 0.1875 0 6
14.3796 -1.2170 -2.7545 0.1875 0 6
14.3900 -1.0868 -2.7545 0.1875 0 6
14.3993 -0.9566 -2.7545 0.1875 0 6
14.4074 -0.8262 -2.7545 0.1875 0 7
14.4142 -0.6958 -2.7545 0.1875 0 7
14.4199 -0.5653 -2.7545 0.1875 0 7
14.4245 -0.4348 -2.7545 0.1875 0 7
14.4278 -0.3043 -2.7545 0.1875 0 6
14.4300 -0.1737 -2.7545 0.1875 0 6
14.4310 -0.0431 -2.7545 0.1875 0 6
14.4308 0.0875 -2.7545 0.1875 0 6
14.4294 0.2181 -2.7545 0.1875 0 7
14.4268 0.3486 -2.7545 0.1875 0 7
14.4231 0.4792 -2.7545 0.1875 0 7
14.4181 0.6096 -2.7545 0.1875 0 7
14.4120 0.7401 -2.7545 0.1875 0 6
14.4048 0.8705 -2.7545 0.1875 0 6
14.3963 1.0008 -2.7545 0.1875 0 6
14.3866 1.1310 -2.7545 0.1875 0 6
14.3758 1.2612 -2.7545 0.1875 0 7
14.3638 1.3912 -2.7545 0.1875 0 7
14.3506 1.5211 -2.7545 0.1875 0 7
14.3363 1.6509 -2.7545 0.1875 0 7
14.3208 1.7806 -2.7545 0.1875 0 6
14.3040 1.9101 -2.7545 0.1875 0 6
14.2862 2.0395 -2.7545 0.1875 0 6
14.2671 2.1687 -2.7545 0.1875 0 6
14.2469 2.2977 -2.7545 0.1875 0 7
14.2256 2.4265 -2.7545 0.1875 0 7
14.2030 2.5551 -2.7545 0.1875 0 7
14.1793 2.6836 -2.7545 0.1875 0 7
14.1544 2.8118 -2.7545 0.1875 0 6
14.1284 2.9397 -2.7545 0.1875 0 6
14.1012 3.0675 -2.7545 0.1875 0 6
14.0729 3.1949 -2.7545 0.1875 0 6
14.0434 3.3222 -2.7545 0.1875 0 7
14.0128 3.4491 -2.7545 0.1875 0 7
13.9810 3.5758 -2.7545 0.1875 0 7
13.9481 3.7021 -2.7545 0.1875 0 7
13.9140 3.8282 -2.7545 0.1875 0 6
13.8788 3.9540 -2.7545 0.1875 0 6
13.8424 4.0794 -2.7545 0.1875 0 6
13.8050 4.2045 -2.7545 0.1875 0 7
13.7663 4.3292 -2.7545 0.1875 0 7
13.7266 4.4536 -2.7545 0.1875 0 7
13.6857 4.5777 -2.7545 0.1875 0 7
13.6438 4.7013 -2.7545 0.1875 0 6
13.6007 4.8246 -2.7545 0.1875 0 6
13.5564 4.9475 -2.7545 0.1875 0 6
13.5111 5.0699 -2.7545 0.1875 0 6
13.4647 5.1920 -2.7545 0.1875 0 7
13.4172 5.3136 -2.7545 0.1875 0 7
13.3685 5.4348 -2.7545 0.1875 0 7
13.3188 5.5556 -2.7545 0.1875 0 7
13.2680 5.6759 -2.7545 0.1875 0 6
13.2161 5.7957 -2.7545 0.1875 0 6
13.1631 5.9151 -2.7545 0.1875 0 6
13.1090 6.0339 -2.7545 0.1875 0 6
13.0539 6.1523 -2.7545 0.1875 0 7
12.9977 6.2702 -2.7545 0.1875 0 7
12.9404 6.3875 -2.7545 0.1875 0 7
12.8821 6.5044 -2.7545 0.1875 0 7
12.8227 6.6207 -2.7545 0.1875 0 6
12.7622 6.7365 -2.7545 0.1875 0 6
12.7008 6.8517 -2.7545 0.1875 0 6
12.6382 6.9663 -2.7545 0.1875 0 6
12.5747 7.0804 -2.7545 0.1875 0 7
12.5101 7.1939 -2.7545 0.1875 0 7
12.4445 7.3068 -2.7545 0.1875 0 7
12.3778 7.4191 -2.7545 0.1875 0 7
12.3102 7.5308 -2.7545 0.1875 0 6
12.2416 7.6419 -2.7545 0.1875 0 6
12.1719 7.7524 -2.7545 0.1875 0 6
12.1012 7.8622 -2.7545 0.1875 0 6
12.0296 7.9714 -2.7545 0.1875 0 7
11.9570 8.0799 -2.7545 0.1875 0 7
11.8834 8.1878 -2.7545 0.1875 0 7
11.8088 8.2950 -2.7545 0.1875 0 7
11.7333 8.4015 -2.7545 0.1875 0 6
11.6567 8.5073 -2.7545 0.1875 0 6
11.5793 8.6125 -2.7545 0.1875 0 6
11.5009 8.7169 -2.7545 0.1875 0 6
11.4215 8.8206 -2.7545 0.1875 0 7
11.3412 8.9236 -2.7545 0.1875 0 7
11.2600 9.0259 -2.7545 0.1875 0 7
11.1779 9.1274 -2.7545 0.1875 0 7
11.0948 9.2282 -2.7545 0.1875 0 7
11.0109 9.3282 -2.7545 0.1875 0 6
10.9260 9.4275 -2.7545 0.1875 0 6
10.8402 9.5259 -2.7545 0.1875 0 6
10.7527 9.6229 -2.7543 0.1844 0 6
10.6566 9.7120 -2.7521 0.1845 0 8
10.5598 9.8001 -2.7499 0.1847 0 8
10.4623 9.8873 -2.7477 0.1848 0 8
9.8230 9.4529 -2.6021 0.1875 0 8
9.7370 9.5414 -2.6021 0.1875 0 8
9.6503 9.6291 -2.6021 0.1875 0 8
9.5628 9.7160 -2.6021 0.1875 0 8
9.4745 9.8022 -2.6021 0.1875 0 8
9.3854 9.8875 -2.6021 0.1875 0 8
9.2955 9.9720 -2.6021 0.1875 0 8
9.2049 10.0557 -2.6021 0.1875 0 8
9.1135 10.1386 -2.6021 0.1875 0 8
9.0214 10.2207 -2.6021 0.1875 0 8
8.9285 10.3019 -2.6021 0.1875 0 8
8.8349 10.3823 -2.6021 0.1875 0 8
8.7406 10.4618 -2.6021 0.1875 0 8
8.6456 10.5405 -2.6021 0.1875 0 8
8.5499 10.6183 -2.6021 0.1875 0 8
8.4534 10.6952 -2.6021 0.1875 0 8
8.3563 10.7713 -2.6021 0.1875 0 8
8.2585 10.8464 -2.6021 0.1875 0 8
8.1600 10.9207 -2.6021 0.1875 0 8
8.0609 10.9941 -2.6021 0.1875 0 8
7.9610 11.0666 -2.6021 0.1875 0 8
7.8606 11.1382 -2.6021 0.1875 0 8
7.7594 11.2089 -2.6021 0.1875 0 8
7.6577 11.2786 -2.6021 0.1875 0 8
7.5553 11.3475 -2.6021 0.1875 0 8
7.4523 11.4154 -2.6021 0.1875 0 8
7.3487 11.4824 -2.6021 0.1875 0 8
7.2445 11.5484 -2.6021 0.1875 0 8
7.1397 11.6135 -2.6021 0.1875 0 8
7.0343 11.6776 -2.6021 0.1875 0 8
6.9284 11.7408 -2.6021 0.1875 0 8
6.8218 11.8030 -2.6021 0.1875 0 8
6.7148 11.8642 -2.6021 0.1875 0 8
6.6071 11.9245 -2.6021 0.1875 0 8
6.4990 11.9838 -2.6021 0.1875 0 8
6.3902 12.0421 -2.6021 0.1875 0 8
6.2810 12.0995 -2.6021 0.1875 0 8
6.1713 12.1558 -2.6021 0.1875 0 8
6.0610 12.2111 -2.6021 0.1875 0 8
5.9502 12.2655 -2.6021 0.1875 0 8
5.8390 12.3188 -2.6021 0.1875 0 8
5.7273 12.3712 -2.6021 0.1875 0 8
5.6151 12.4225 -2.6021 0.1875 0 8
5.5025 12.4728 -2.6021 0.1875 0 8
5.3894 12.5221 -2.6021 0.1875 0 8
5.2758 12.5703 -2.6021 0.1875 0 8
5.1619 12.6176 -2.6021 0.1875 0 8
5.0475 12.6637 -2.6021 0.1875 0 8
4.9327 12.7089 -2.6021 0.1875 0 8
4.8175 12.7530 -2.6021 0.1875 0 8
4.7019 12.7961 -2.6021 0.1875 0 8
4.5859 12.8381 -2.6021 0.1875 0 8
4.4695 12.8791 -2.6021 0.1875 0 8
4.3528 12.9190 -2.6021 0.1875 0 8
4.2357 12.9579 -2.6021 0.1875 0 8
4.1183 12.9957 -2.6021 0.1875 0 8
4.0005 13.0324 -2.6021 0.1875 0 22
3.8824 13.0681 -2.6021 0.1875 0 22
3.7640 13.1027 -2.6021 0.1875 0 22
3.6453 13.1362 -2.6021 0.1875 0 22
3.5263 13.1687 -2.6021 0.1875 0 22
3.4070 13.2000 -2.6021 0.1875 0 22
3.2874 13.2303 -2.6021 0.1875 0 22
3.1675 13.2595 -2.6021 0.1875 0 22
3.0474 13.2876 -2.6021 0.1875 0 22
2.9270 13.3147 -2.6021 0.1875 0 22
2.8065 13.3406 -2.6021 0.1875 0 22
2.6856 13.3655 -2.6021 0.1875 0 22
2.5645 13.3892 -2.6021 0.1875 0 22
2.4432 13.4119 -2.6021 0.1875 0 22
2.3218 13.4334 -2.6021 0.1875 0 22
2.2001 13.4539 -2.6021 0.1875 0 22
2.0783 13.4733 -2.6021 0.1875 0 22
1.9563 13.4915 -2.6021 0.1875 0 22
1.8341 13.5087 -2.6021 0.1875 0 22
1.7118 13.5247 -2.6021 0.1875 0 22
1.5893 13.5396 -2.6021 0.1875 0 22
1.4668 13.5535 -2.6021 0.1875 0 22
1.3441 13.5662 -2.6021 0.1875 0 22
1.2212 13.5778 -2.6021 0.1875 0 22
1.0982 13.5883 -2.6021 0.1875 0 22
0.9753 13.5977 -2.6021 0.1875 0 22
0.8522 13.6059 -2.6021 0.1875 0 22
0.7291 13.6131 -2.6021 0.1875 0 22
0.6058 13.6191 -2.6021 0.1875 0 22
0.4826 13.6241 -2.6021 0.1875 0 22
0.3593 13.6279 -2.6021 0.1875 0 22
0.2360 13.6306 -2.6021 0.1875 0 22
0.1126 13.6321 -2.6021 0.1875 0 22
-0.0108 13.6326 -2.6021 0.1875 0 22
-0.1341 13.6319 -2.6021 0.1875 0 22
-0.2575 13.6302 -2.6021 0.1875 0 22
-0.3808 13.6273 -2.6021 0.1875 0 22
-0.5041 13.6233 -2.6021 0.1875 0 22
-0.6274 13.6182 -2.6021 0.1875 0 22
-0.7506 13.6119 -2.6021 0.1875 0 22
-0.8737 13.6046 -2.6021 0.1875 0 22
-0.9968 13.5961 -2.6021 0.1875 0 22
-1.1198 13.5865 -2.6021 0.1875 0 22
-1.2427 13.5758 -2.6021 0.1875 0 22
-1.3655 13.5641 -2.6021 0.1875 0 22
-1.4882 13.5511 -2.6021 0.1875 0 22
-1.6107 13.5371 -2.6021 0.1875 0 22
-1.7332 13.5220 -2.6021 0.1875 0 22
-1.8555 13.5057 -2.6021 0.1875 0 22
-1.9776 13.4884 -2.6021 0.1875 0 22
-2.0996 13.4700 -2.6021 0.1875 0 22
-2.2214 13.4504 -2.6021 0.1875 0 22
-2.3430 13.4298 -2.6021 0.1875 0 22
-2.4644 13.4080 -2.6021 0.1875 0 22
-2.5857 13.3851 -2.6021 0.1875 0 22
-2.7067 13.3612 -2.6021 0.1875 0 22
-2.8275 13.3362 -2.6021 0.1875 0 22
-2.9481 13.3100 -2.6021 0.1875 0 22
-3.0684 13.2828 -2.6021 0.1875 0 22
-3.1885 13.2545 -2.6021 0.1875 0 22
-3.3083 13.2251 -2.6021 0.1875 0 22
-3.4278 13.1946 -2.6021 0.1875 0 22
-3.5471 13.1631 -2.6021 0.1875 0 22
-3.6660 13.1304 -2.6021 0.1875 0 22
-3.7847 13.0967 -2.6021 0.1875 0 22
-2.0819 6.9672 -1.3880 0.4015 0 9
-2.1039 6.8154 -1.3615 0.8144 0 9
-2.1545 6.7617 -1.3546 0.8186 0 9
-2.2042 6.7070 -1.3476 0.8214 0 9
-2.2533 6.6529 -1.3407 0.8256 0 9
-2.3077 6.6160 -1.3375 0.9189 0 9
-2.3719 6.6071 -1.3399 0.9626 0 9
-2.4344 6.5930 -1.3415 0.9614 0 9
-2.4971 6.5790 -1.3432 0.9602 0 9
-2.5716 6.5948 -1.3511 0.8152 0 9
-2.6480 6.6132 -1.3597 0.8100 0 9
-2.7254 6.6319 -1.3686 0.8048 0 9
-5.2957 12.5620 -2.6021 0.1875 0 22
-5.4092 12.5136 -2.6021 0.1875 0 22
-5.5222 12.4641 -2.6021 0.1875 0 22
-5.6347 12.4136 -2.6021 0.1875 0 22
-5.7469 12.3621 -2.6021 0.1875 0 22
-5.8585 12.3096 -2.6021 0.1875 0 22
-5.9696 12.2561 -2.6021 0.1875 0 22
-6.0803 12.2016 -2.6021 0.1875 0 22
-6.1905 12.1460 -2.6021 0.1875 0 22
-6.3001 12.0895 -2.6021 0.1875 0 22
-6.4093 12.0320 -2.6021 0.1875 0 22
-6.5179 11.9735 -2.6021 0.1875 0 22
-6.6260 11.9141 -2.6021 0.1875 0 22
-6.7335 11.8536 -2.6021 0.1875 0 22
-6.8405 11.7922 -2.6021 0.1875 0 22
-6.9469 11.7298 -2.6021 0.1875 0 22
-7.0528 11.6665 -2.6021 0.1875 0 22
-7.1581 11.6022 -2.6021 0.1875 0 22
-7.2627 11.5369 -2.6021 0.1875 0 22
-7.3669 11.4707 -2.6021 0.1875 0 22
-7.4704 11.4036 -2.6021 0.1875 0 22
-7.5732 11.3355 -2.6021 0.1875 0 22
-7.6755 11.2665 -2.6021 0.1875 0 22
-7.7771 11.1966 -2.6021 0.1875 0 22
-7.8781 11.1258 -2.6021 0.1875 0 22
-7.9785 11.0540 -2.6021 0.1875 0 22
-8.0782 10.9814 -2.6021 0.1875 0 22
-8.1772 10.9078 -2.6021 0.1875 0 22
-8.2756 10.8334 -2.6021 0.1875 0 22
-8.3733 10.7581 -2.6021 0.1875 0 22
-8.4703 10.6818 -2.6021 0.1875 0 22
-8.5666 10.6047 -2.6021 0.1875 0 8
-8.6622 10.5268 -2.6021 0.1875 0 8
-8.7572 10.4480 -2.6021 0.1875 0 8
-8.8513 10.3683 -2.6021 0.1875 0 8
-8.9448 10.2878 -2.6021 0.1875 0 8
-9.0375 10.2064 -2.6021 0.1875 0 8
-9.1295 10.1242 -2.6021 0.1875 0 8
12.8523 -0.0000 -2.7545 0.2096 0 7
12.8518 0.1163 -2.7545 0.2096 0 7
12.8502 0.2326 -2.7545 0.2096 0 7
12.8476 0.3489 -2.7545 0.2096 0 7
12.8439 0.4651 -2.7545 0.2096 0 6
12.8392 0.5813 -2.7545 0.2096 0 6
12.8334 0.6975 -2.7545 0.2096 0 6
12.8266 0.8136 -2.7545 0.2096 0 6
12.8187 0.9296 -2.7545 0.2096 0 7
12.8098 1.0456 -2.7545 0.2096 0 7
12.7998 1.1615 -2.7545 0.2096 0 7
12.7887 1.2772 -2.7545 0.2096 0 7
12.7767 1.3929 -2.7545 0.2096 0 6
12.7635 1.5085 -2.7545 0.2096 0 6
12.7493 1.6239 -2.7545 0.2096 0 6
12.7341 1.7392 -2.7545 0.2096 0 6
12.7179 1.8544 -2.7545 0.2096 0 6
12.7006 1.9694 -2.7545 0.2096 0 7
12.6822 2.0842 -2.7545 0.2096 0 7
12.6628 2.1989 -2.7545 0.2096 0 7
12.6424 2.3134 -2.7545 0.2096 0 7
12.6210 2.4277 -2.7545 0.2096 0 6
12.5985 2.5418 -2.7545 0.2096 0 6
12.5750 2.6557 -2.7545 0.2096 0 6
12.5504 2.7694 -2.7545 0.2096 0 6
12.5249 2.8829 -2.7545 0.2096 0 7
12.4983 2.9961 -2.7545 0.2096 0 7
12.4706 3.1091 -2.7545 0.2096 0 7
12.4420 3.2218 -2.7545 0.2096 0 7
12.4123 3.3342 -2.7545 0.2096 0 7
12.3816 3.4464 -2.7545 0.2096 0 6
12.3499 3.5583 -2.7545 0.2096 0 6
12.3172 3.6699 -2.7545 0.2096 0 6
12.2835 3.7812 -2.7545 0.2096 0 6
12.2488 3.8923 -2.7545 0.2096 0 7
12.2131 4.0029 -2.7545 0.2096 0 7
12.1764 4.1133 -2.7545 0.2096 0 7
12.1386 4.2233 -2.7545 0.2096 0 7
12.0999 4.3330 -2.7545 0.2096 0 6
12.0602 4.4423 -2.7545 0.2096 0 6
12.0195 4.5512 -2.7545 0.2096 0 6
11.9779 4.6598 -2.7545 0.2096 0 6
11.9352 4.7680 -2.7545 0.2096 0 6
11.8916 4.8758 -2.7545 0.2096 0 7
11.8469 4.9832 -2.7545 0.2096 0 7
11.8014 5.0903 -2.7545 0.2096 0 7
11.7548 5.1968 -2.7545 0.2096 0 7
11.7073 5.3030 -2.7545 0.2096 0 6
11.6588 5.4087 -2.7545 0.2096 0 6
11.6094 5.5140 -2.7545 0.2096 0 6
11.5591 5.6188 -2.7545 0.2096 0 6
11.5077 5.7232 -2.7545 0.2096 0 7
11.4555 5.8271 -2.7545 0.2096 0 7
11.4023 5.9305 -2.7545 0.2096 0 7
11.3481 6.0335 -2.7545 0.2096 0 7
11.2931 6.1359 -2.7545 0.2096 0 7
11.2371 6.2378 -2.7545 0.2096 0 6
11.1802 6.3393 -2.7545 0.2096 0 6
11.1224 6.4402 -2.7545 0.2096 0 7
11.0636 6.5406 -2.7545 0.2096 0 7
11.0040 6.6404 -2.7545 0.2096 0 7
10.9435 6.7397 -2.7545 0.2096 0 7
10.8820 6.8385 -2.7545 0.2096 0 7
10.8197 6.9367 -2.7545 0.2096 0 7
10.7565 7.0343 -2.7545 0.2096 0 7
10.6924 7.1313 -2.7545 0.2096 0 7
10.6274 7.2278 -2.7545 0.2096 0 7
10.5616 7.3237 -2.7545 0.2096 0 7
10.4949 7.4190 -2.7545 0.2096 0 7
10.4273 7.5136 -2.7545 0.2096 0 7
10.3589 7.6077 -2.7545 0.2096 0 7
10.2896 7.7011 -2.7545 0.2096 0 7
10.2195 7.7939 -2.7545 0.2096 0 7
10.1486 7.8860 -2.7545 0.2096 0 7
10.0768 7.9776 -2.7545 0.2096 0 7
10.0042 8.0684 -2.7545 0.2096 0 7
9.9308 8.1586 -2.7545 0.2096 0 7
9.8565 8.2481 -2.7545 0.2096 0 7
9.7815 8.3370 -2.7545 0.2096 0 7
9.7056 8.4252 -2.7545 0.2096 0 7
9.6265 8.5105 -2.7538 0.2103 0 8
9.5423 8.5911 -2.7519 0.2104 0 8
9.4575 8.6710 -2.7499 0.2106 0 8
9.3720 8.7500 -2.7480 0.2107 0 8
8.9750 8.5327 -2.6541 0.1835 0 8
8.7232 8.4449 -2.6021 0.2096 0 8
8.6464 8.5235 -2.6021 0.2096 0 8
8.5689 8.6014 -2.6021 0.2096 0 8
8.4907 8.6786 -2.6021 0.2096 0 8
8.3516 8.6923 -2.5835 0.5318 339 5
8.3323 8.8308 -2.6021 0.2096 0 8
8.2520 8.9058 -2.6021 0.2096 0 8
8.1711 8.9801 -2.6021 0.2096 0 8
8.0895 9.0537 -2.6021 0.2096 0 8
8.0073 9.1266 -2.6021 0.2096 0 8
7.9244 9.1986 -2.6021 0.2096 0 8
7.8408 9.2700 -2.6021 0.2096 0 8
7.7566 9.3406 -2.6021 0.2096 0 8
7.6718 9.4104 -2.6021 0.2096 0 8
7.5863 9.4794 -2.6021 0.2096 0 8
7.5002 9.5477 -2.6021 0.2096 0 8
7.4135 9.6152 -2.6021 0.2096 0 8
7.3262 9.6818 -2.6021 0.2096 0 8
7.2383 9.7477 -2.6021 0.2096 0 8
7.1497 9.8129 -2.6021 0.2096 0 8
7.0607 9.8771 -2.6021 0.2096 0 8
6.9710 9.9406 -2.6021 0.2096 0 8
6.8807 10.0033 -2.6021 0.2096 0 8
6.7899 10.0652 -2.6021 0.2096 0 8
6.6986 10.1262 -2.6021 0.2096 0 8
6.6067 10.1864 -2.6021 0.2096 0 8
6.5142 10.2457 -2.6021 0.2096 0 8
6.4212 10.3043 -2.6021 0.2096 0 8
6.3277 10.3620 -2.6021 0.2096 0 8
6.2337 10.4188 -2.6021 0.2096 0 8
6.1392 10.4748 -2.6021 0.2096 0 8
6.0441 10.5299 -2.6021 0.2096 0 8
5.9486 10.5842 -2.6021 0.2096 0 8
5.8526 10.6376 -2.6021 0.2096 0 8
5.7561 10.6901 -2.6021 0.2096 0 8
5.6591 10.7417 -2.6021 0.2096 0 8
5.5617 10.7925 -2.6021 0.2096 0 8
5.4638 10.8424 -2.6021 0.2096 0 8
5.3654 10.8914 -2.6021 0.2096 0 8
5.2667 10.9395 -2.6021 0.2096 0 8
5.1675 10.9867 -2.6021 0.2096 0 8
5.0678 11.0330 -2.6021 0.2096 0 8
4.9678 11.0784 -2.6021 0.2096 0 8
4.8673 11.1229 -2.6021 0.2096 0 8
4.7665 11.1665 -2.6021 0.2096 0 8
4.6652 11.2092 -2.6021 0.2096 0 8
4.5636 11.2510 -2.6021 0.2096 0 8
4.4616 11.2918 -2.6021 0.2096 0 8
4.3592 11.3317 -2.6021 0.2096 0 8
4.2565 11.3707 -2.6021 0.2096 0 8
4.1535 11.4087 -2.6021 0.2096 0 8
4.0500 11.4459 -2.6021 0.2096 0 8
3.9463 11.4820 -2.6021 0.2096 0 8
3.8422 11.5173 -2.6021 0.2096 0 8
3.7379 11.5516 -2.6021 0.2096 0 8
3.6332 11.5849 -2.6021 0.2096 0 8
3.5282 11.6173 -2.6021 0.2096 0 8
3.4229 11.6488 -2.6021 0.2096 0 8
3.3174 11.6793 -2.6021 0.2096 0 8
3.2115 11.7088 -2.6021 0.2096 0 8
3.1054 11.7374 -2.6021 0.2096 0 8
2.9991 11.7650 -2.6021 0.2096 0 8
2.8925 11.7917 -2.6021 0.2096 0 8
2.7857 11.8174 -2.6021 0.2096 0 8
2.6787 11.8421 -2.6021 0.2096 0 8
2.5714 11.8659 -2.6021 0.2096 0 8
2.4639 11.8886 -2.6021 0.2096 0 8
2.3562 11.9104 -2.6021 0.2096 0 8
2.2483 11.9313 -2.6021 0.2096 0 8
2.1403 11.9512 -2.6021 0.2096 0 8
2.0321 11.9700 -2.6021 0.2096 0 8
1.9236 11.9879 -2.6021 0.2096 0 8
1.8151 12.0048 -2.6021 0.2096 0 8
1.7064 12.0208 -2.6021 0.2096 0 8
1.5975 12.0357 -2.6021 0.2096 0 8
1.4886 12.0497 -2.6021 0.2096 0 8
1.3795 12.0627 -2.6021 0.2096 0 8
1.2702 12.0746 -2.6021 0.2096 0 8
1.1609 12.0857 -2.6021 0.2096 0 8
1.0515 12.0957 -2.6021 0.2096 0 8
0.9420 12.1047 -2.6021 0.2096 0 8
0.8324 12.1127 -2.6021 0.2096 0 8
0.7228 12.1198 -2.6021 0.2096 0 8
0.6131 12.1258 -2.6021 0.2096 0 8
0.5033 12.1308 -2.6021 0.2096 0 8
0.3935 12.1349 -2.6021 0.2096 0 8
0.2837 12.1380 -2.6021 0.2096 0 8
0.1739 12.1400 -2.6021 0.2096 0 8
0.0640 12.1411 -2.6021 0.2096 0 8
-0.0459 12.1412 -2.6021 0.2096 0 8
-0.1557 12.1403 -2.6021 0.2096 0 22
-0.2656 12.1384 -2.6021 0.2096 0 22
-0.3754 12.1355 -2.6021 0.2096 0 22
-0.4852 12.1316 -2.6021 0.2096 0 22
-0.5949 12.1267 -2.6021 0.2096 0 22
-0.7047 12.1208 -2.6021 0.2096 0 22
-0.8143 12.1139 -2.6021 0.2096 0 22
-0.9239 12.1061 -2.6021 0.2096 0 22
-1.0334 12.0972 -2.6021 0.2096 0 22
-1.1429 12.0874 -2.6021 0.2096 0 22
-1.2522 12.0765 -2.6021 0.2096 0 22
-1.3614 12.0647 -2.6021 0.2096 0 22
-1.4706 12.0519 -2.6021 0.2096 0 22
-1.5796 12.0381 -2.6021 0.2096 0 22
-1.6884 12.0233 -2.6021 0.2096 0 22
-1.7971 12.0075 -2.6021 0.2096 0 22
-1.9057 11.9908 -2.6021 0.2096 0 22
-2.0142 11.9730 -2.6021 0.2096 0 22
-2.1224 11.9543 -2.6021 0.2096 0 22
-2.2305 11.9346 -2.6021 0.2096 0 22
-2.3384 11.9140 -2.6021 0.2096 0 22
-2.4461 11.8923 -2.6021 0.2096 0 22
-2.5537 11.8697 -2.6021 0.2096 0 22
-2.6610 11.8461 -2.6021 0.2096 0 22
-2.7681 11.8215 -2.6021 0.2096 0 22
-2.8749 11.7960 -2.6021 0.2096 0 22
-2.9815 11.7695 -2.6021 0.2096 0 22
-3.0879 11.7420 -2.6021 0.2096 0 22
-3.1941 11.7136 -2.6021 0.2096 0 22
-3.2999 11.6842 -2.6021 0.2096 0 22
-2.0768 7.1069 -1.5869 0.4079 0 9
-2.0974 6.9435 -1.5546 0.3858 0 9
-2.1253 6.8123 -1.5294 0.7592 0 9
-2.1714 6.7448 -1.5186 0.7646 0 9
-2.2197 6.6870 -1.5101 0.8728 0 9
-2.2691 6.6343 -1.5027 0.8771 0 9
-2.3309 6.6188 -1.5039 0.9572 0 9
-2.3966 6.6137 -1.5077 0.9548 0 9
-2.4610 6.6043 -1.5105 0.9359 0 9
-2.5240 6.5905 -1.5125 0.9347 0 9
-2.6046 6.6208 -1.5248 0.6586 0 9
-2.6887 6.6571 -1.5387 0.6987 0 9
-4.6485 11.2162 -2.6021 0.2096 0 22
-4.7498 11.1736 -2.6021 0.2096 0 22
-4.8507 11.1302 -2.6021 0.2096 0 22
-4.9512 11.0859 -2.6021 0.2096 0 22
-5.0513 11.0406 -2.6021 0.2096 0 8
-5.1510 10.9944 -2.6021 0.2096 0 8
-5.2503 10.9474 -2.6021 0.2096 0 8
-5.3492 10.8994 -2.6021 0.2096 0 8
-5.4476 10.8505 -2.6021 0.2096 0 8
-5.5455 10.8008 -2.6021 0.2096 0 8
-5.6431 10.7502 -2.6021 0.2096 0 8
-5.7401 10.6987 -2.6021 0.2096 0 8
-5.8367 10.6463 -2.6021 0.2096 0 8
-5.9328 10.5930 -2.6021 0.2096 0 8
-6.0284 10.5389 -2.6021 0.2096 0 8
-6.1235 10.4839 -2.6021 0.2096 0 8
-6.2181 10.4281 -2.6021 0.2096 0 8
-6.3123 10.3714 -2.6021 0.2096 0 8
-6.4058 10.3139 -2.6021 0.2096 0 8
-6.4989 10.2555 -2.6021 0.2096 0 8
-6.5915 10.1962 -2.6021 0.2096 0 8
-6.6835 10.1362 -2.6021 0.2096 0 8
-6.7749 10.0753 -2.6021 0.2096 0 8
-6.8658 10.0136 -2.6021 0.2096 0 8
-6.9561 9.9510 -2.6021 0.2096 0 8
-7.0459 9.8877 -2.6021 0.2096 0 8
-7.1351 9.8235 -2.6021 0.2096 0 8
-7.2237 9.7585 -2.6021 0.2096 0 8
-7.3117 9.6928 -2.6021 0.2096 0 8
-7.3991 9.6262 -2.6021 0.2096 0 8
-7.4859 9.5589 -2.6021 0.2096 0 8
-7.5721 9.4907 -2.6021 0.2096 0 8
-7.6577 9.4218 -2.6021 0.2096 0 8
-7.7426 9.3521 -2.6021 0.2096 0 8
-7.8269 9.2817 -2.6021 0.2096 0 8
-7.9106 9.2105 -2.6021 0.2096 0 8
-7.9936 9.1385 -2.6021 0.2096 0 8
-8.0760 9.0658 -2.6021 0.2096 0 8
-8.1577 8.9924 -2.6021 0.2096 0 8
-8.2387 8.9182 -2.6021 0.2096 0 8
-8.3191 8.8432 -2.6021 0.2096 0 8
-8.3988 8.7676 -2.6021 0.2096 0 8
-8.4778 8.6912 -2.6021 0.2096 0 8
-8.5561 8.6142 -2.6021 0.2096 0 8
-8.6337 8.5364 -2.6021 0.2096 0 8
-8.7106 8.4579 -2.6021 0.2096 0 8
-8.7868 8.3788 -2.6021 0.2096 0 8
-8.8622 8.2989 -2.6021 0.2096 0 8
-8.9370 8.2184 -2.6021 0.2096 0 8
-9.0110 8.1372 -2.6021 0.2096 0 8
-9.0842 8.0553 -2.6021 0.2096 0 8
-9.1568 7.9727 -2.6021 0.2096 0 8
-9.2285 7.8896 -2.6021 0.2096 0 8
-9.2995 7.8057 -2.6021 0.2096 0 8
-9.3698 7.7212 -2.6021 0.2096 0 8
-9.4393 7.6361 -2.6021 0.2096 0 8
-9.5080 7.5504 -2.6021 0.2096 0 8
-9.5759 7.4641 -2.6021 0.2096 0 8
-9.6431 7.3771 -2.6021 0.2096 0 8
-9.7094 7.2895 -2.6021 0.2096 0 8
-9.7750 7.2014 -2.6021 0.2096 0 8
-9.8398 7.1126 -2.6021 0.2096 0 8
-9.9037 7.0233 -2.6021 0.2096 0 8
-9.9669 6.9334 -2.6021 0.2096 0 8
-10.0292 6.8429 -2.6021 0.2096 0 8
-10.0907 6.7519 -2.6021 0.2096 0 8
-10.1514 6.6603 -2.6021 0.2096 0 8
-10.2113 6.5682 -2.6021 0.2096 0 8
-10.2703 6.4755 -2.6021 0.2096 0 8
-10.3285 6.3823 -2.6021 0.2096 0 8
-10.3858 6.2885 -2.6021 0.2096 0 8
-10.4423 6.1943 -2.6021 0.2096 0 8
-10.4979 6.0996 -2.6021 0.2096 0 8
-10.5527 6.0043 -2.6021 0.2096 0 8
-10.6066 5.9086 -2.6021 0.2096 0 8
-10.6596 5.8124 -2.6021 0.2096 0 8
-10.7118 5.7157 -2.6021 0.2096 0 8
-10.7630 5.6185 -2.6021 0.2096 0 8
-10.8135 5.5209 -2.6021 0.2096 0 8
-10.8630 5.4228 -2.6021 0.2096 0 8
-10.9116 5.3242 -2.6021 0.2096 0 8
-10.9593 5.2253 -2.6021 0.2096 0 8
-11.0062 5.1259 -2.6021 0.2096 0 8
-11.0521 5.0261 -2.6021 0.2096 0 8
-11.7217 5.2031 -2.7486 0.2088 0 8
-11.7768 5.1005 -2.7506 0.2086 0 8
-11.8309 4.9973 -2.7526 0.2085 0 8
-11.8842 4.8936 -2.7545 0.2083 0 8
-11.9281 4.7859 -2.7545 0.2096 0 7
-11.9709 4.6777 -2.7545 0.2096 0 7
-12.0127 4.5692 -2.7545 0.2096 0 7
-12.0536 4.4603 -2.7545 0.2096 0 7
-12.0934 4.3511 -2.7545 0.2096 0 7
-12.1323 4.2415 -2.7545 0.2096 0 7
-12.1702 4.1315 -2.7545 0.2096 0 7
-12.2071 4.0212 -2.7545 0.2096 0 7
-12.2430 3.9106 -2.7545 0.2096 0 7
-12.2779 3.7996 -2.7545 0.2096 0 7
-12.3117 3.6883 -2.7545 0.2096 0 7
-12.3446 3.5768 -2.7545 0.2096 0 7
-12.3765 3.4649 -2.7545 0.2096 0 7
-12.4073 3.3528 -2.7545 0.2096 0 7
-12.4372 3.2404 -2.7545 0.2096 0 7
-12.4660 3.1277 -2.7545 0.2096 0 7
-12.4938 3.0148 -2.7545 0.2096 0 7
-12.5205 2.9016 -2.7545 0.2096 0 7
-12.5463 2.7882 -2.7545 0.2096 0 7
-12.5710 2.6745 -2.7545 0.2096 0 7
-12.5947 2.5607 -2.7545 0.2096 0 7
-12.6173 2.4466 -2.7545 0.2096 0 7
-12.6390 2.3323 -2.7545 0.2096 0 7
-12.6596 2.2178 -2.7545 0.2096 0 7
-12.6791 2.1032 -2.7545 0.2096 0 7
-12.6976 1.9884 -2.7545 0.2096 0 7
-12.7151 1.8734 -2.7545 0.2096 0 7
-12.7315 1.7582 -2.7545 0.2096 0 7
-12.7469 1.6429 -2.7545 0.2096 0 7
-12.7613 1.5275 -2.7545 0.2096 0 7
-12.7746 1.4120 -2.7545 0.2096 0 7
-12.7868 1.2964 -2.7545 0.2096 0 7
-12.7980 1.1806 -2.7545 0.2096 0 7
-12.8082 1.0647 -2.7545 0.2096 0 7
-12.8173 0.9488 -2.7545 0.2096 0 7
-12.8254 0.8327 -2.7545 0.2096 0 7
-12.8324 0.7167 -2.7545 0.2096 0 7
-12.8383 0.6005 -2.7545 0.2096 0 7
-12.8432 0.4843 -2.7545 0.2096 0 7
-12.8471 0.3681 -2.7545 0.2096 0 7
-12.8499 0.2518 -2.7545 0.2096 0 7
-12.8516 0.1355 -2.7545 0.2096 0 7
-12.8523 0.0192 -2.7545 0.2096 0 7
-12.8520 -0.0971 -2.7545 0.2096 0 7
-12.8506 -0.2134 -2.7545 0.2096 0 7
-12.8481 -0.3297 -2.7545 0.2096 0 7
-12.8446 -0.4459 -2.7545 0.2096 0 7
-12.8401 -0.5621 -2.7545 0.2096 0 7
-12.8344 -0.6783 -2.7545 0.2096 0 7
-12.8278 -0.7944 -2.7545 0.2096 0 7
-12.8201 -0.9105 -2.7545 0.2096 0 7
-12.8113 -1.0264 -2.7545 0.2096 0 7
-12.8015 -1.1423 -2.7545 0.2096 0 7
-12.7906 -1.2581 -2.7545 0.2096 0 7
-12.7787 -1.3738 -2.7545 0.2096 0 7
-12.7658 -1.4894 -2.7545 0.2096 0 7
-12.7518 -1.6049 -2.7545 0.2096 0 7
-12.7367 -1.7202 -2.7545 0.2096 0 7
-12.7206 -1.8354 -2.7545 0.2096 0 7
-12.7035 -1.9504 -2.7545 0.2096 0 7
-12.6853 -2.0653 -2.7545 0.2096 0 7
-12.6661 -2.1800 -2.7545 0.2096 0 7
-12.6459 -2.2945 -2.7545 0.2096 0 7
-12.6246 -2.4089 -2.7545 0.2096 0 7
-12.6023 -2.5230 -2.7545 0.2096 0 7
-12.5789 -2.6369 -2.7545 0.2096 0 7
-12.5546 -2.7507 -2.7545 0.2096 0 7
-12.5292 -2.8642 -2.7545 0.2096 0 7
-12.5027 -2.9774 -2.7545 0.2096 0 7
-12.4753 -3.0904 -2.7545 0.2096 0 7
-12.4468 -3.2032 -2.7545 0.2096 0 7
-12.4173 -3.3157 -2.7545 0.2096 0 7
-12.3868 -3.4279 -2.7545 0.2096 0 7
-12.3553 -3.5399 -2.7545 0.2096 0 7
-12.3227 -3.6515 -2.7545 0.2096 0 7
-12.2892 -3.7629 -2.7545 0.2096 0 7
-12.2546 -3.8740 -2.7545 0.2096 0 7
-12.2191 -3.9847 -2.7545 0.2096 0 7
-12.1825 -4.0951 -2.7545 0.2096 0 7
-12.1449 -4.2052 -2.7545 0.2096 0 7
-12.1064 -4.3149 -2.7545 0.2096 0 7
-12.0669 -4.4243 -2.7545 0.2096 0 7
-12.0263 -4.5333 -2.7545 0.2096 0 7
-11.9848 -4.6419 -2.7545 0.2096 0 7
-11.9423 -4.7502 -2.7545 0.2096 0 7
-11.8988 -4.8581 -2.7545 0.2096 0 7
-11.8544 -4.9655 -2.7545 0.2096 0 7
-11.8090 -5.0726 -2.7545 0.2096 0 7
-11.7626 -5.1793 -2.7545 0.2096 0 7
-11.7152 -5.2855 -2.7545 0.2096 0 7
-11.6669 -5.3913 -2.7545 0.2096 0 7
-11.6177 -5.4966 -2.7545 0.2096 0 7
-11.5674 -5.6015 -2.7545 0.2096 0 7
-11.5163 -5.7060 -2.7545 0.2096 0 7
-11.4642 -5.8100 -2.7545 0.2096 0 7
-11.4111 -5.9135 -2.7545 0.2096 0 7
-11.3571 -6.0165 -2.7545 0.2096 0 7
-11.3022 -6.1190 -2.7545 0.2096 0 7
-11.2464 -6.2211 -2.7545 0.2096 0 7
-11.1897 -6.3226 -2.7545 0.2096 0 7
-11.1320 -6.4236 -2.7545 0.2096 0 7
-11.0734 -6.5240 -2.7545 0.2096 0 7
-11.0139 -6.6240 -2.7545 0.2096 0 7
-10.9535 -6.7234 -2.7545 0.2096 0 7
-10.8922 -6.8222 -2.7545 0.2096 0 7
-10.8300 -6.9205 -2.7545 0.2096 0 7
-10.7670 -7.0182 -2.7545 0.2096 0 7
-10.7030 -7.1154 -2.7545 0.2096 0 7
-10.6382 -7.2119 -2.7545 0.2096 0 7
-10.5725 -7.3079 -2.7545 0.2096 0 7
-10.5059 -7.4033 -2.7545 0.2096 0 7
-10.4385 -7.4980 -2.7545 0.2096 0 7
-10.3702 -7.5922 -2.7545 0.2096 0 7
-10.3011 -7.6857 -2.7545 0.2096 0 7
-10.2311 -7.7786 -2.7545 0.2096 0 7
-10.1603 -7.8709 -2.7545 0.2096 0 7
-10.0887 -7.9625 -2.7545 0.2096 0 7
-10.0162 -8.0535 -2.7545 0.2096 0 7
-9.9429 -8.1438 -2.7545 0.2096 0 7
-9.8688 -8.2334 -2.7545 0.2096 0 7
-9.7939 -8.3224 -2.7545 0.2096 0 7
-9.7182 -8.4107 -2.7545 0.2096 0 7
-9.6417 -8.4983 -2.7545 0.2096 0 7
-9.5644 -8.5852 -2.7545 0.2096 0 7
-9.4863 -8.6714 -2.7545 0.2096 0 7
-9.4075 -8.7569 -2.7545 0.2096 0 6
-9.3278 -8.8416 -2.7545 0.2096 0 6
-9.2475 -8.9257 -2.7545 0.2096 0 6
-9.1663 -9.0090 -2.7545 0.2096 0 6
-9.0844 -9.0916 -2.7545 0.2096 0 7
-9.0018 -9.1734 -2.7545 0.2096 0 7
-8.9184 -9.2545 -2.7545 0.2096 0 7
-8.8343 -9.3348 -2.7545 0.2096 0 7
-8.7494 -9.4144 -2.7545 0.2096 0 7
-8.6639 -9.4932 -2.7545 0.2096 0 6
-8.5776 -9.5712 -2.7545 0.2096 0 6
-8.4907 -9.6484 -2.7545 0.2096 0 6
-8.4030 -9.7248 -2.7545 0.2096 0 6
-8.3147 -9.8005 -2.7545 0.2096 0 6
-8.2256 -9.8753 -2.7545 0.2096 0 7
-8.1359 -9.9493 -2.7545 0.2096 0 7
-8.0456 -10.0226 -2.7545 0.2096 0 7
-7.9545 -10.0950 -2.7545 0.2096 0 7
-7.8629 -10.1665 -2.7545 0.2096 0 7
-7.7706 -10.2373 -2.7545 0.2096 0 7
-7.6776 -10.3072 -2.7545 0.2096 0 7
-7.5831 -10.3751 -2.7542 0.2114 0 8
-7.4837 -10.4359 -2.7523 0.2115 0 8
-7.3837 -10.4958 -2.7504 0.2117 0 8
