ply
format ascii 1.0
element vertex 1347
property float32 x
property float32 y
property float32 z
property float32 CosAngle
property uint32 ObjIdx
property uint32 ObjTag
end_header
17.0865 -30.2179 -2.6436 0.0728 0 14
17.3547 -30.0546 -2.6429 0.0728 0 14
17.6214 -29.8890 -2.6423 0.0728 0 14
17.8864 -29.7209 -2.6416 0.0729 0 14
18.1497 -29.5502 -2.6409 0.0729 0 14
18.4114 -29.3772 -2.6402 0.0729 0 14
18.6714 -29.2018 -2.6395 0.0729 0 14
18.9296 -29.0240 -2.6388 0.0729 0 14
19.1861 -28.8438 -2.6381 0.0730 0 14
19.4408 -28.6612 -2.6374 0.0730 0 14
19.6937 -28.4763 -2.6366 0.0730 0 14
19.9448 -28.2891 -2.6359 0.0730 0 14
20.1941 -28.0996 -2.6351 0.0730 0 14
20.4415 -27.9078 -2.6344 0.0731 0 14
20.6870 -27.7137 -2.6336 0.0731 0 14
20.9307 -27.5175 -2.6328 0.0731 0 14
15.7659 -20.3430 -1.9600 0.8168 0 19
15.9521 -20.2032 -1.9603 0.8554 0 19
21.6499 -26.9153 -2.6305 0.0732 0 14
21.8858 -26.7103 -2.6297 0.0732 0 14
22.1196 -26.5031 -2.6289 0.0732 0 14
22.3514 -26.2938 -2.6280 0.0732 0 14
22.5811 -26.0824 -2.6272 0.0733 0 14
22.8088 -25.8689 -2.6264 0.0733 0 14
23.0345 -25.6533 -2.6255 0.0733 0 14
23.2580 -25.4358 -2.6247 0.0733 0 14
23.4794 -25.2162 -2.6238 0.0734 0 14
23.6986 -24.9946 -2.6230 0.0734 0 14
23.9158 -24.7710 -2.6221 0.0734 0 14
24.1307 -24.5456 -2.6212 0.0734 0 14
24.3435 -24.3181 -2.6203 0.0735 0 14
24.5541 -24.0888 -2.6195 0.0735 0 14
24.7625 -23.8576 -2.6186 0.0735 0 14
24.9686 -23.6245 -2.6177 0.0735 0 14
25.1725 -23.3897 -2.6168 0.0736 0 14
25.3741 -23.1530 -2.6158 0.0736 0 14
25.5734 -22.9145 -2.6149 0.0736 0 14
25.7704 -22.6742 -2.6140 0.0736 0 14
25.9651 -22.4322 -2.6131 0.0737 0 14
26.1575 -22.1885 -2.6121 0.0737 0 14
26.3476 -21.9431 -2.6112 0.0737 0 14
26.5352 -21.6961 -2.6102 0.0737 0 14
26.7206 -21.4474 -2.6093 0.0738 0 14
26.9134 -21.2049 -2.6093 0.0759 0 8
27.1041 -20.9606 -2.6093 0.0759 0 8
27.2925 -20.7147 -2.6093 0.0759 0 8
27.4787 -20.4670 -2.6093 0.0759 0 8
27.6627 -20.2177 -2.6093 0.0759 0 8
27.8444 -19.9667 -2.6093 0.0759 0 8
28.0238 -19.7141 -2.6093 0.0759 0 8
28.2010 -19.4598 -2.6093 0.0759 0 8
28.3758 -19.2040 -2.6093 0.0759 0 8
28.5483 -18.9466 -2.6093 0.0759 0 8
28.7185 -18.6877 -2.6093 0.0759 0 8
28.8863 -18.4272 -2.6093 0.0759 0 8
29.0517 -18.1652 -2.6093 0.0759 0 8
29.2148 -17.9017 -2.6093 0.0759 0 8
29.3755 -17.6368 -2.6093 0.0759 0 8
29.5338 -17.3705 -2.6093 0.0759 0 8
29.6897 -17.1027 -2.6093 0.0759 0 8
29.8431 -16.8335 -2.6093 0.0759 0 8
29.9941 -16.5629 -2.6093 0.0759 0 8
30.1427 -16.2910 -2.6093 0.0759 0 8
30.2888 -16.0177 -2.6093 0.0759 0 8
30.4324 -15.7432 -2.6093 0.0759 0 8
30.5988 -15.4801 -2.6114 0.3402 0 8
31.3457 -15.5036 -2.6631 0.4039 0 8
32.1331 -15.5330 -2.7179 0.3957 0 8
32.7214 -15.4539 -2.7558 0.0824 0 8
32.9164 -15.1834 -2.7605 0.0822 0 8
33.0661 -14.8914 -2.7617 0.0759 0 7
33.1995 -14.5917 -2.7617 0.0759 0 7
33.3301 -14.2909 -2.7617 0.0759 0 7
33.4579 -13.9889 -2.7617 0.0759 0 7
33.5831 -13.6858 -2.7617 0.0759 0 7
33.7055 -13.3815 -2.7617 0.0759 0 7
33.8251 -13.0762 -2.7617 0.0759 0 7
33.9419 -12.7698 -2.7617 0.0759 0 7
34.0560 -12.4623 -2.7617 0.0759 0 7
34.1673 -12.1538 -2.7617 0.0759 0 7
34.2758 -11.8443 -2.7617 0.0759 0 7
34.3816 -11.5339 -2.7617 0.0759 0 7
34.4844 -11.2225 -2.7617 0.0759 0 7
34.5845 -10.9102 -2.7617 0.0759 0 7
34.6818 -10.5970 -2.7617 0.0759 0 7
34.7762 -10.2829 -2.7617 0.0759 0 7
34.8678 -9.9680 -2.7617 0.0759 0 7
34.9565 -9.6523 -2.7617 0.0759 0 6
35.0423 -9.3358 -2.7617 0.0759 0 7
35.1253 -9.0185 -2.7617 0.0759 0 7
35.2054 -8.7005 -2.7617 0.0759 0 7
35.2827 -8.3818 -2.7617 0.0759 0 7
35.3570 -8.0624 -2.7617 0.0759 0 7
35.4285 -7.7423 -2.7617 0.0759 0 7
35.4971 -7.4216 -2.7617 0.0759 0 7
35.5627 -7.1003 -2.7617 0.0759 0 7
35.6255 -6.7784 -2.7617 0.0759 0 7
35.6853 -6.4559 -2.7617 0.0759 0 7
35.7423 -6.1330 -2.7617 0.0759 0 6
35.7961 -5.8094 -2.7617 0.0759 0 7
35.8473 -5.4856 -2.7617 0.0759 0 7
35.8955 -5.1612 -2.7617 0.0759 0 7
35.9407 -4.8363 -2.7617 0.0759 0 7
35.9829 -4.5111 -2.7617 0.0759 0 7
36.0223 -4.1855 -2.7617 0.0759 0 7
36.0586 -3.8596 -2.7617 0.0759 0 7
36.0921 -3.5334 -2.7617 0.0759 0 7
36.1225 -3.2068 -2.7617 0.0759 0 7
36.1501 -2.8800 -2.7617 0.0759 0 7
36.1746 -2.5530 -2.7617 0.0759 0 7
36.1963 -2.2259 -2.7617 0.0759 0 7
36.2149 -1.8983 -2.7617 0.0759 0 7
36.2306 -1.5708 -2.7617 0.0759 0 7
36.2433 -1.2431 -2.7617 0.0759 0 7
36.2531 -0.9153 -2.7617 0.0759 0 7
36.2598 -0.5874 -2.7617 0.0759 0 7
36.2637 -0.2594 -2.7617 0.0759 0 7
36.2645 0.0685 -2.7617 0.0759 0 7
36.2624 0.3965 -2.7617 0.0759 0 7
36.2574 0.7244 -2.7617 0.0759 0 7
36.2493 1.0522 -2.7617 0.0759 0 6
36.2383 1.3800 -2.7617 0.0759 0 7
36.2244 1.7076 -2.7617 0.0759 0 7
36.2075 2.0351 -2.7617 0.0759 0 7
36.1876 2.3625 -2.7617 0.0759 0 7
36.1647 2.6896 -2.7617 0.0759 0 7
22.4822 1.8766 -1.7180 0.3743 0 10
21.3784 1.9793 -1.6350 0.2004 0 10
20.2386 2.0585 -1.5492 0.7220 0 10
20.1850 2.2377 -1.5466 0.8160 0 10
20.1780 2.4218 -1.5476 0.7771 0 10
20.1777 2.6071 -1.5494 0.7775 0 10
20.1862 2.7940 -1.5519 0.8437 0 10
20.2042 2.9830 -1.5553 0.8188 0 10
20.2284 3.1737 -1.5593 0.7758 0 10
33.7999 5.6166 -2.6093 0.0759 0 8
33.7477 5.9221 -2.6093 0.0759 0 8
33.6928 6.2270 -2.6093 0.0759 0 8
33.6351 6.5317 -2.6093 0.0759 0 8
33.5746 6.8353 -2.6093 0.0759 0 8
33.5115 7.1387 -2.6093 0.0759 0 8
33.4455 7.4414 -2.6093 0.0759 0 8
33.3769 7.7436 -2.6093 0.0759 0 8
33.3055 8.0451 -2.6093 0.0759 0 8
33.2314 8.3459 -2.6093 0.0759 0 8
33.1545 8.6461 -2.6093 0.0759 0 8
33.0750 8.9456 -2.6093 0.0759 0 8
32.9928 9.2443 -2.6093 0.0759 0 8
32.9078 9.5423 -2.6093 0.0759 0 8
32.8202 9.8395 -2.6093 0.0759 0 8
32.7298 10.1359 -2.6093 0.0759 0 8
32.6368 10.4314 -2.6093 0.0759 0 8
32.5412 10.7262 -2.6093 0.0759 0 8
32.4428 11.0200 -2.6093 0.0759 0 8
32.3419 11.3129 -2.6093 0.0759 0 8
31.2165 11.2372 -2.5266 0.2829 0 19
32.1320 11.8960 -2.6093 0.0759 0 8
31.2099 11.8766 -2.5430 0.3372 0 19
31.9116 12.4752 -2.6093 0.0759 0 8
29.7614 11.9460 -2.4422 0.3704 0 19
31.6807 13.0503 -2.6093 0.0759 0 8
28.1149 11.8799 -2.3243 0.8952 0 19
31.4395 13.6211 -2.6093 0.0759 0 8
31.3151 13.9048 -2.6093 0.0759 0 8
25.6138 11.6518 -2.1429 0.4761 0 19
25.0909 11.6889 -2.1079 0.4840 0 19
24.8725 11.8621 -2.0985 0.0759 0 19
24.7642 12.0865 -2.0985 0.0759 0 19
24.8249 12.3953 -2.1131 0.5075 0 19
24.5415 12.5324 -2.0985 0.0759 0 19
24.5011 12.7924 -2.1048 0.8490 0 19
30.2281 16.1321 -2.6093 0.0759 0 8
30.0809 16.4047 -2.6093 0.0759 0 8
29.9313 16.6761 -2.6093 0.0759 0 8
29.7793 16.9461 -2.6093 0.0759 0 8
29.6249 17.2147 -2.6093 0.0759 0 8
29.4680 17.4819 -2.6093 0.0759 0 8
17.7937 10.7748 -1.5841 0.6538 0 19
29.1470 18.0120 -2.6093 0.0759 0 8
28.9829 18.2748 -2.6093 0.0759 0 8
28.8165 18.5362 -2.6093 0.0759 0 8
28.6477 18.7960 -2.6093 0.0759 0 8
28.4765 19.0543 -2.6093 0.0759 0 8
28.3030 19.3110 -2.6093 0.0759 0 8
28.1273 19.5662 -2.6093 0.0759 0 8
27.9492 19.8197 -2.6093 0.0759 0 8
17.6027 12.7235 -1.6540 0.1447 0 19
27.5861 20.3220 -2.6093 0.0759 0 8
27.4012 20.5706 -2.6093 0.0759 0 8
27.2141 20.8176 -2.6093 0.0759 0 8
27.0247 21.0628 -2.6093 0.0759 0 8
26.8331 21.3063 -2.6093 0.0759 0 8
26.6394 21.5482 -2.6093 0.0759 0 8
26.4434 21.7882 -2.6093 0.0759 0 8
26.2453 22.0264 -2.6093 0.0759 0 8
26.0450 22.2628 -2.6093 0.0759 0 8
25.8427 22.4974 -2.6093 0.0759 0 8
25.6382 22.7302 -2.6093 0.0759 0 8
6.0993 5.5068 -0.6258 0.9195 0 5
25.2229 23.1902 -2.6093 0.0759 0 8
25.0121 23.4174 -2.6093 0.0759 0 8
24.7993 23.6426 -2.6093 0.0759 0 8
24.5845 23.8659 -2.6093 0.0759 0 8
24.3677 24.0872 -2.6093 0.0759 0 8
24.1489 24.3066 -2.6093 0.0759 0 8
23.9281 24.5240 -2.6093 0.0759 0 8
23.7053 24.7394 -2.6093 0.0759 0 8
23.4806 24.9527 -2.6093 0.0759 0 8
23.2540 25.1640 -2.6093 0.0759 0 8
23.0255 25.3733 -2.6093 0.0759 0 8
22.7951 25.5805 -2.6093 0.0759 0 8
22.5628 25.7856 -2.6093 0.0759 0 8
22.3287 25.9886 -2.6093 0.0759 0 8
22.0928 26.1894 -2.6093 0.0759 0 8
21.8551 26.3881 -2.6093 0.0759 0 8
21.6155 26.5847 -2.6093 0.0759 0 8
21.3743 26.7791 -2.6093 0.0759 0 8
21.1312 26.9713 -2.6093 0.0759 0 8
20.8864 27.1613 -2.6093 0.0759 0 8
20.6400 27.3490 -2.6093 0.0759 0 8
20.3918 27.5346 -2.6093 0.0759 0 8
27.9388 -0.0000 -2.7617 0.0984 0 7
27.9376 0.2527 -2.7617 0.0984 0 7
27.9342 0.5053 -2.7617 0.0984 0 7
27.9285 0.7579 -2.7617 0.0984 0 7
27.9205 1.0104 -2.7617 0.0984 0 7
27.9102 1.2629 -2.7617 0.0984 0 7
27.8977 1.5152 -2.7617 0.0984 0 7
27.8828 1.7674 -2.7617 0.0984 0 7
23.3078 1.6892 -2.3099 0.1277 0 10
22.1113 1.8036 -2.1929 0.1321 0 10
20.4689 1.8561 -2.0316 0.1309 0 10
20.0580 2.0019 -1.9925 0.9106 0 10
20.0041 2.1794 -1.9890 0.9937 0 10
20.0000 2.3621 -1.9907 0.9778 0 10
20.0177 2.5480 -1.9947 0.9880 0 10
16.2956 2.2242 -1.6257 0.2439 0 10
15.7598 2.2964 -1.5743 0.3153 0 10
15.1345 2.3452 -1.5138 0.1818 0 10
14.8621 2.4408 -1.4887 0.3724 0 10
14.8220 2.5721 -1.4870 0.5802 0 10
14.8177 2.7096 -1.4890 0.6978 0 10
14.8213 2.8490 -1.4919 0.7026 0 10
14.8250 2.9890 -1.4949 0.7011 0 10
14.8297 3.1298 -1.4982 0.6981 0 10
14.8343 3.2711 -1.5015 0.6875 0 10
14.8427 3.4140 -1.5055 0.6208 0 10
14.8632 3.5606 -1.5108 0.1726 0 10
25.6140 6.3815 -2.6093 0.0984 0 8
25.5553 6.6128 -2.6093 0.0984 0 8
25.4944 6.8437 -2.6093 0.0984 0 8
25.4315 7.0739 -2.6093 0.0984 0 8
25.3665 7.3036 -2.6093 0.0984 0 8
25.2994 7.5327 -2.6093 0.0984 0 8
25.2303 7.7612 -2.6093 0.0984 0 8
25.1590 7.9890 -2.6093 0.0984 0 8
25.0858 8.2162 -2.6093 0.0984 0 8
25.0104 8.4427 -2.6093 0.0984 0 8
24.9331 8.6686 -2.6093 0.0984 0 8
24.8537 8.8937 -2.6093 0.0984 0 8
24.7722 9.1181 -2.6093 0.0984 0 8
24.6887 9.3417 -2.6093 0.0984 0 8
24.6033 9.5646 -2.6093 0.0984 0 8
24.5157 9.7867 -2.6093 0.0984 0 8
24.4262 10.0080 -2.6093 0.0984 0 8
24.3347 10.2285 -2.6093 0.0984 0 8
24.2412 10.4481 -2.6093 0.0984 0 8
24.1458 10.6669 -2.6093 0.0984 0 8
24.0483 10.8848 -2.6093 0.0984 0 8
23.9489 11.1019 -2.6093 0.0984 0 8
23.8475 11.3180 -2.6093 0.0984 0 8
23.7442 11.5332 -2.6093 0.0984 0 8
23.6389 11.7474 -2.6093 0.0984 0 8
23.5317 11.9607 -2.6093 0.0984 0 8
23.4226 12.1730 -2.6093 0.0984 0 8
23.3116 12.3843 -2.6093 0.0984 0 8
23.1986 12.5946 -2.6093 0.0984 0 8
23.0838 12.8040 -2.6093 0.0984 0 8
22.9670 13.0122 -2.6093 0.0984 0 8
22.8484 13.2193 -2.6093 0.0984 0 8
17.9186 10.5845 -2.0571 0.7562 0 19
17.7540 10.7050 -2.0493 0.9411 0 19
22.4814 13.8342 -2.6093 0.0984 0 8
22.3554 14.0370 -2.6093 0.0984 0 8
22.2276 14.2386 -2.6093 0.0984 0 8
22.0979 14.4390 -2.6093 0.0984 0 8
21.9664 14.6382 -2.6093 0.0984 0 8
21.8331 14.8363 -2.6093 0.0984 0 8
17.4758 12.1078 -2.1015 0.6232 0 19
17.3406 12.2476 -2.0985 0.0984 0 19
17.2291 12.4040 -2.0985 0.0984 0 19
17.1163 12.5593 -2.0985 0.0984 0 19
16.8317 12.5862 -2.0775 0.6585 0 19
16.5296 12.5950 -2.0542 0.5875 0 19
16.2155 12.5890 -2.0292 0.5947 0 19
16.2894 12.8842 -2.0529 0.7384 0 19
20.5547 16.5622 -2.6093 0.0984 0 8
16.2017 13.2982 -2.0719 0.5353 0 19
20.2518 16.9312 -2.6093 0.0984 0 8
20.0978 17.1137 -2.6093 0.0984 0 8
19.9423 17.2947 -2.6093 0.0984 0 8
19.7850 17.4743 -2.6093 0.0984 0 8
6.1118 5.4972 -0.8125 0.9211 0 5
13.9171 12.7471 -1.8655 0.8712 0 19
13.8322 12.9013 -1.8697 0.8518 0 19
19.1401 18.1785 -2.6093 0.0984 0 8
18.9750 18.3508 -2.6093 0.0984 0 8
18.8082 18.5216 -2.6093 0.0984 0 8
18.6400 18.6910 -2.6093 0.0984 0 8
18.4702 18.8588 -2.6093 0.0984 0 8
18.2989 19.0250 -2.6093 0.0984 0 8
12.1307 12.8425 -1.7462 0.8485 0 19
11.9477 12.8802 -1.7366 0.8532 0 19
11.7630 12.9133 -1.7266 0.8334 0 19
11.5699 12.9345 -1.7154 0.7932 0 19
11.3747 12.9499 -1.7037 0.7986 0 19
11.1716 12.9532 -1.6908 0.7501 0 19
10.9656 12.9493 -1.6773 0.7467 0 19
10.7626 12.9450 -1.6641 0.7526 0 19
10.7566 13.1785 -1.6815 0.5731 0 19
16.5060 20.5999 -2.6093 0.0984 0 8
16.3190 20.7483 -2.6093 0.0984 0 8
16.1307 20.8950 -2.6093 0.0984 0 8
15.9411 21.0400 -2.6093 0.0984 0 8
15.7502 21.1833 -2.6093 0.0984 0 8
15.5580 21.3249 -2.6093 0.0984 0 8
15.3645 21.4647 -2.6093 0.0984 0 8
15.1698 21.6028 -2.6093 0.0984 0 8
14.9738 21.7391 -2.6093 0.0984 0 8
14.7766 21.8736 -2.6093 0.0984 0 8
14.5782 22.0063 -2.6093 0.0984 0 8
14.3786 22.1373 -2.6093 0.0984 0 8
14.1778 22.2664 -2.6093 0.0984 0 8
13.9758 22.3937 -2.6093 0.0984 0 8
13.7728 22.5192 -2.6093 0.0984 0 8
13.5685 22.6428 -2.6093 0.0984 0 8
13.3632 22.7646 -2.6093 0.0984 0 8
13.1568 22.8845 -2.6093 0.0984 0 8
12.9493 23.0025 -2.6093 0.0984 0 8
12.7408 23.1187 -2.6093 0.0984 0 8
12.5312 23.2329 -2.6093 0.0984 0 8
12.3206 23.3453 -2.6093 0.0984 0 8
12.1090 23.4558 -2.6093 0.0984 0 8
10.4037 20.6077 -2.2819 0.8774 0 5
11.6828 23.6710 -2.6093 0.0984 0 8
11.4682 23.7756 -2.6093 0.0984 0 8
11.2528 23.8784 -2.6093 0.0984 0 8
11.0364 23.9792 -2.6093 0.0984 0 8
10.8191 24.0779 -2.6093 0.0984 0 8
10.6009 24.1748 -2.6093 0.0984 0 8
10.3818 24.2697 -2.6093 0.0984 0 8
6.9159 16.5805 -1.7758 0.9386 0 1
6.7445 16.5902 -1.7702 0.9415 0 1
6.5741 16.5998 -1.7648 0.9444 0 1
6.4047 16.6093 -1.7596 0.9472 0 1
6.2364 16.6188 -1.7546 0.9499 0 1
5.7107 15.6468 -1.6464 0.9526 0 1
5.5540 15.6557 -1.6420 0.9551 0 1
5.3982 15.6644 -1.6377 0.9576 0 1
5.3238 15.9145 -1.6588 0.2549 0 1
5.3168 16.3846 -1.7027 0.2534 0 1
5.3159 16.9006 -1.7513 0.2447 0 1
5.6223 18.4563 -1.9071 0.9668 0 1
5.4433 18.4664 -1.9030 0.9689 0 1
7.2343 25.3863 -2.6093 0.0984 0 8
7.0044 25.4507 -2.6093 0.0984 0 8
6.7740 25.5130 -2.6093 0.0984 0 8
6.5430 25.5732 -2.6093 0.0984 0 8
3.8783 15.7501 -1.6034 0.9781 0 1
3.7295 15.7585 -1.6007 0.9798 0 1
3.5813 15.7668 -1.5982 0.9813 0 1
3.5518 16.3188 -1.6508 0.1803 0 1
3.5521 17.0616 -1.7226 0.1477 0 1
5.1464 25.8904 -2.6093 0.0984 0 8
4.9121 25.9359 -2.6093 0.0984 0 8
4.6773 25.9793 -2.6093 0.0984 0 8
4.4422 26.0205 -2.6093 0.0984 0 8
4.2067 26.0596 -2.6093 0.0984 0 8
3.9709 26.0966 -2.6093 0.0984 0 8
3.7347 26.1315 -2.6093 0.0984 0 8
3.4983 26.1642 -2.6093 0.0984 0 8
3.2615 26.1947 -2.6093 0.0984 0 8
3.0245 26.2231 -2.6093 0.0984 0 8
2.7872 26.2494 -2.6093 0.0984 0 8
2.5497 26.2736 -2.6093 0.0984 0 8
2.3120 26.2955 -2.6093 0.0984 0 8
2.0742 26.3154 -2.6093 0.0984 0 8
1.8361 26.3331 -2.6093 0.0984 0 8
1.5979 26.3486 -2.6093 0.0984 0 8
1.3595 26.3620 -2.6093 0.0984 0 8
1.1211 26.3732 -2.6093 0.0984 0 8
0.8826 26.3822 -2.6093 0.0984 0 8
0.6439 26.3891 -2.6093 0.0984 0 8
0.4053 26.3939 -2.6093 0.0984 0 8
0.1666 26.3965 -2.6093 0.0984 0 8
-0.0721 26.3969 -2.6093 0.0984 0 8
-0.3109 26.3952 -2.6093 0.0984 0 8
-0.5495 26.3913 -2.6093 0.0984 0 8
-0.7882 26.3852 -2.6093 0.0984 0 8
-1.0268 26.3770 -2.6093 0.0984 0 8
-1.2652 26.3666 -2.6093 0.0984 0 8
-1.5036 26.3541 -2.6093 0.0984 0 8
-1.7419 26.3395 -2.6093 0.0984 0 8
-1.9800 26.3226 -2.6093 0.0984 0 8
-2.2180 26.3036 -2.6093 0.0984 0 8
-2.4557 26.2825 -2.6093 0.0984 0 8
-2.6933 26.2592 -2.6093 0.0984 0 8
-2.9307 26.2338 -2.6093 0.0984 0 8
-3.1678 26.2062 -2.6093 0.0984 0 8
-3.4047 26.1765 -2.6093 0.0984 0 8
-3.6412 26.1446 -2.6093 0.0984 0 8
-3.8775 26.1106 -2.6093 0.0984 0 8
-4.1135 26.0745 -2.6093 0.0984 0 8
-4.3491 26.0362 -2.6093 0.0984 0 8
-4.5844 25.9959 -2.6093 0.0984 0 8
-4.8193 25.9533 -2.6093 0.0984 0 8
-5.0538 25.9087 -2.6093 0.0984 0 8
-5.2879 25.8619 -2.6093 0.0984 0 8
-5.5215 25.8131 -2.6093 0.0984 0 8
-5.7547 25.7621 -2.6093 0.0984 0 8
-5.9875 25.7090 -2.6093 0.0984 0 8
-6.2197 25.6538 -2.6093 0.0984 0 8
-6.4514 25.5965 -2.6093 0.0984 0 8
-6.6827 25.5370 -2.6093 0.0984 0 8
-6.9133 25.4756 -2.6093 0.0984 0 8
-7.1434 25.4120 -2.6093 0.0984 0 8
-7.3729 25.3464 -2.6093 0.0984 0 8
-7.6018 25.2787 -2.6093 0.0984 0 8
-7.8301 25.2089 -2.6093 0.0984 0 8
-8.0578 25.1371 -2.6093 0.0984 0 8
-8.2848 25.0632 -2.6093 0.0984 0 8
-8.5111 24.9873 -2.6093 0.0984 0 8
-8.7367 24.9093 -2.6093 0.0984 0 8
-8.9616 24.8292 -2.6093 0.0984 0 8
-9.1857 24.7472 -2.6093 0.0984 0 8
-9.4092 24.6631 -2.6093 0.0984 0 8
-9.6318 24.5770 -2.6093 0.0984 0 8
-9.8537 24.4889 -2.6093 0.0984 0 8
-10.0747 24.3989 -2.6093 0.0984 0 8
-10.2950 24.3067 -2.6093 0.0984 0 8
-10.5143 24.2126 -2.6093 0.0984 0 8
-10.7329 24.1165 -2.6093 0.0984 0 8
-10.9505 24.0185 -2.6093 0.0984 0 8
-11.1673 23.9185 -2.6093 0.0984 0 8
-11.3831 23.8165 -2.6093 0.0984 0 8
-11.5980 23.7126 -2.6093 0.0984 0 8
-11.8120 23.6067 -2.6093 0.0984 0 8
-12.0250 23.4990 -2.6093 0.0984 0 8
-12.2370 23.3893 -2.6093 0.0984 0 8
-12.4480 23.2776 -2.6093 0.0984 0 8
-12.6580 23.1641 -2.6093 0.0984 0 8
-12.8670 23.0487 -2.6093 0.0984 0 8
-13.0749 22.9314 -2.6093 0.0984 0 8
-13.2817 22.8122 -2.6093 0.0984 0 8
-13.4875 22.6912 -2.6093 0.0984 0 8
-13.6921 22.5683 -2.6093 0.0984 0 8
-13.8957 22.4435 -2.6093 0.0984 0 8
-14.0980 22.3170 -2.6093 0.0984 0 8
-14.2993 22.1886 -2.6093 0.0984 0 8
-14.4993 22.0583 -2.6093 0.0984 0 8
-14.6982 21.9263 -2.6093 0.0984 0 8
-14.8959 21.7925 -2.6093 0.0984 0 8
-15.0924 21.6569 -2.6093 0.0984 0 8
-15.2876 21.5195 -2.6093 0.0984 0 8
-15.4816 21.3804 -2.6093 0.0984 0 8
-15.6743 21.2395 -2.6093 0.0984 0 8
-15.8657 21.0969 -2.6093 0.0984 0 8
-16.0559 20.9526 -2.6093 0.0984 0 8
-16.2447 20.8065 -2.6093 0.0984 0 8
-16.4322 20.6588 -2.6093 0.0984 0 8
-16.6183 20.5093 -2.6093 0.0984 0 8
-16.8031 20.3582 -2.6093 0.0984 0 8
-16.9865 20.2054 -2.6093 0.0984 0 8
-17.1686 20.0510 -2.6093 0.0984 0 8
-17.3492 19.8949 -2.6093 0.0984 0 8
-17.5284 19.7372 -2.6093 0.0984 0 8
-17.7062 19.5779 -2.6093 0.0984 0 8
-17.8825 19.4170 -2.6093 0.0984 0 8
-18.0573 19.2545 -2.6093 0.0984 0 8
-18.2307 19.0904 -2.6093 0.0984 0 8
-18.4026 18.9247 -2.6093 0.0984 0 8
-18.5730 18.7575 -2.6093 0.0984 0 8
-18.7419 18.5888 -2.6093 0.0984 0 8
-18.9092 18.4186 -2.6093 0.0984 0 8
-19.0750 18.2468 -2.6093 0.0984 0 8
-19.2392 18.0736 -2.6093 0.0984 0 8
-19.4019 17.8988 -2.6093 0.0984 0 8
-19.5629 17.7227 -2.6093 0.0984 0 8
-19.7224 17.5450 -2.6093 0.0984 0 8
-19.8803 17.3659 -2.6093 0.0984 0 8
-20.0365 17.1855 -2.6093 0.0984 0 8
-20.1911 17.0036 -2.6093 0.0984 0 8
-20.3440 16.8203 -2.6093 0.0984 0 8
-20.4953 16.6356 -2.6093 0.0984 0 8
-20.6449 16.4496 -2.6093 0.0984 0 8
-20.7928 16.2622 -2.6093 0.0984 0 8
-20.9390 16.0735 -2.6093 0.0984 0 8
-21.0835 15.8835 -2.6093 0.0984 0 8
-21.2263 15.6922 -2.6093 0.0984 0 8
-21.3673 15.4996 -2.6093 0.0984 0 8
-21.5066 15.3058 -2.6093 0.0984 0 8
-21.6442 15.1106 -2.6093 0.0984 0 8
-21.7799 14.9143 -2.6093 0.0984 0 8
-21.9139 14.7167 -2.6093 0.0984 0 8
-22.0461 14.5179 -2.6093 0.0984 0 8
-22.1765 14.3180 -2.6093 0.0984 0 8
-22.3051 14.1169 -2.6093 0.0984 0 8
-22.4318 13.9146 -2.6093 0.0984 0 8
-22.5567 13.7112 -2.6093 0.0984 0 8
-22.6798 13.5066 -2.6093 0.0984 0 8
-22.8010 13.3009 -2.6093 0.0984 0 8
-22.9204 13.0942 -2.6093 0.0984 0 8
-23.0378 12.8864 -2.6093 0.0984 0 8
-23.1534 12.6775 -2.6093 0.0984 0 8
-23.2671 12.4676 -2.6093 0.0984 0 8
-23.3789 12.2567 -2.6093 0.0984 0 8
-23.4888 12.0448 -2.6093 0.0984 0 8
-23.5968 11.8319 -2.6093 0.0984 0 8
-23.7028 11.6180 -2.6093 0.0984 0 8
-23.8069 11.4032 -2.6093 0.0984 0 8
-23.9090 11.1874 -2.6093 0.0984 0 8
-24.0092 10.9708 -2.6093 0.0984 0 8
-24.1075 10.7532 -2.6093 0.0984 0 8
-24.2037 10.5348 -2.6093 0.0984 0 8
-24.2980 10.3155 -2.6093 0.0984 0 8
-24.3903 10.0953 -2.6093 0.0984 0 8
-24.4806 9.8743 -2.6093 0.0984 0 8
-24.5689 9.6525 -2.6093 0.0984 0 8
-24.6552 9.4300 -2.6093 0.0984 0 8
-24.7394 9.2066 -2.6093 0.0984 0 8
-24.8217 8.9825 -2.6093 0.0984 0 8
-24.9019 8.7577 -2.6093 0.0984 0 8
-24.9801 8.5321 -2.6093 0.0984 0 8
-25.0562 8.3059 -2.6093 0.0984 0 8
-25.1303 8.0790 -2.6093 0.0984 0 8
-25.2023 7.8514 -2.6093 0.0984 0 8
-22.6934 6.8452 -2.3430 0.2588 0 10
-22.5233 6.5723 -2.3192 0.8830 0 10
-23.6911 6.6812 -2.4331 0.9748 0 5
-23.8640 6.4976 -2.4447 0.2110 0 5
-25.5315 6.7042 -2.6093 0.0984 0 8
-25.5910 6.4730 -2.6093 0.0984 0 8
-25.6485 6.2414 -2.6093 0.0984 0 8
-26.6617 6.2331 -2.7065 0.1921 0 8
-27.2114 6.1026 -2.7566 0.1012 0 8
-27.3060 5.8650 -2.7607 0.1011 0 8
-27.3677 5.6198 -2.7617 0.0984 0 7
-27.4174 5.3721 -2.7617 0.0984 0 7
-27.4649 5.1239 -2.7617 0.0984 0 7
-27.5101 4.8753 -2.7617 0.0984 0 7
-27.5531 4.6264 -2.7617 0.0984 0 7
-27.5938 4.3770 -2.7617 0.0984 0 7
-27.6322 4.1273 -2.7617 0.0984 0 7
-27.6684 3.8773 -2.7617 0.0984 0 6
-27.7024 3.6269 -2.7617 0.0984 0 7
-27.7340 3.3762 -2.7617 0.0984 0 7
-27.7634 3.1253 -2.7617 0.0984 0 7
-27.7906 2.8741 -2.7617 0.0984 0 7
-27.8154 2.6226 -2.7617 0.0984 0 7
-27.8380 2.3710 -2.7617 0.0984 0 7
-27.8583 2.1192 -2.7617 0.0984 0 7
-27.8763 1.8672 -2.7617 0.0984 0 7
-27.8921 1.6150 -2.7617 0.0984 0 7
-27.9055 1.3627 -2.7617 0.0984 0 7
-27.9167 1.1103 -2.7617 0.0984 0 7
-27.9256 0.8578 -2.7617 0.0984 0 7
-27.9322 0.6052 -2.7617 0.0984 0 7
-27.9366 0.3526 -2.7617 0.0984 0 7
-27.9386 0.0999 -2.7617 0.0984 0 7
-27.9384 -0.1527 -2.7617 0.0984 0 7
-27.9358 -0.4054 -2.7617 0.0984 0 7
-27.9310 -0.6580 -2.7617 0.0984 0 7
-27.9239 -0.9105 -2.7617 0.0984 0 7
-27.9146 -1.1630 -2.7617 0.0984 0 7
-27.9029 -1.4154 -2.7617 0.0984 0 7
-27.8890 -1.6677 -2.7617 0.0984 0 7
-27.8727 -1.9198 -2.7617 0.0984 0 7
-27.8542 -2.1718 -2.7617 0.0984 0 7
-27.8335 -2.4236 -2.7617 0.0984 0 7
-27.8104 -2.6752 -2.7617 0.0984 0 7
-27.7851 -2.9266 -2.7617 0.0984 0 7
-27.7575 -3.1777 -2.7617 0.0984 0 7
-27.7276 -3.4286 -2.7617 0.0984 0 7
-27.6955 -3.6792 -2.7617 0.0984 0 7
-27.6611 -3.9295 -2.7617 0.0984 0 7
-27.6244 -4.1795 -2.7617 0.0984 0 7
-27.5855 -4.4292 -2.7617 0.0984 0 7
-27.5443 -4.6784 -2.7617 0.0984 0 7
-27.5009 -4.9273 -2.7617 0.0984 0 7
-27.4552 -5.1758 -2.7617 0.0984 0 7
-27.4072 -5.4239 -2.7617 0.0984 0 7
-27.3571 -5.6715 -2.7617 0.0984 0 7
-27.3047 -5.9187 -2.7617 0.0984 0 7
-27.2500 -6.1654 -2.7617 0.0984 0 7
-27.1932 -6.4115 -2.7617 0.0984 0 7
-27.1341 -6.6572 -2.7617 0.0984 0 7
-27.0728 -6.9023 -2.7617 0.0984 0 7
-27.0092 -7.1468 -2.7617 0.0984 0 7
-26.9435 -7.3908 -2.7617 0.0984 0 7
-26.8756 -7.6341 -2.7617 0.0984 0 7
-26.8054 -7.8769 -2.7617 0.0984 0 7
-26.7331 -8.1189 -2.7617 0.0984 0 7
-26.6586 -8.3604 -2.7617 0.0984 0 7
-26.5819 -8.6011 -2.7617 0.0984 0 7
-26.5030 -8.8411 -2.7617 0.0984 0 7
-26.4220 -9.0804 -2.7617 0.0984 0 7
-26.3388 -9.3190 -2.7617 0.0984 0 7
-26.2534 -9.5568 -2.7617 0.0984 0 7
-26.1659 -9.7938 -2.7617 0.0984 0 7
-26.0763 -10.0301 -2.7617 0.0984 0 7
-25.9845 -10.2654 -2.7617 0.0984 0 6
-25.8906 -10.5000 -2.7617 0.0984 0 7
-25.7946 -10.7337 -2.7617 0.0984 0 7
-25.6965 -10.9665 -2.7617 0.0984 0 7
-25.5963 -11.1985 -2.7617 0.0984 0 7
-25.4940 -11.4295 -2.7617 0.0984 0 7
-25.3896 -11.6596 -2.7617 0.0984 0 7
-25.2831 -11.8887 -2.7617 0.0984 0 7
-25.1746 -12.1168 -2.7617 0.0984 0 7
-25.0620 -12.3430 -2.7614 0.1066 0 8
-24.9183 -12.5535 -2.7580 0.1067 0 8
-24.7730 -12.7625 -2.7546 0.1068 0 8
-24.3471 -12.8230 -2.7200 0.5172 0 8
-23.8796 -12.8540 -2.6807 0.5248 0 8
-23.4255 -12.8841 -2.6427 0.5323 0 8
-23.0134 -12.9299 -2.6093 0.0984 0 8
-22.8956 -13.1375 -2.6093 0.0984 0 8
-22.7758 -13.3441 -2.6093 0.0984 0 8
-22.6542 -13.5495 -2.6093 0.0984 0 8
-22.5308 -13.7537 -2.6093 0.0984 0 8
-22.4055 -13.9570 -2.6093 0.0984 0 8
-22.2784 -14.1590 -2.6093 0.0984 0 8
-22.1494 -14.3599 -2.6093 0.0984 0 8
-22.0186 -14.5596 -2.6093 0.0984 0 8
-21.8861 -14.7581 -2.6093 0.0984 0 8
-21.7517 -14.9554 -2.6093 0.0984 0 8
-21.6156 -15.1515 -2.6093 0.0984 0 8
-21.4777 -15.3464 -2.6093 0.0984 0 8
-21.3380 -15.5400 -2.6093 0.0984 0 8
-15.3876 -11.4208 -1.8942 0.1401 0 10
-15.0772 -11.4033 -1.8686 0.5787 0 10
-14.8117 -11.4145 -1.8484 0.6284 0 10
-14.5514 -11.4252 -1.8287 0.5983 0 10
-14.3415 -11.4715 -1.8153 0.6505 0 10
-14.1068 -11.4945 -1.7987 0.6742 0 10
-13.8836 -11.5231 -1.7835 0.6479 0 10
-13.6555 -11.5439 -1.7675 0.6471 0 10
-13.3935 -11.5317 -1.7470 0.7138 0 10
-13.2340 -11.6044 -1.7398 0.6642 0 10
-13.0173 -11.6243 -1.7251 0.6700 0 10
-12.8027 -11.6425 -1.7105 0.6695 0 10
-12.5495 -11.6213 -1.6907 0.6091 0 10
-12.3698 -11.6644 -1.6806 0.6459 0 10
-12.1567 -11.6730 -1.6659 0.6781 0 10
-12.0041 -11.7370 -1.6595 0.6308 0 10
-11.9691 -11.9163 -1.6695 0.3346 0 10
-11.9365 -12.1007 -1.6801 0.3279 0 10
-11.9138 -12.2982 -1.6925 0.3208 0 10
-11.8910 -12.4989 -1.7053 0.3150 0 10
-11.8567 -12.6908 -1.7167 0.2316 0 10
-11.7999 -12.8611 -1.7253 0.1369 0 10
-11.7566 -13.0489 -1.7361 0.0497 0 10
-17.5017 -19.7823 -2.6108 0.0955 0 22
-17.3259 -19.9441 -2.6114 0.0954 0 22
-17.1485 -20.1044 -2.6120 0.0954 0 22
-16.9697 -20.2630 -2.6125 0.0954 0 22
-16.7893 -20.4199 -2.6131 0.0954 0 22
-16.6074 -20.5752 -2.6136 0.0954 0 22
-16.4240 -20.7288 -2.6142 0.0953 0 22
-16.2392 -20.8807 -2.6147 0.0953 0 22
-16.0530 -21.0309 -2.6152 0.0953 0 22
-15.8652 -21.1795 -2.6158 0.0953 0 22
-15.6761 -21.3262 -2.6163 0.0953 0 22
-15.4856 -21.4712 -2.6168 0.0952 0 22
-15.2937 -21.6145 -2.6173 0.0952 0 22
-15.1005 -21.7560 -2.6178 0.0952 0 22
-14.9059 -21.8957 -2.6182 0.0952 0 22
-14.7099 -22.0336 -2.6187 0.0952 0 22
-14.5127 -22.1698 -2.6192 0.0952 0 22
-14.3141 -22.3040 -2.6197 0.0951 0 22
-14.1143 -22.4365 -2.6201 0.0951 0 22
-13.9133 -22.5671 -2.6206 0.0951 0 22
-13.7109 -22.6959 -2.6210 0.0951 0 22
-7.1383 -12.0612 -1.3854 0.5796 0 10
-6.9939 -12.0649 -1.3785 0.6188 0 10
-6.8581 -12.0810 -1.3732 0.8146 0 10
-6.7229 -12.0964 -1.3679 0.8024 0 10
-6.5885 -12.1112 -1.3628 0.8166 0 10
-6.4546 -12.1250 -1.3578 0.7685 0 10
-6.3222 -12.1398 -1.3530 0.7971 0 10
-6.1955 -12.1638 -1.3493 0.5660 0 10
-6.0729 -12.1945 -1.3466 0.3333 0 10
-5.9689 -12.2622 -1.3480 0.2505 0 10
-5.8854 -12.3739 -1.3544 0.2141 0 10
-5.8066 -12.4983 -1.3622 0.2030 0 10
-5.7334 -12.6386 -1.3718 0.1635 0 10
-5.6871 -12.8439 -1.3885 0.1093 0 10
-10.5390 -24.3953 -2.6268 0.0949 0 22
-10.3192 -24.4926 -2.6271 0.0949 0 22
-10.0985 -24.5879 -2.6274 0.0949 0 22
-9.8769 -24.6812 -2.6278 0.0949 0 22
-9.6545 -24.7724 -2.6281 0.0949 0 22
-9.4311 -24.8615 -2.6284 0.0948 0 22
-9.2069 -24.9485 -2.6286 0.0948 0 22
-8.9819 -25.0334 -2.6289 0.0948 0 22
-8.7560 -25.1163 -2.6292 0.0948 0 22
-8.5294 -25.1969 -2.6295 0.0948 0 22
-8.3020 -25.2754 -2.6297 0.0948 0 22
-8.0738 -25.3517 -2.6299 0.0948 0 22
-7.8449 -25.4260 -2.6302 0.0948 0 22
-7.6154 -25.4982 -2.6304 0.0948 0 22
-7.3851 -25.5683 -2.6307 0.0948 0 22
-7.1542 -25.6362 -2.6309 0.0948 0 22
-6.9226 -25.7019 -2.6311 0.0948 0 22
-6.6904 -25.7655 -2.6313 0.0947 0 22
-6.4576 -25.8268 -2.6315 0.0947 0 22
-6.2243 -25.8860 -2.6317 0.0947 0 22
-5.9903 -25.9431 -2.6319 0.0947 0 22
-5.7559 -25.9979 -2.6320 0.0947 0 22
-5.5209 -26.0505 -2.6322 0.0947 0 22
-5.2854 -26.1009 -2.6324 0.0947 0 22
-5.0494 -26.1489 -2.6325 0.0947 0 22
-4.8129 -26.1947 -2.6326 0.0947 0 22
-4.5761 -26.2384 -2.6327 0.0947 0 22
-4.3388 -26.2799 -2.6328 0.0947 0 22
-4.1011 -26.3192 -2.6330 0.0947 0 22
-3.8631 -26.3562 -2.6331 0.0947 0 22
-3.6247 -26.3910 -2.6332 0.0947 0 22
-3.3860 -26.4235 -2.6332 0.0947 0 22
-3.1470 -26.4539 -2.6333 0.0947 0 22
-2.9078 -26.4820 -2.6334 0.0947 0 22
-2.6682 -26.5078 -2.6334 0.0947 0 22
-2.4284 -26.5313 -2.6335 0.0947 0 22
-2.1885 -26.5527 -2.6335 0.0947 0 22
-1.9483 -26.5717 -2.6336 0.0947 0 22
-1.7079 -26.5885 -2.6336 0.0947 0 22
-1.4674 -26.6029 -2.6336 0.0947 0 22
-1.2268 -26.6151 -2.6336 0.0947 0 22
-0.9860 -26.6250 -2.6336 0.0947 0 22
-0.7452 -26.6327 -2.6336 0.0947 0 22
-0.5043 -26.6381 -2.6336 0.0947 0 22
-0.2634 -26.6413 -2.6335 0.0947 0 22
-0.0225 -26.6422 -2.6335 0.0947 0 22
0.2184 -26.6408 -2.6334 0.0947 0 22
0.4593 -26.6372 -2.6334 0.0947 0 22
0.7002 -26.6313 -2.6333 0.0947 0 22
0.9410 -26.6232 -2.6333 0.0947 0 22
1.1816 -26.6128 -2.6332 0.0947 0 22
1.4222 -26.6001 -2.6331 0.0947 0 22
1.6626 -26.5852 -2.6330 0.0947 0 22
1.9029 -26.5680 -2.6329 0.0947 0 22
2.1430 -26.5485 -2.6328 0.0947 0 22
2.3829 -26.5268 -2.6326 0.0947 0 22
2.6225 -26.5028 -2.6325 0.0947 0 22
2.8619 -26.4766 -2.6324 0.0947 0 22
3.1011 -26.4482 -2.6322 0.0947 0 22
3.3399 -26.4174 -2.6321 0.0947 0 14
3.5784 -26.3844 -2.6319 0.0947 0 14
3.8166 -26.3491 -2.6317 0.0947 0 14
4.0545 -26.3117 -2.6315 0.0947 0 14
4.2919 -26.2721 -2.6313 0.0948 0 14
4.5290 -26.2302 -2.6311 0.0948 0 14
4.7656 -26.1861 -2.6309 0.0948 0 14
5.0018 -26.1398 -2.6307 0.0948 0 14
5.2376 -26.0913 -2.6305 0.0948 0 14
5.4728 -26.0405 -2.6303 0.0948 0 14
5.7076 -25.9876 -2.6300 0.0948 0 14
5.9418 -25.9325 -2.6298 0.0948 0 14
6.1755 -25.8752 -2.6295 0.0948 0 14
6.4085 -25.8157 -2.6292 0.0948 0 14
6.6411 -25.7540 -2.6290 0.0948 0 14
6.8729 -25.6902 -2.6287 0.0948 0 14
7.1042 -25.6241 -2.6284 0.0949 0 14
7.3348 -25.5559 -2.6281 0.0949 0 14
7.5647 -25.4856 -2.6278 0.0949 0 14
7.7940 -25.4131 -2.6275 0.0949 0 14
8.0225 -25.3386 -2.6272 0.0949 0 14
4.9464 -15.1455 -1.5749 0.9954 0 5
8.4773 -25.1830 -2.6265 0.0949 0 14
8.7035 -25.1020 -2.6262 0.0949 0 14
8.9290 -25.0189 -2.6258 0.0950 0 14
9.1536 -24.9338 -2.6255 0.0950 0 14
9.3774 -24.8465 -2.6251 0.0950 0 14
9.6004 -24.7572 -2.6247 0.0950 0 14
9.8224 -24.6658 -2.6243 0.0950 0 14
10.0436 -24.5723 -2.6240 0.0950 0 14
10.2639 -24.4768 -2.6236 0.0950 0 14
10.4832 -24.3792 -2.6232 0.0950 0 14
10.7016 -24.2796 -2.6227 0.0951 0 14
10.9189 -24.1780 -2.6223 0.0951 0 14
11.1353 -24.0744 -2.6219 0.0951 0 14
11.3507 -23.9687 -2.6215 0.0951 0 14
11.5651 -23.8611 -2.6210 0.0951 0 14
11.7784 -23.7515 -2.6206 0.0951 0 14
11.9906 -23.6399 -2.6201 0.0952 0 14
12.2017 -23.5264 -2.6197 0.0952 0 14
12.4118 -23.4109 -2.6192 0.0952 0 14
12.6207 -23.2935 -2.6187 0.0952 0 14
12.8285 -23.1742 -2.6182 0.0952 0 14
13.0351 -23.0529 -2.6178 0.0952 0 14
13.2405 -22.9297 -2.6173 0.0953 0 14
13.4448 -22.8047 -2.6168 0.0953 0 14
13.6478 -22.6778 -2.6163 0.0953 0 14
13.8496 -22.5490 -2.6157 0.0953 0 14
14.0501 -22.4183 -2.6152 0.0953 0 14
14.2494 -22.2859 -2.6147 0.0954 0 14
14.4474 -22.1516 -2.6142 0.0954 0 14
14.6441 -22.0155 -2.6136 0.0954 0 14
14.8395 -21.8775 -2.6131 0.0954 0 14
15.0335 -21.7378 -2.6125 0.0954 0 14
15.2262 -21.5964 -2.6119 0.0955 0 14
15.4175 -21.4531 -2.6114 0.0955 0 14
15.6075 -21.3081 -2.6108 0.0955 0 14
15.7960 -21.1614 -2.6102 0.0955 0 14
15.9832 -21.0130 -2.6096 0.0955 0 14
16.1701 -20.8645 -2.6093 0.0984 0 8
16.3582 -20.7175 -2.6093 0.0984 0 8
16.5448 -20.5687 -2.6093 0.0984 0 8
16.7302 -20.4182 -2.6093 0.0984 0 8
16.9141 -20.2661 -2.6093 0.0984 0 8
17.0967 -20.1123 -2.6093 0.0984 0 8
17.2779 -19.9569 -2.6093 0.0984 0 8
17.4576 -19.7998 -2.6093 0.0984 0 8
17.6360 -19.6411 -2.6093 0.0984 0 8
17.8129 -19.4808 -2.6093 0.0984 0 8
17.9883 -19.3190 -2.6093 0.0984 0 8
18.1623 -19.1555 -2.6093 0.0984 0 8
18.3348 -18.9905 -2.6093 0.0984 0 8
18.5058 -18.8239 -2.6093 0.0984 0 8
18.6752 -18.6558 -2.6093 0.0984 0 8
18.8432 -18.4861 -2.6093 0.0984 0 8
19.0096 -18.3150 -2.6093 0.0984 0 8
19.1744 -18.1423 -2.6093 0.0984 0 8
19.3377 -17.9682 -2.6093 0.0984 0 8
19.4994 -17.7926 -2.6093 0.0984 0 8
19.6595 -17.6155 -2.6093 0.0984 0 8
19.8180 -17.4370 -2.6093 0.0984 0 8
19.9749 -17.2571 -2.6093 0.0984 0 8
20.1301 -17.0757 -2.6093 0.0984 0 8
20.2837 -16.8930 -2.6093 0.0984 0 8
20.4357 -16.7089 -2.6093 0.0984 0 8
20.5859 -16.5234 -2.6093 0.0984 0 8
20.7345 -16.3365 -2.6093 0.0984 0 8
20.8814 -16.1484 -2.6093 0.0984 0 8
21.0266 -15.9589 -2.6093 0.0984 0 8
21.1700 -15.7681 -2.6093 0.0984 0 8
21.3117 -15.5760 -2.6093 0.0984 0 8
21.4517 -15.3826 -2.6093 0.0984 0 8
21.5900 -15.1880 -2.6093 0.0984 0 8
21.7855 -15.0329 -2.6163 0.4395 0 8
22.2349 -15.0480 -2.6539 0.5250 0 8
22.6982 -15.0641 -2.6928 0.5175 0 8
23.1752 -15.0806 -2.7331 0.5098 0 8
23.5036 -14.9935 -2.7557 0.1067 0 8
23.6677 -14.7988 -2.7592 0.1066 0 8
23.8221 -14.5973 -2.7617 0.0984 0 7
23.9532 -14.3813 -2.7617 0.0984 0 7
24.0822 -14.1641 -2.7617 0.0984 0 7
24.2093 -13.9458 -2.7617 0.0984 0 7
24.3345 -13.7263 -2.7617 0.0984 0 7
24.4576 -13.5056 -2.7617 0.0984 0 7
24.5787 -13.2839 -2.7617 0.0984 0 7
24.6979 -13.0611 -2.7617 0.0984 0 7
24.8150 -12.8372 -2.7617 0.0984 0 7
24.9300 -12.6123 -2.7617 0.0984 0 7
25.0431 -12.3863 -2.7617 0.0984 0 7
25.1541 -12.1593 -2.7617 0.0984 0 7
25.2630 -11.9314 -2.7617 0.0984 0 7
25.3699 -11.7024 -2.7617 0.0984 0 7
25.4746 -11.4725 -2.7617 0.0984 0 7
25.5773 -11.2417 -2.7617 0.0984 0 7
25.6780 -11.0099 -2.7617 0.0984 0 7
25.7765 -10.7773 -2.7617 0.0984 0 7
25.8729 -10.5437 -2.7617 0.0984 0 7
25.9672 -10.3093 -2.7617 0.0984 0 7
26.0593 -10.0741 -2.7617 0.0984 0 7
26.1494 -9.8380 -2.7617 0.0984 0 7
26.2373 -9.6011 -2.7617 0.0984 0 7
26.3230 -9.3635 -2.7617 0.0984 0 7
26.4066 -9.1251 -2.7617 0.0984 0 7
26.4881 -8.8859 -2.7617 0.0984 0 7
26.5673 -8.6460 -2.7617 0.0984 0 7
26.6444 -8.4054 -2.7617 0.0984 0 7
26.7193 -8.1641 -2.7617 0.0984 0 7
26.7921 -7.9221 -2.7617 0.0984 0 7
26.8626 -7.6795 -2.7617 0.0984 0 7
26.9310 -7.4363 -2.7617 0.0984 0 7
26.9971 -7.1924 -2.7617 0.0984 0 7
27.0611 -6.9480 -2.7617 0.0984 0 7
27.1228 -6.7030 -2.7617 0.0984 0 7
27.1823 -6.4575 -2.7617 0.0984 0 7
27.2396 -6.2114 -2.7617 0.0984 0 7
27.2946 -5.9648 -2.7617 0.0984 0 6
27.3475 -5.7177 -2.7617 0.0984 0 6
27.3980 -5.4702 -2.7617 0.0984 0 7
27.4464 -5.2221 -2.7617 0.0984 0 7
27.4925 -4.9738 -2.7617 0.0984 0 7
27.5364 -4.7249 -2.7617 0.0984 0 7
27.5780 -4.4757 -2.7617 0.0984 0 7
27.6173 -4.2261 -2.7617 0.0984 0 7
27.6544 -3.9762 -2.7617 0.0984 0 7
27.6892 -3.7260 -2.7617 0.0984 0 7
27.7218 -3.4754 -2.7617 0.0984 0 7
27.7521 -3.2246 -2.7617 0.0984 0 7
27.7801 -2.9735 -2.7617 0.0984 0 7
27.8059 -2.7222 -2.7617 0.0984 0 7
27.8293 -2.4706 -2.7617 0.0984 0 7
27.8505 -2.2188 -2.7617 0.0984 0 7
27.8695 -1.9669 -2.7617 0.0984 0 7
27.8861 -1.7148 -2.7617 0.0984 0 7
27.9005 -1.4625 -2.7617 0.0984 0 7
27.9126 -1.2102 -2.7617 0.0984 0 7
27.9224 -0.9577 -2.7617 0.0984 0 7
27.9299 -0.7051 -2.7617 0.0984 0 7
27.9351 -0.4525 -2.7617 0.0984 0 7
27.9381 -0.1999 -2.7617 0.0984 0 7
27.9387 0.0528 -2.7617 0.0984 0 7
27.9371 0.3054 -2.7617 0.0984 0 7
27.9332 0.5581 -2.7617 0.0984 0 7
27.9270 0.8106 -2.7617 0.0984 0 7
27.9185 1.0631 -2.7617 0.0984 0 7
27.9078 1.3156 -2.7617 0.0984 0 7
27.8948 1.5679 -2.7617 0.0984 0 7
27.8794 1.8201 -2.7617 0.0984 0 7
22.9044 1.7035 -2.2703 0.3508 0 10
21.8151 1.8209 -2.1638 0.1521 0 10
20.3139 1.8807 -2.0165 0.4343 0 10
20.0395 2.0383 -1.9911 0.9354 0 10
20.0015 2.2173 -1.9892 0.9964 0 10
20.0010 2.4006 -1.9912 0.9865 0 10
16.6776 2.1549 -1.6622 0.5554 0 10
16.1794 2.2394 -1.6145 0.2093 0 10
15.6707 2.3136 -1.5658 0.2226 0 10
15.0356 2.3590 -1.5044 0.3479 0 10
14.8480 2.4673 -1.4878 0.3727 0 10
14.8205 2.6007 -1.4873 0.6466 0 10
14.8183 2.7387 -1.4895 0.6975 0 10
14.8221 2.8782 -1.4925 0.7023 0 10
14.8260 3.0184 -1.4956 0.6993 0 10
14.8307 3.1593 -1.4989 0.6978 0 10
14.8354 3.3008 -1.5023 0.6875 0 10
14.8450 3.4441 -1.5064 0.6205 0 10
25.6590 6.1980 -2.6093 0.0984 0 8
25.6019 6.4298 -2.6093 0.0984 0 8
25.5427 6.6611 -2.6093 0.0984 0 8
25.4815 6.8918 -2.6093 0.0984 0 8
25.4181 7.1219 -2.6093 0.0984 0 8
25.3526 7.3515 -2.6093 0.0984 0 8
25.2851 7.5805 -2.6093 0.0984 0 8
25.2155 7.8088 -2.6093 0.0984 0 8
25.1439 8.0365 -2.6093 0.0984 0 8
25.0702 8.2636 -2.6093 0.0984 0 8
24.9944 8.4900 -2.6093 0.0984 0 8
24.9167 8.7156 -2.6093 0.0984 0 8
24.8368 8.9406 -2.6093 0.0984 0 8
24.7549 9.1648 -2.6093 0.0984 0 8
24.6711 9.3883 -2.6093 0.0984 0 8
24.5851 9.6111 -2.6093 0.0984 0 8
24.4972 9.8330 -2.6093 0.0984 0 8
24.4073 10.0541 -2.6093 0.0984 0 8
24.3154 10.2744 -2.6093 0.0984 0 8
24.2215 10.4939 -2.6093 0.0984 0 8
24.1256 10.7125 -2.6093 0.0984 0 8
24.0277 10.9302 -2.6093 0.0984 0 8
23.9279 11.1471 -2.6093 0.0984 0 8
23.8261 11.3630 -2.6093 0.0984 0 8
23.7224 11.5780 -2.6093 0.0984 0 8
23.6167 11.7921 -2.6093 0.0984 0 8
23.5091 12.0051 -2.6093 0.0984 0 8
23.3996 12.2173 -2.6093 0.0984 0 8
23.2881 12.4284 -2.6093 0.0984 0 8
23.1748 12.6384 -2.6093 0.0984 0 8
23.0595 12.8475 -2.6093 0.0984 0 8
22.9424 13.0555 -2.6093 0.0984 0 8
22.8234 13.2625 -2.6093 0.0984 0 8
17.8703 10.6016 -2.0539 0.7574 0 19
17.7457 10.7458 -2.0506 0.9405 0 19
22.4553 13.8767 -2.6093 0.0984 0 8
22.3289 14.0792 -2.6093 0.0984 0 8
22.2006 14.2805 -2.6093 0.0984 0 8
22.0706 14.4807 -2.6093 0.0984 0 8
21.9387 14.6797 -2.6093 0.0984 0 8
21.8051 14.8775 -2.6093 0.0984 0 8
17.4278 12.1233 -2.0985 0.0984 0 19
17.3174 12.2804 -2.0985 0.0984 0 19
17.2057 12.4365 -2.0985 0.0984 0 19
17.0600 12.5676 -2.0945 0.6531 0 19
16.7720 12.5911 -2.0730 0.6599 0 19
16.4633 12.5937 -2.0489 0.5890 0 19
16.1508 12.5878 -2.0241 0.5962 0 19
16.2081 12.8697 -2.0458 0.5534 0 19
20.5234 16.6010 -2.6093 0.0984 0 8
16.1618 13.3166 -2.0700 0.7213 0 19
20.2198 16.9695 -2.6093 0.0984 0 8
20.0655 17.1516 -2.6093 0.0984 0 8
19.9096 17.3324 -2.6093 0.0984 0 8
19.7520 17.5116 -2.6093 0.0984 0 8
6.0986 5.5062 -0.8122 0.9178 0 5
13.8930 12.7734 -1.8655 0.9974 0 19
13.8026 12.9225 -1.8691 0.2800 0 19
19.1058 18.2146 -2.6093 0.0984 0 8
18.9403 18.3866 -2.6093 0.0984 0 8
18.7732 18.5571 -2.6093 0.0984 0 8
18.6046 18.7261 -2.6093 0.0984 0 8
18.4345 18.8936 -2.6093 0.0984 0 8
18.2629 19.0596 -2.6093 0.0984 0 8
12.0923 12.8504 -1.7442 0.8495 0 19
11.9098 12.8880 -1.7346 0.8542 0 19
11.7241 12.9195 -1.7245 0.8344 0 19
11.5289 12.9377 -1.7129 0.7943 0 19
11.3342 12.9532 -1.7013 0.7997 0 19
11.1286 12.9526 -1.6880 0.7419 0 19
10.9229 12.9484 -1.6745 0.7479 0 19
10.7354 12.9621 -1.6636 0.5789 0 19
16.6529 20.4812 -2.6093 0.0984 0 8
16.4670 20.6310 -2.6093 0.0984 0 8
16.2798 20.7791 -2.6093 0.0984 0 8
16.0912 20.9254 -2.6093 0.0984 0 8
15.9013 21.0701 -2.6093 0.0984 0 8
15.7101 21.2130 -2.6093 0.0984 0 8
22.7032 0.0000 -2.7617 0.1208 0 7
22.7023 0.2053 -2.7617 0.1208 0 7
22.6995 0.4106 -2.7617 0.1208 0 7
22.6949 0.6158 -2.7617 0.1208 0 7
22.6884 0.8211 -2.7617 0.1208 0 7
22.6800 1.0262 -2.7617 0.1208 0 7
22.6698 1.2312 -2.7617 0.1208 0 7
22.6577 1.4362 -2.7617 0.1208 0 6
22.6438 1.6410 -2.7617 0.1208 0 7
22.6281 1.8457 -2.7617 0.1208 0 7
20.4216 1.8518 -2.4943 0.1451 0 10
19.9417 1.9903 -2.4378 0.8738 0 10
17.7056 1.9290 -2.1665 0.2187 0 10
16.9402 2.0008 -2.0750 0.1917 0 10
16.0785 2.0466 -1.9716 0.1774 0 10
15.4505 2.1088 -1.8969 0.2176 0 10
14.8832 2.1686 -1.8295 0.1966 0 10
14.4710 2.2424 -1.7813 0.2846 0 10
14.1387 2.3220 -1.7429 0.2298 0 10
14.0584 2.4396 -1.7357 0.2448 0 10
14.0288 2.5654 -1.7348 0.1808 0 10
14.0100 2.6931 -1.7354 0.1983 0 10
13.9922 2.8211 -1.7363 0.1899 0 10
13.9788 2.9502 -1.7379 0.1892 0 10
13.9642 3.0792 -1.7394 0.1827 0 10
13.9475 3.2081 -1.7409 0.1826 0 10
13.9301 3.3370 -1.7424 0.1826 0 10
13.9178 3.4675 -1.7447 0.1732 0 10
10.2101 2.6420 -1.2829 0.2232 0 10
9.9585 2.6732 -1.2543 0.2663 0 10
9.8343 2.7355 -1.2417 0.1871 0 10
9.7735 2.8141 -1.2372 0.1409 0 10
9.7259 2.8958 -1.2344 0.1860 0 10
9.6990 2.9835 -1.2344 0.1770 0 10
9.6821 3.0744 -1.2357 0.1768 0 10
9.6646 3.1654 -1.2371 0.1766 0 10
9.6465 3.2564 -1.2385 0.1764 0 10
9.6279 3.3473 -1.2399 0.1762 0 10
9.6137 3.4402 -1.2420 0.1658 0 10
9.6115 3.5378 -1.2458 0.1455 0 10
9.6341 3.6453 -1.2530 0.0920 0 10
19.9927 7.7723 -2.6093 0.1208 0 8
19.9216 7.9527 -2.6093 0.1208 0 8
19.8489 8.1325 -2.6093 0.1208 0 8
19.7746 8.3117 -2.6093 0.1208 0 8
19.6986 8.4902 -2.6093 0.1208 0 8
19.6210 8.6680 -2.6093 0.1208 0 8
19.5418 8.8451 -2.6093 0.1208 0 8
19.4610 9.0214 -2.6093 0.1208 0 8
19.3786 9.1970 -2.6093 0.1208 0 8
19.2947 9.3719 -2.6093 0.1208 0 8
19.2091 9.5460 -2.6093 0.1208 0 8
19.1220 9.7194 -2.6093 0.1208 0 8
19.0333 9.8919 -2.6093 0.1208 0 8
18.9431 10.0636 -2.6093 0.1208 0 8
18.8513 10.2345 -2.6093 0.1208 0 8
18.7580 10.4046 -2.6093 0.1208 0 8
18.6632 10.5737 -2.6093 0.1208 0 8
18.5668 10.7421 -2.6093 0.1208 0 8
18.4689 10.9096 -2.6093 0.1208 0 8
18.3695 11.0761 -2.6093 0.1208 0 8
18.2685 11.2418 -2.6093 0.1208 0 8
18.1661 11.4065 -2.6093 0.1208 0 8
18.0622 11.5703 -2.6093 0.1208 0 8
17.9569 11.7332 -2.6093 0.1208 0 8
17.8500 11.8951 -2.6093 0.1208 0 8
17.7417 12.0560 -2.6093 0.1208 0 8
17.6320 12.2160 -2.6093 0.1208 0 8
17.5208 12.3749 -2.6093 0.1208 0 8
17.4082 12.5329 -2.6093 0.1208 0 8
17.2941 12.6898 -2.6093 0.1208 0 8
17.1787 12.8457 -2.6093 0.1208 0 8
17.0618 13.0005 -2.6093 0.1208 0 8
16.9435 13.1543 -2.6093 0.1208 0 8
16.1338 12.7611 -2.5022 0.6175 0 19
16.7028 13.4586 -2.6093 0.1208 0 8
16.5805 13.6090 -2.6093 0.1208 0 8
16.4567 13.7584 -2.6093 0.1208 0 8
16.3316 13.9067 -2.6093 0.1208 0 8
16.2052 14.0538 -2.6093 0.1208 0 8
16.0774 14.1997 -2.6093 0.1208 0 8
6.1111 5.4965 -0.9998 0.9190 0 5
15.8180 14.4882 -2.6093 0.1208 0 8
15.6863 14.6307 -2.6093 0.1208 0 8
15.5534 14.7719 -2.6093 0.1208 0 8
15.4192 14.9120 -2.6093 0.1208 0 8
15.2837 15.0508 -2.6093 0.1208 0 8
15.1470 15.1884 -2.6093 0.1208 0 8
12.1345 12.3897 -2.1095 0.6426 0 19
11.9590 12.4336 -2.0985 0.1208 0 19
11.8461 12.5412 -2.0985 0.1208 0 19
11.7322 12.6478 -2.0985 0.1208 0 19
11.6173 12.7534 -2.0985 0.1208 0 19
11.5015 12.8579 -2.0985 0.1208 0 19
11.3278 12.8966 -2.0880 0.7996 0 19
11.1227 12.8964 -2.0716 0.7418 0 19
10.9176 12.8926 -2.0550 0.7478 0 19
10.7256 12.9006 -2.0408 0.5790 0 19
10.7525 13.1735 -2.0685 0.7076 0 19
10.7873 13.4628 -2.0985 0.1208 0 19
13.2609 16.8602 -2.6093 0.1208 0 8
13.1079 16.9794 -2.6093 0.1208 0 8
12.9538 17.0972 -2.6093 0.1208 0 8
12.7987 17.2137 -2.6093 0.1208 0 8
12.6425 17.3288 -2.6093 0.1208 0 8
12.4853 17.4423 -2.6093 0.1208 0 8
12.3270 17.5546 -2.6093 0.1208 0 8
12.1678 17.6653 -2.6093 0.1208 0 8
12.0075 17.7746 -2.6093 0.1208 0 8
11.8463 17.8825 -2.6093 0.1208 0 8
11.6841 17.9889 -2.6093 0.1208 0 8
11.5209 18.0938 -2.6093 0.1208 0 8
11.3568 18.1972 -2.6093 0.1208 0 8
11.1918 18.2992 -2.6093 0.1208 0 8
11.0259 18.3997 -2.6093 0.1208 0 8
10.8590 18.4986 -2.6093 0.1208 0 8
10.6913 18.5961 -2.6093 0.1208 0 8
10.5227 18.6920 -2.6093 0.1208 0 8
10.3532 18.7864 -2.6093 0.1208 0 8
10.1829 18.8792 -2.6093 0.1208 0 8
10.0118 18.9705 -2.6093 0.1208 0 8
9.8398 19.0603 -2.6093 0.1208 0 8
9.6671 19.1485 -2.6093 0.1208 0 8
9.4935 19.2351 -2.6093 0.1208 0 8
9.3192 19.3202 -2.6093 0.1208 0 8
9.1441 19.4037 -2.6093 0.1208 0 8
8.9682 19.4856 -2.6093 0.1208 0 8
8.7916 19.5659 -2.6093 0.1208 0 8
8.6143 19.6446 -2.6093 0.1208 0 8
8.4363 19.7217 -2.6093 0.1208 0 8
6.9159 16.5805 -2.1853 0.9362 0 1
6.7445 16.5902 -2.1784 0.9392 0 1
6.5741 16.5998 -2.1718 0.9420 0 1
6.0696 15.7403 -2.0521 0.6585 0 1
6.2364 16.6188 -2.1592 0.9476 0 1
5.7107 15.6468 -2.0261 0.9502 0 1
5.5540 15.6557 -2.0207 0.9527 0 1
5.3982 15.6644 -2.0154 0.9552 0 1
5.2836 15.7941 -2.0259 0.2615 0 1
5.3168 16.3846 -2.0954 0.2528 0 1
5.3159 16.9006 -2.1551 0.2441 0 1
5.6223 18.4563 -2.3469 0.9644 0 1
5.4433 18.4664 -2.3418 0.9665 0 1
5.8786 20.6292 -2.6093 0.1208 0 8
5.6918 20.6814 -2.6093 0.1208 0 8
4.3673 16.4487 -2.0702 0.7520 0 1
5.3169 20.7810 -2.6093 0.1208 0 8
3.8783 15.7501 -1.9731 0.9757 0 1
3.7295 15.7585 -1.9698 0.9773 0 1
3.5813 15.7668 -1.9668 0.9789 0 1
3.4958 16.0616 -1.9995 0.1562 0 1
3.5521 17.0616 -2.1199 0.1473 0 1
4.1820 21.0387 -2.6093 0.1208 0 8
3.9916 21.0757 -2.6093 0.1208 0 8
3.8008 21.1109 -2.6093 0.1208 0 8
3.6098 21.1444 -2.6093 0.1208 0 8
3.4184 21.1762 -2.6093 0.1208 0 8
3.2268 21.2063 -2.6093 0.1208 0 8
3.0349 21.2346 -2.6093 0.1208 0 8
2.8427 21.2611 -2.6093 0.1208 0 8
2.6503 21.2860 -2.6093 0.1208 0 8
2.4577 21.3091 -2.6093 0.1208 0 8
2.2649 21.3304 -2.6093 0.1208 0 8
2.0719 21.3501 -2.6093 0.1208 0 8
1.8788 21.3679 -2.6093 0.1208 0 8
1.6855 21.3840 -2.6093 0.1208 0 8
1.4920 21.3984 -2.6093 0.1208 0 8
1.2984 21.4110 -2.6093 0.1208 0 8
1.1048 21.4219 -2.6093 0.1208 0 8
0.9110 21.4310 -2.6093 0.1208 0 8
0.7172 21.4383 -2.6093 0.1208 0 8
0.5233 21.4440 -2.6093 0.1208 0 8
0.3293 21.4478 -2.6093 0.1208 0 8
0.1354 21.4499 -2.6093 0.1208 0 8
-0.0586 21.4503 -2.6093 0.1208 0 8
-0.2526 21.4489 -2.6093 0.1208 0 8
-0.4466 21.4457 -2.6093 0.1208 0 8
-0.6405 21.4408 -2.6093 0.1208 0 8
-0.8343 21.4341 -2.6093 0.1208 0 8
-1.0281 21.4257 -2.6093 0.1208 0 8
-1.2219 21.4155 -2.6093 0.1208 0 8
-1.4155 21.4036 -2.6093 0.1208 0 8
-1.6090 21.3899 -2.6093 0.1208 0 8
-1.8023 21.3745 -2.6093 0.1208 0 8
-1.9956 21.3574 -2.6093 0.1208 0 8
-2.1886 21.3384 -2.6093 0.1208 0 8
-2.3815 21.3177 -2.6093 0.1208 0 8
-2.5742 21.2953 -2.6093 0.1208 0 8
-2.7666 21.2712 -2.6093 0.1208 0 8
-2.9589 21.2453 -2.6093 0.1208 0 8
-3.1509 21.2177 -2.6093 0.1208 0 8
-3.3426 21.1883 -2.6093 0.1208 0 8
-3.5341 21.1572 -2.6093 0.1208 0 8
-3.7253 21.1244 -2.6093 0.1208 0 8
-3.9162 21.0898 -2.6093 0.1208 0 8
-4.1067 21.0536 -2.6093 0.1208 0 8
-4.2970 21.0156 -2.6093 0.1208 0 8
-4.4868 20.9758 -2.6093 0.1208 0 8
-4.6763 20.9344 -2.6093 0.1208 0 8
-4.8655 20.8912 -2.6093 0.1208 0 8
-5.0542 20.8464 -2.6093 0.1208 0 8
-5.2425 20.7999 -2.6093 0.1208 0 8
-5.4304 20.7516 -2.6093 0.1208 0 8
-5.6178 20.7016 -2.6093 0.1208 0 8
-5.8048 20.6500 -2.6093 0.1208 0 8
-5.9913 20.5966 -2.6093 0.1208 0 8
-6.1773 20.5416 -2.6093 0.1208 0 8
-6.3628 20.4849 -2.6093 0.1208 0 8
-6.5478 20.4266 -2.6093 0.1208 0 8
-6.7322 20.3664 -2.6093 0.1208 0 8
-6.9161 20.3048 -2.6093 0.1208 0 8
-7.0995 20.2414 -2.6093 0.1208 0 8
-7.2822 20.1764 -2.6093 0.1208 0 8
-7.4644 20.1097 -2.6093 0.1208 0 8
-7.6459 20.0414 -2.6093 0.1208 0 8
-7.8269 19.9714 -2.6093 0.1208 0 8
-8.0071 19.8998 -2.6093 0.1208 0 8
-8.1868 19.8266 -2.6093 0.1208 0 8
-8.3657 19.7517 -2.6093 0.1208 0 8
-8.5440 19.6753 -2.6093 0.1208 0 8
-8.7216 19.5972 -2.6093 0.1208 0 8
-8.8985 19.5176 -2.6093 0.1208 0 8
-9.0746 19.4363 -2.6093 0.1208 0 8
-9.2500 19.3534 -2.6093 0.1208 0 8
-9.4246 19.2690 -2.6093 0.1208 0 8
-9.5985 19.1830 -2.6093 0.1208 0 8
-9.7716 19.0954 -2.6093 0.1208 0 8
-9.9439 19.0062 -2.6093 0.1208 0 8
-10.1153 18.9156 -2.6093 0.1208 0 8
-10.2860 18.8233 -2.6093 0.1208 0 8
-10.4558 18.7295 -2.6093 0.1208 0 8
-10.6247 18.6342 -2.6093 0.1208 0 8
-10.7928 18.5373 -2.6093 0.1208 0 8
-10.9600 18.4390 -2.6093 0.1208 0 8
-11.1263 18.3391 -2.6093 0.1208 0 8
-11.2917 18.2377 -2.6093 0.1208 0 8
-11.4562 18.1349 -2.6093 0.1208 0 8
-11.6197 18.0305 -2.6093 0.1208 0 8
-11.7822 17.9247 -2.6093 0.1208 0 8
-11.9439 17.8175 -2.6093 0.1208 0 8
-12.1045 17.7087 -2.6093 0.1208 0 8
-12.2641 17.5985 -2.6093 0.1208 0 8
-12.4228 17.4869 -2.6093 0.1208 0 8
-12.5804 17.3738 -2.6093 0.1208 0 8
-12.7370 17.2595 -2.6093 0.1208 0 8
-12.8926 17.1435 -2.6093 0.1208 0 8
-13.0471 17.0262 -2.6093 0.1208 0 8
-13.2005 16.9075 -2.6093 0.1208 0 8
-13.3529 16.7875 -2.6093 0.1208 0 8
-13.5042 16.6660 -2.6093 0.1208 0 8
-13.6543 16.5432 -2.6093 0.1208 0 8
-13.8034 16.4191 -2.6093 0.1208 0 8
-13.9513 16.2936 -2.6093 0.1208 0 8
-14.0980 16.1667 -2.6093 0.1208 0 8
-14.2437 16.0386 -2.6093 0.1208 0 8
-14.3881 15.9091 -2.6093 0.1208 0 8
-14.5314 15.7783 -2.6093 0.1208 0 8
-14.6735 15.6463 -2.6093 0.1208 0 8
-14.8144 15.5129 -2.6093 0.1208 0 8
-14.9541 15.3783 -2.6093 0.1208 0 8
-15.0925 15.2425 -2.6093 0.1208 0 8
-15.2297 15.1054 -2.6093 0.1208 0 8
-15.3657 14.9670 -2.6093 0.1208 0 8
-15.5005 14.8275 -2.6093 0.1208 0 8
-15.6339 14.6867 -2.6093 0.1208 0 8
-15.7661 14.5447 -2.6093 0.1208 0 8
-15.8970 14.4015 -2.6093 0.1208 0 8
-16.0266 14.2572 -2.6093 0.1208 0 8
-16.1548 14.1117 -2.6093 0.1208 0 8
-16.2818 13.9650 -2.6093 0.1208 0 8
-16.4074 13.8172 -2.6093 0.1208 0 8
-16.5317 13.6682 -2.6093 0.1208 0 8
-16.6546 13.5182 -2.6093 0.1208 0 8
-16.7762 13.3670 -2.6093 0.1208 0 8
-16.8964 13.2148 -2.6093 0.1208 0 8
-17.0152 13.0614 -2.6093 0.1208 0 8
-17.1326 12.9070 -2.6093 0.1208 0 8
-17.2486 12.7516 -2.6093 0.1208 0 8
-17.3632 12.5951 -2.6093 0.1208 0 8
-17.4764 12.4375 -2.6093 0.1208 0 8
-17.5882 12.2790 -2.6093 0.1208 0 8
-17.6985 12.1194 -2.6093 0.1208 0 8
-17.8074 11.9589 -2.6093 0.1208 0 8
-17.9148 11.7974 -2.6093 0.1208 0 8
-18.0207 11.6349 -2.6093 0.1208 0 8
-18.1252 11.4715 -2.6093 0.1208 0 8
-18.2282 11.3071 -2.6093 0.1208 0 8
-18.3297 11.1417 -2.6093 0.1208 0 8
-18.4297 10.9755 -2.6093 0.1208 0 8
-18.5282 10.8084 -2.6093 0.1208 0 8
-18.6252 10.6404 -2.6093 0.1208 0 8
-18.7207 10.4716 -2.6093 0.1208 0 8
-18.8146 10.3019 -2.6093 0.1208 0 8
-18.9070 10.1313 -2.6093 0.1208 0 8
-18.9979 9.9599 -2.6093 0.1208 0 8
-19.0871 9.7877 -2.6093 0.1208 0 8
-19.1749 9.6147 -2.6093 0.1208 0 8
-19.2610 9.4409 -2.6093 0.1208 0 8
-19.3456 9.2663 -2.6093 0.1208 0 8
-19.4286 9.0910 -2.6093 0.1208 0 8
-19.5100 8.9149 -2.6093 0.1208 0 8
-19.5899 8.7381 -2.6093 0.1208 0 8
-19.6681 8.5606 -2.6093 0.1208 0 8
-19.7447 8.3824 -2.6093 0.1208 0 8
-19.8197 8.2035 -2.6093 0.1208 0 8
-19.8931 8.0239 -2.6093 0.1208 0 8
-19.9648 7.8437 -2.6093 0.1208 0 8
-20.0349 7.6629 -2.6093 0.1208 0 8
-20.1034 7.4814 -2.6093 0.1208 0 8
-20.1702 7.2992 -2.6093 0.1208 0 8
-20.2354 7.1166 -2.6093 0.1208 0 8
-20.2989 6.9333 -2.6093 0.1208 0 8
-20.3608 6.7494 -2.6093 0.1208 0 8
-20.4210 6.5650 -2.6093 0.1208 0 8
-20.4796 6.3801 -2.6093 0.1208 0 8
-20.5364 6.1946 -2.6093 0.1208 0 8
-20.5916 6.0087 -2.6093 0.1208 0 8
-21.1303 5.9591 -2.6706 0.2390 0 8
-21.8495 5.9491 -2.7546 0.1243 0 8
-21.9286 5.7582 -2.7579 0.1242 0 8
-22.0062 5.5663 -2.7612 0.1240 0 8
-22.0595 5.3680 -2.7617 0.1208 0 7
-22.1071 5.1683 -2.7617 0.1208 0 7
-22.1530 4.9681 -2.7617 0.1208 0 7
-22.1970 4.7676 -2.7617 0.1208 0 7
-22.2392 4.5667 -2.7617 0.1208 0 7
-22.2796 4.3654 -2.7617 0.1208 0 7
