ply
format ascii 1.0
element vertex 1400
property float32 x
property float32 y
property float32 z
property float32 CosAngle
property uint32 ObjIdx
property uint32 ObjTag
end_header
8.9302 5.3921 -2.7323 0.2534 0 7
8.8810 5.4728 -2.7323 0.2534 0 7
8.8311 5.5529 -2.7323 0.2534 0 7
8.7804 5.6327 -2.7323 0.2534 0 7
8.7291 5.7119 -2.7323 0.2534 0 7
8.6770 5.7907 -2.7323 0.2534 0 7
8.6242 5.8690 -2.7323 0.2534 0 7
8.5707 5.9469 -2.7323 0.2534 0 7
8.5165 6.0242 -2.7323 0.2534 0 7
8.4616 6.1011 -2.7323 0.2534 0 7
8.4061 6.1775 -2.7323 0.2534 0 7
8.3498 6.2533 -2.7323 0.2534 0 7
8.2928 6.3286 -2.7323 0.2534 0 7
8.2352 6.4035 -2.7323 0.2534 0 7
8.1769 6.4778 -2.7323 0.2534 0 7
8.1179 6.5515 -2.7323 0.2534 0 7
8.0583 6.6248 -2.7323 0.2534 0 7
7.9980 6.6974 -2.7323 0.2534 0 7
7.9370 6.7696 -2.7323 0.2534 0 7
7.8754 6.8412 -2.7323 0.2534 0 7
7.8131 6.9122 -2.7323 0.2534 0 7
7.7502 6.9826 -2.7323 0.2534 0 7
7.6867 7.0525 -2.7323 0.2534 0 7
7.6198 7.1192 -2.7314 0.2657 0 8
7.5522 7.1853 -2.7304 0.2658 0 8
7.4842 7.2508 -2.7294 0.2659 0 8
7.4156 7.3156 -2.7284 0.2660 0 8
7.3464 7.3798 -2.7274 0.2661 0 8
7.2768 7.4434 -2.7265 0.2662 0 8
7.2066 7.5064 -2.7255 0.2663 0 8
7.1306 7.5631 -2.7226 0.8013 0 8
7.0162 7.5781 -2.7050 0.8065 0 8
6.9033 7.5929 -2.6878 0.8116 0 8
6.7917 7.6075 -2.6711 0.8167 0 8
6.6815 7.6218 -2.6548 0.8217 0 8
6.5726 7.6359 -2.6389 0.8267 0 8
6.4650 7.6499 -2.6234 0.8315 0 8
6.3586 7.6636 -2.6082 0.8364 0 8
6.2533 7.6772 -2.5935 0.8411 0 8
6.1531 7.6955 -2.5807 0.7543 0 8
6.0814 7.7485 -2.5799 0.2534 0 8
6.0110 7.8032 -2.5799 0.2534 0 8
5.9475 7.8673 -2.5832 0.7642 0 8
5.8687 7.9108 -2.5799 0.2534 0 8
5.7968 7.9636 -2.5799 0.2534 0 8
5.7245 8.0157 -2.5799 0.2534 0 8
5.6517 8.0672 -2.5799 0.2534 0 8
5.5784 8.1181 -2.5799 0.2534 0 8
5.5047 8.1682 -2.5799 0.2534 0 8
5.4305 8.2177 -2.5799 0.2534 0 8
5.3559 8.2666 -2.5799 0.2534 0 8
5.2808 8.3147 -2.5799 0.2534 0 8
5.2054 8.3622 -2.5799 0.2534 0 8
5.1294 8.4090 -2.5799 0.2534 0 8
5.0531 8.4551 -2.5799 0.2534 0 8
4.9763 8.5005 -2.5799 0.2534 0 8
4.8992 8.5452 -2.5799 0.2534 0 8
4.8216 8.5892 -2.5799 0.2534 0 8
4.7436 8.6325 -2.5799 0.2534 0 8
4.6653 8.6751 -2.5799 0.2534 0 8
4.5866 8.7170 -2.5799 0.2534 0 8
4.5075 8.7581 -2.5799 0.2534 0 8
4.4280 8.7986 -2.5799 0.2534 0 8
4.3481 8.8383 -2.5799 0.2534 0 8
4.2679 8.8773 -2.5799 0.2534 0 8
4.1874 8.9156 -2.5799 0.2534 0 8
4.1065 8.9531 -2.5799 0.2534 0 8
4.0253 8.9899 -2.5799 0.2534 0 8
3.9437 9.0260 -2.5799 0.2534 0 8
3.8619 9.0614 -2.5799 0.2534 0 8
3.7797 9.0959 -2.5799 0.2534 0 8
3.6972 9.1298 -2.5799 0.2534 0 8
3.6144 9.1629 -2.5799 0.2534 0 8
3.5312 9.1952 -2.5799 0.2534 0 8
3.4479 9.2268 -2.5799 0.2534 0 8
3.3642 9.2577 -2.5799 0.2534 0 8
3.2802 9.2877 -2.5799 0.2534 0 8
3.1960 9.3171 -2.5799 0.2534 0 8
3.1115 9.3456 -2.5799 0.2534 0 8
3.0268 9.3734 -2.5799 0.2534 0 8
2.9418 9.4004 -2.5799 0.2534 0 8
2.8566 9.4267 -2.5799 0.2534 0 8
2.7711 9.4521 -2.5799 0.2534 0 8
2.6854 9.4768 -2.5799 0.2534 0 8
2.5995 9.5008 -2.5799 0.2534 0 8
2.5134 9.5239 -2.5799 0.2534 0 8
2.4271 9.5463 -2.5799 0.2534 0 8
2.3405 9.5679 -2.5799 0.2534 0 8
2.2538 9.5887 -2.5799 0.2534 0 8
2.1669 9.6087 -2.5799 0.2534 0 8
2.0798 9.6279 -2.5799 0.2534 0 8
1.9926 9.6463 -2.5799 0.2534 0 8
1.9052 9.6640 -2.5799 0.2534 0 8
1.8176 9.6808 -2.5799 0.2534 0 8
1.7299 9.6969 -2.5799 0.2534 0 8
1.6420 9.7121 -2.5799 0.2534 0 8
1.5540 9.7266 -2.5799 0.2534 0 8
1.4659 9.7403 -2.5799 0.2534 0 8
1.3776 9.7532 -2.5799 0.2534 0 8
1.2893 9.7652 -2.5799 0.2534 0 8
1.2008 9.7765 -2.5799 0.2534 0 8
1.1123 9.7870 -2.5799 0.2534 0 8
1.0236 9.7966 -2.5799 0.2534 0 8
0.9349 9.8055 -2.5799 0.2534 0 8
0.8461 9.8136 -2.5799 0.2534 0 8
0.7572 9.8208 -2.5799 0.2534 0 8
0.6682 9.8273 -2.5799 0.2534 0 8
0.5792 9.8329 -2.5799 0.2534 0 8
0.4902 9.8378 -2.5799 0.2534 0 8
0.4011 9.8418 -2.5799 0.2534 0 8
0.3120 9.8450 -2.5799 0.2534 0 8
0.2228 9.8475 -2.5799 0.2534 0 8
0.1337 9.8491 -2.5799 0.2534 0 8
0.0445 9.8499 -2.5799 0.2534 0 8
-0.0447 9.8499 -2.5799 0.2534 0 8
-0.1338 9.8491 -2.5799 0.2534 0 8
-0.2230 9.8475 -2.5799 0.2534 0 8
-0.3122 9.8450 -2.5799 0.2534 0 8
-0.4013 9.8418 -2.5799 0.2534 0 8
-0.4904 9.8378 -2.5799 0.2534 0 8
-0.5794 9.8329 -2.5799 0.2534 0 8
-0.6684 9.8273 -2.5799 0.2534 0 8
-0.7573 9.8208 -2.5799 0.2534 0 8
-0.8462 9.8136 -2.5799 0.2534 0 8
-0.9350 9.8055 -2.5799 0.2534 0 8
-1.0238 9.7966 -2.5799 0.2534 0 8
-1.1124 9.7870 -2.5799 0.2534 0 8
-1.2010 9.7765 -2.5799 0.2534 0 8
-1.2895 9.7652 -2.5799 0.2534 0 8
-1.3778 9.7531 -2.5799 0.2534 0 8
-1.4661 9.7403 -2.5799 0.2534 0 8
-1.5542 9.7266 -2.5799 0.2534 0 8
-1.6422 9.7121 -2.5799 0.2534 0 8
-1.7300 9.6969 -2.5799 0.2534 0 8
-1.8178 9.6808 -2.5799 0.2534 0 8
-1.9053 9.6639 -2.5799 0.2534 0 8
-1.9927 9.6463 -2.5799 0.2534 0 8
-2.0800 9.6279 -2.5799 0.2534 0 8
-2.1671 9.6086 -2.5799 0.2534 0 8
-2.2540 9.5886 -2.5799 0.2534 0 8
-2.3407 9.5678 -2.5799 0.2534 0 8
-2.4272 9.5462 -2.5799 0.2534 0 8
-2.5135 9.5239 -2.5799 0.2534 0 8
-2.5997 9.5007 -2.5799 0.2534 0 8
-2.6856 9.4768 -2.5799 0.2534 0 8
-2.7713 9.4521 -2.5799 0.2534 0 8
-2.8567 9.4266 -2.5799 0.2534 0 8
-2.9419 9.4004 -2.5799 0.2534 0 8
-3.0269 9.3734 -2.5799 0.2534 0 8
-3.1117 9.3456 -2.5799 0.2534 0 8
-3.1962 9.3170 -2.5799 0.2534 0 8
-3.2804 9.2877 -2.5799 0.2534 0 8
-3.3643 9.2576 -2.5799 0.2534 0 8
-3.4480 9.2268 -2.5799 0.2534 0 8
-3.5314 9.1952 -2.5799 0.2534 0 8
-3.6145 9.1628 -2.5799 0.2534 0 8
-3.6973 9.1297 -2.5799 0.2534 0 8
-3.7798 9.0959 -2.5799 0.2534 0 8
-3.8620 9.0613 -2.5799 0.2534 0 8
-3.9439 9.0260 -2.5799 0.2534 0 8
-4.0254 8.9899 -2.5799 0.2534 0 8
-4.1067 8.9531 -2.5799 0.2534 0 8
-4.1876 8.9155 -2.5799 0.2534 0 8
-4.2681 8.8772 -2.5799 0.2534 0 8
-4.3483 8.8382 -2.5799 0.2534 0 8
-4.4281 8.7985 -2.5799 0.2534 0 8
-4.5212 8.7844 -2.5877 0.8430 0 8
-4.6265 8.7925 -2.6023 0.8383 0 8
-4.7330 8.8007 -2.6173 0.8335 0 8
-4.8408 8.8089 -2.6327 0.8286 0 8
-4.9498 8.8171 -2.6484 0.8237 0 8
-5.0601 8.8255 -2.6646 0.8187 0 8
-5.1717 8.8338 -2.6811 0.8136 0 8
-5.2847 8.8423 -2.6981 0.8085 0 8
-5.3991 8.8508 -2.7155 0.8033 0 8
-5.4985 8.8328 -2.7252 0.2663 0 8
-5.5802 8.7857 -2.7261 0.2662 0 8
-5.6614 8.7379 -2.7271 0.2661 0 8
-5.7423 8.6893 -2.7280 0.2660 0 8
-5.8228 8.6400 -2.7290 0.2659 0 8
-5.9030 8.5900 -2.7300 0.2658 0 8
-5.9827 8.5393 -2.7310 0.2657 0 8
-6.0619 8.4879 -2.7320 0.2656 0 8
-6.1394 8.4339 -2.7323 0.2534 0 7
-6.2155 8.3780 -2.7323 0.2534 0 7
-6.2911 8.3214 -2.7323 0.2534 0 7
-6.3662 8.2641 -2.7323 0.2534 0 7
-6.4407 8.2061 -2.7323 0.2534 0 7
-6.5148 8.1474 -2.7323 0.2534 0 7
-6.5883 8.0881 -2.7323 0.2534 0 7
-6.6612 8.0281 -2.7323 0.2534 0 7
-6.7336 7.9675 -2.7323 0.2534 0 7
-6.8055 7.9062 -2.7323 0.2534 0 7
-6.8768 7.8443 -2.7323 0.2534 0 7
-6.9475 7.7817 -2.7323 0.2534 0 7
-7.0177 7.7185 -2.7323 0.2534 0 7
-7.0873 7.6546 -2.7323 0.2534 0 7
-7.1563 7.5902 -2.7323 0.2534 0 7
-7.2247 7.5250 -2.7323 0.2534 0 7
-7.2926 7.4593 -2.7323 0.2534 0 7
-7.3598 7.3930 -2.7323 0.2534 0 7
-7.4264 7.3261 -2.7323 0.2534 0 7
-7.4924 7.2585 -2.7323 0.2534 0 7
-7.5579 7.1904 -2.7323 0.2534 0 7
-7.6226 7.1217 -2.7323 0.2534 0 7
-7.6868 7.0524 -2.7323 0.2534 0 7
-7.7503 6.9825 -2.7323 0.2534 0 7
-7.8132 6.9120 -2.7323 0.2534 0 7
-7.8755 6.8410 -2.7323 0.2534 0 7
-7.9371 6.7694 -2.7323 0.2534 0 7
-7.9981 6.6973 -2.7323 0.2534 0 6
-8.0584 6.6246 -2.7323 0.2534 0 6
-8.1180 6.5514 -2.7323 0.2534 0 7
-8.1770 6.4776 -2.7323 0.2534 0 7
-8.2353 6.4033 -2.7323 0.2534 0 7
-8.2929 6.3285 -2.7323 0.2534 0 7
-8.3499 6.2532 -2.7323 0.2534 0 7
-8.4062 6.1773 -2.7323 0.2534 0 7
-8.4618 6.1010 -2.7323 0.2534 0 7
-8.5166 6.0241 -2.7323 0.2534 0 7
-8.5708 5.9467 -2.7323 0.2534 0 7
-8.6243 5.8689 -2.7323 0.2534 0 7
-8.6771 5.7906 -2.7323 0.2534 0 7
-8.7292 5.7118 -2.7323 0.2534 0 7
-8.7805 5.6325 -2.7323 0.2534 0 7
-8.8312 5.5528 -2.7323 0.2534 0 7
-8.8811 5.4726 -2.7323 0.2534 0 7
-8.9303 5.3920 -2.7323 0.2534 0 7
-8.9787 5.3109 -2.7323 0.2534 0 7
-9.0264 5.2294 -2.7323 0.2534 0 7
-9.0734 5.1475 -2.7323 0.2534 0 7
-9.1196 5.0651 -2.7323 0.2534 0 7
-9.1651 4.9823 -2.7323 0.2534 0 7
-9.2098 4.8992 -2.7323 0.2534 0 7
-9.2538 4.8156 -2.7323 0.2534 0 7
-9.2970 4.7316 -2.7323 0.2534 0 7
-9.3395 4.6473 -2.7323 0.2534 0 7
-9.3812 4.5625 -2.7323 0.2534 0 7
-9.4221 4.4774 -2.7323 0.2534 0 7
-9.4623 4.3919 -2.7323 0.2534 0 7
-9.5016 4.3060 -2.7323 0.2534 0 7
-9.5402 4.2198 -2.7323 0.2534 0 7
-9.5780 4.1333 -2.7323 0.2534 0 7
-9.6151 4.0464 -2.7323 0.2534 0 7
-9.6513 3.9592 -2.7323 0.2534 0 7
-9.6867 3.8717 -2.7323 0.2534 0 7
-9.7214 3.7838 -2.7323 0.2534 0 7
-9.7553 3.6956 -2.7323 0.2534 0 7
-9.7883 3.6072 -2.7323 0.2534 0 7
-9.8206 3.5184 -2.7323 0.2534 0 7
-9.8520 3.4293 -2.7323 0.2534 0 7
-9.8827 3.3400 -2.7323 0.2534 0 7
-9.9125 3.2504 -2.7323 0.2534 0 7
-9.9415 3.1605 -2.7323 0.2534 0 7
-9.9697 3.0704 -2.7323 0.2534 0 7
-9.9971 2.9800 -2.7323 0.2534 0 7
-10.0237 2.8894 -2.7323 0.2534 0 7
-10.0494 2.7985 -2.7323 0.2534 0 7
-10.0744 2.7074 -2.7323 0.2534 0 7
-10.0985 2.6161 -2.7323 0.2534 0 7
-10.1217 2.5246 -2.7323 0.2534 0 7
-10.1442 2.4328 -2.7323 0.2534 0 7
-10.1658 2.3409 -2.7323 0.2534 0 7
-10.1866 2.2487 -2.7323 0.2534 0 7
-10.2065 2.1564 -2.7323 0.2534 0 7
-10.2256 2.0639 -2.7323 0.2534 0 7
-10.2439 1.9713 -2.7323 0.2534 0 7
-10.2613 1.8784 -2.7323 0.2534 0 7
-10.2779 1.7855 -2.7323 0.2534 0 7
-10.2936 1.6923 -2.7323 0.2534 0 7
-10.3085 1.5991 -2.7323 0.2534 0 7
-10.3226 1.5057 -2.7323 0.2534 0 7
-10.3358 1.4122 -2.7323 0.2534 0 7
-10.3482 1.3185 -2.7323 0.2534 0 7
-10.3597 1.2248 -2.7323 0.2534 0 7
-10.3703 1.1310 -2.7323 0.2534 0 7
-10.3801 1.0370 -2.7323 0.2534 0 7
-10.3891 0.9430 -2.7323 0.2534 0 7
-10.3972 0.8489 -2.7323 0.2534 0 7
-10.4045 0.7547 -2.7323 0.2534 0 7
-10.4109 0.6605 -2.7323 0.2534 0 7
-10.4164 0.5662 -2.7323 0.2534 0 7
-10.4211 0.4719 -2.7323 0.2534 0 7
-10.4250 0.3775 -2.7323 0.2534 0 7
-10.4280 0.2831 -2.7323 0.2534 0 7
-10.4301 0.1887 -2.7323 0.2534 0 7
-10.4314 0.0943 -2.7323 0.2534 0 7
-10.4318 -0.0002 -2.7323 0.2534 0 6
-10.4314 -0.0946 -2.7323 0.2534 0 7
-10.4301 -0.1891 -2.7323 0.2534 0 7
-10.4280 -0.2835 -2.7323 0.2534 0 6
-10.4250 -0.3779 -2.7323 0.2534 0 7
-10.4211 -0.4722 -2.7323 0.2534 0 7
-10.4164 -0.5666 -2.7323 0.2534 0 7
-10.4109 -0.6608 -2.7323 0.2534 0 7
-10.4045 -0.7551 -2.7323 0.2534 0 7
-10.3972 -0.8493 -2.7323 0.2534 0 7
-10.3891 -0.9433 -2.7323 0.2534 0 7
-10.3801 -1.0373 -2.7323 0.2534 0 7
-10.3703 -1.1313 -2.7323 0.2534 0 7
-10.3596 -1.2251 -2.7323 0.2534 0 7
-10.3481 -1.3189 -2.7323 0.2534 0 7
-10.3358 -1.4125 -2.7323 0.2534 0 7
-10.3225 -1.5060 -2.7323 0.2534 0 7
-10.3085 -1.5994 -2.7323 0.2534 0 7
-10.2936 -1.6927 -2.7323 0.2534 0 7
-10.2778 -1.7858 -2.7323 0.2534 0 7
-10.2612 -1.8788 -2.7323 0.2534 0 7
-10.2438 -1.9716 -2.7323 0.2534 0 7
-10.2255 -2.0643 -2.7323 0.2534 0 7
-10.2064 -2.1568 -2.7323 0.2534 0 7
-10.1865 -2.2491 -2.7323 0.2534 0 7
-10.1657 -2.3412 -2.7323 0.2534 0 7
-10.1441 -2.4332 -2.7323 0.2534 0 7
-10.1217 -2.5249 -2.7323 0.2534 0 7
-10.0984 -2.6164 -2.7323 0.2534 0 7
-10.0743 -2.7077 -2.7323 0.2534 0 7
-10.0494 -2.7988 -2.7323 0.2534 0 7
-10.0236 -2.8897 -2.7323 0.2534 0 7
-9.9970 -2.9803 -2.7323 0.2534 0 7
-9.9696 -3.0707 -2.7323 0.2534 0 7
-9.9414 -3.1608 -2.7323 0.2534 0 7
-9.9124 -3.2507 -2.7323 0.2534 0 7
-9.8826 -3.3403 -2.7323 0.2534 0 7
-9.8519 -3.4297 -2.7323 0.2534 0 7
-9.8205 -3.5187 -2.7323 0.2534 0 7
-9.7882 -3.6075 -2.7323 0.2534 0 7
-9.7551 -3.6960 -2.7323 0.2534 0 7
-9.7213 -3.7841 -2.7323 0.2534 0 7
-9.6866 -3.8720 -2.7323 0.2534 0 7
-9.6512 -3.9595 -2.7323 0.2534 0 7
-9.6149 -4.0467 -2.7323 0.2534 0 7
-9.5779 -4.1336 -2.7323 0.2534 0 7
-9.5401 -4.2202 -2.7323 0.2534 0 7
-9.5015 -4.3064 -2.7323 0.2534 0 7
-9.4621 -4.3922 -2.7323 0.2534 0 7
-9.4220 -4.4777 -2.7323 0.2534 0 7
-9.3810 -4.5628 -2.7323 0.2534 0 7
-9.3393 -4.6476 -2.7323 0.2534 0 7
-9.2969 -4.7319 -2.7323 0.2534 0 7
-9.2536 -4.8159 -2.7323 0.2534 0 7
-9.2097 -4.8995 -2.7323 0.2534 0 7
-9.1649 -4.9827 -2.7323 0.2534 0 7
-9.1195 -5.0654 -2.7323 0.2534 0 7
-9.0732 -5.1478 -2.7323 0.2534 0 7
-9.0262 -5.2297 -2.7323 0.2534 0 7
-8.9785 -5.3112 -2.7323 0.2534 0 7
-8.9301 -5.3923 -2.7323 0.2534 0 7
-8.8809 -5.4729 -2.7323 0.2534 0 7
-8.8310 -5.5531 -2.7323 0.2534 0 7
-8.7803 -5.6328 -2.7323 0.2534 0 7
-8.7290 -5.7121 -2.7323 0.2534 0 7
-8.6769 -5.7909 -2.7323 0.2534 0 7
-8.6241 -5.8692 -2.7323 0.2534 0 7
-8.5706 -5.9470 -2.7323 0.2534 0 7
-8.5164 -6.0244 -2.7323 0.2534 0 7
-8.4615 -6.1012 -2.7323 0.2534 0 7
-8.4060 -6.1776 -2.7323 0.2534 0 7
-8.3497 -6.2534 -2.7323 0.2534 0 7
-8.2927 -6.3288 -2.7323 0.2534 0 7
-8.2351 -6.4036 -2.7323 0.2534 0 7
-8.1768 -6.4779 -2.7323 0.2534 0 7
-8.1178 -6.5517 -2.7323 0.2534 0 7
-8.0581 -6.6249 -2.7323 0.2534 0 7
-7.9978 -6.6976 -2.7323 0.2534 0 7
-7.9369 -6.7697 -2.7323 0.2534 0 7
-7.8753 -6.8413 -2.7323 0.2534 0 7
-7.8130 -6.9123 -2.7323 0.2534 0 7
-7.7501 -6.9827 -2.7323 0.2534 0 7
-7.6866 -7.0526 -2.7323 0.2534 0 7
-7.6224 -7.1219 -2.7323 0.2534 0 7
-7.5576 -7.1907 -2.7323 0.2534 0 7
-7.4922 -7.2588 -2.7323 0.2534 0 7
-7.4262 -7.3263 -2.7323 0.2534 0 7
-7.3595 -7.3932 -2.7323 0.2534 0 7
-7.2923 -7.4596 -2.7323 0.2534 0 6
-7.2245 -7.5253 -2.7323 0.2534 0 6
-7.1560 -7.5904 -2.7323 0.2534 0 7
-7.0870 -7.6549 -2.7323 0.2534 0 7
-7.0174 -7.7187 -2.7323 0.2534 0 7
-6.9473 -7.7819 -2.7323 0.2534 0 7
-6.8765 -7.8445 -2.7323 0.2534 0 7
-6.8052 -7.9064 -2.7323 0.2534 0 7
-6.7334 -7.9677 -2.7323 0.2534 0 7
-6.6610 -8.0284 -2.7323 0.2534 0 7
-6.5880 -8.0883 -2.7323 0.2534 0 7
-6.5145 -8.1476 -2.7323 0.2534 0 7
-6.4405 -8.2063 -2.7323 0.2534 0 7
-6.3659 -8.2643 -2.7323 0.2534 0 7
-6.2908 -8.3216 -2.7323 0.2534 0 7
-6.2152 -8.3782 -2.7323 0.2534 0 7
-6.1391 -8.4341 -2.7323 0.2534 0 7
-6.0625 -8.4893 -2.7323 0.2534 0 7
-5.9854 -8.5439 -2.7323 0.2534 0 7
-5.9078 -8.5977 -2.7323 0.2534 0 7
-5.8297 -8.6508 -2.7323 0.2534 0 7
-5.7512 -8.7033 -2.7323 0.2534 0 7
-5.6721 -8.7550 -2.7323 0.2534 0 7
-5.5926 -8.8060 -2.7323 0.2534 0 7
-5.5127 -8.8562 -2.7323 0.2534 0 7
-5.4323 -8.9058 -2.7323 0.2534 0 7
-5.3514 -8.9546 -2.7323 0.2534 0 7
-5.2701 -9.0027 -2.7323 0.2534 0 7
-5.1884 -9.0500 -2.7323 0.2534 0 7
-5.1063 -9.0966 -2.7323 0.2534 0 7
-5.0237 -9.1425 -2.7323 0.2534 0 7
-4.9407 -9.1876 -2.7323 0.2534 0 7
-4.8573 -9.2320 -2.7323 0.2534 0 7
-4.7736 -9.2756 -2.7323 0.2534 0 7
-4.6894 -9.3184 -2.7323 0.2534 0 7
-4.6048 -9.3605 -2.7323 0.2534 0 7
-4.5199 -9.4018 -2.7323 0.2534 0 7
-4.4346 -9.4423 -2.7323 0.2534 0 7
-4.3489 -9.4821 -2.7323 0.2534 0 7
-4.2629 -9.5211 -2.7323 0.2534 0 7
-4.1765 -9.5593 -2.7323 0.2534 0 7
-4.0898 -9.5967 -2.7323 0.2534 0 7
-4.0028 -9.6333 -2.7323 0.2534 0 7
-3.9154 -9.6692 -2.7323 0.2534 0 7
-3.8277 -9.7042 -2.7323 0.2534 0 7
-3.7397 -9.7385 -2.7323 0.2534 0 7
-3.6514 -9.7719 -2.7323 0.2534 0 7
-3.5627 -9.8046 -2.7323 0.2534 0 7
-3.4738 -9.8364 -2.7323 0.2534 0 7
-3.3846 -9.8675 -2.7323 0.2534 0 7
-3.2952 -9.8977 -2.7323 0.2534 0 7
-3.2053 -9.9269 -2.7323 0.2694 0 8
-3.1150 -9.9544 -2.7320 0.2694 0 8
-3.0244 -9.9811 -2.7317 0.2694 0 8
-2.9336 -10.0071 -2.7314 0.2695 0 8
-2.8426 -10.0322 -2.7311 0.2695 0 8
-2.7514 -10.0566 -2.7309 0.2695 0 8
-2.6600 -10.0802 -2.7306 0.2695 0 8
-2.5684 -10.1031 -2.7304 0.2696 0 8
-2.4767 -10.1251 -2.7302 0.2696 0 8
-2.3847 -10.1464 -2.7300 0.2696 0 8
-2.2926 -10.1669 -2.7298 0.2696 0 8
-2.2003 -10.1866 -2.7296 0.2696 0 8
-2.1079 -10.2055 -2.7295 0.2696 0 8
-2.0153 -10.2236 -2.7293 0.2697 0 8
-1.9226 -10.2409 -2.7292 0.2697 0 8
-1.8297 -10.2575 -2.7291 0.2697 0 8
-1.7367 -10.2732 -2.7290 0.2697 0 8
-1.6436 -10.2882 -2.7289 0.2697 0 8
-1.5503 -10.3023 -2.7288 0.2697 0 8
-1.4569 -10.3157 -2.7287 0.2697 0 8
-1.3634 -10.3283 -2.7287 0.2697 0 8
-1.2699 -10.3401 -2.7287 0.2697 0 8
-1.1762 -10.3510 -2.7286 0.2697 0 8
-1.0824 -10.3612 -2.7286 0.2697 0 8
-0.9886 -10.3706 -2.7286 0.2697 0 8
-0.8947 -10.3792 -2.7286 0.2697 0 8
-0.8007 -10.3870 -2.7287 0.2697 0 8
-0.7066 -10.3940 -2.7287 0.2697 0 8
-0.6125 -10.4002 -2.7288 0.2697 0 8
-0.5183 -10.4056 -2.7289 0.2697 0 8
-0.4241 -10.4102 -2.7289 0.2697 0 8
-0.3298 -10.4140 -2.7290 0.2697 0 8
-0.2356 -10.4170 -2.7291 0.2697 0 8
-0.1412 -10.4192 -2.7293 0.2697 0 8
-0.0405 -8.9971 -2.3566 0.4057 0 10
0.0405 -8.8962 -2.3301 0.8383 0 10
0.1208 -8.8789 -2.3258 0.9727 0 10
0.2012 -8.8796 -2.3264 0.9711 0 10
0.2819 -8.8849 -2.3283 0.9702 0 10
0.3626 -8.8904 -2.3306 0.9687 0 10
0.4436 -8.8961 -2.3330 0.9629 0 10
0.5247 -8.9018 -2.3356 0.9618 0 10
0.6060 -8.9072 -2.3384 0.9616 0 10
0.6891 -8.9334 -2.3468 0.9493 0 10
0.7770 -9.0086 -2.3683 0.9603 0 10
0.8591 -9.0077 -2.3700 0.9549 0 10
0.9421 -9.0139 -2.3738 0.9447 0 10
1.0258 -9.0234 -2.3787 0.9428 0 10
1.1107 -9.0405 -2.3857 0.8985 0 10
1.1928 -9.0324 -2.3863 0.3573 0 10
1.2718 -9.0017 -2.3812 0.7219 0 10
1.3564 -9.0105 -2.3867 0.8559 0 10
1.4417 -9.0220 -2.3930 0.9095 0 10
1.5281 -9.0364 -2.4004 0.9067 0 10
1.6149 -9.0509 -2.4081 0.9039 0 10
1.7023 -9.0653 -2.4159 0.9171 0 10
1.7894 -9.0754 -2.4228 0.9144 0 10
1.8770 -9.0855 -2.4300 0.9118 0 10
1.9652 -9.0957 -2.4374 0.9090 0 10
2.0539 -9.1060 -2.4450 0.9062 0 10
2.1431 -9.1163 -2.4529 0.9032 0 10
2.2329 -9.1267 -2.4610 0.9003 0 10
2.3234 -9.1372 -2.4694 0.8972 0 10
2.4144 -9.1477 -2.4781 0.8941 0 10
2.5061 -9.1584 -2.4870 0.8908 0 10
2.5979 -9.1669 -2.4956 0.8341 0 10
2.6915 -9.1795 -2.5056 0.8372 0 10
2.7858 -9.1919 -2.5157 0.8341 0 10
2.8808 -9.2045 -2.5262 0.8301 0 10
2.9767 -9.2173 -2.5370 0.8253 0 10
3.2956 -9.8976 -2.7323 0.2534 0 7
3.3851 -9.8673 -2.7323 0.2534 0 7
3.4743 -9.8363 -2.7323 0.2534 0 7
3.5632 -9.8044 -2.7323 0.2534 0 7
3.6518 -9.7717 -2.7323 0.2534 0 7
3.7402 -9.7383 -2.7323 0.2534 0 7
3.6728 -9.3103 -2.6215 0.4617 0 10
3.7576 -9.2782 -2.6219 0.8008 0 10
3.8638 -9.2976 -2.6372 0.8434 0 10
3.9674 -9.3081 -2.6502 0.8903 0 10
4.0713 -9.3171 -2.6632 0.5404 0 10
4.2634 -9.5208 -2.7323 0.2534 0 7
4.3494 -9.4819 -2.7323 0.2534 0 7
4.4351 -9.4421 -2.7323 0.2534 0 7
4.5204 -9.4016 -2.7323 0.2534 0 7
4.6053 -9.3602 -2.7323 0.2534 0 7
4.6899 -9.3182 -2.7323 0.2534 0 7
4.7740 -9.2753 -2.7323 0.2534 0 7
4.8578 -9.2317 -2.7323 0.2534 0 7
4.9412 -9.1874 -2.7323 0.2534 0 7
5.0242 -9.1422 -2.7323 0.2534 0 7
5.1067 -9.0964 -2.7323 0.2534 0 7
5.1889 -9.0498 -2.7323 0.2534 0 7
5.2706 -9.0024 -2.7323 0.2534 0 7
5.3519 -8.9543 -2.7323 0.2534 0 7
5.4327 -8.9055 -2.7323 0.2534 0 7
5.5131 -8.8560 -2.7323 0.2534 0 6
5.5931 -8.8057 -2.7323 0.2534 0 6
5.6726 -8.7547 -2.7323 0.2534 0 7
5.7516 -8.7030 -2.7323 0.2534 0 7
5.8302 -8.6506 -2.7323 0.2534 0 7
5.9082 -8.5974 -2.7323 0.2534 0 7
5.9858 -8.5436 -2.7323 0.2534 0 7
6.0629 -8.4890 -2.7323 0.2534 0 7
6.1395 -8.4338 -2.7323 0.2534 0 7
6.2157 -8.3779 -2.7323 0.2534 0 7
6.2912 -8.3212 -2.7323 0.2534 0 7
6.3663 -8.2639 -2.7323 0.2534 0 7
6.4409 -8.2060 -2.7323 0.2534 0 7
6.5149 -8.1473 -2.7323 0.2534 0 7
6.5884 -8.0880 -2.7323 0.2534 0 7
6.6614 -8.0280 -2.7323 0.2534 0 7
6.7338 -7.9674 -2.7323 0.2534 0 7
6.8056 -7.9061 -2.7323 0.2534 0 7
6.8769 -7.8442 -2.7323 0.2534 0 7
6.9477 -7.7816 -2.7323 0.2534 0 7
7.0178 -7.7184 -2.7323 0.2534 0 7
7.0874 -7.6545 -2.7323 0.2534 0 7
7.1564 -7.5900 -2.7323 0.2534 0 7
7.2249 -7.5249 -2.7323 0.2534 0 7
7.2927 -7.4592 -2.7323 0.2534 0 7
7.3599 -7.3929 -2.7323 0.2534 0 7
7.4265 -7.3259 -2.7323 0.2534 0 7
7.4926 -7.2584 -2.7323 0.2534 0 7
7.5580 -7.1903 -2.7323 0.2534 0 7
7.6228 -7.1215 -2.7323 0.2534 0 7
7.6869 -7.0522 -2.7323 0.2534 0 7
7.7505 -6.9824 -2.7323 0.2534 0 7
7.8134 -6.9119 -2.7323 0.2534 0 7
7.8756 -6.8409 -2.7323 0.2534 0 7
7.9372 -6.7693 -2.7323 0.2534 0 7
7.9982 -6.6972 -2.7323 0.2534 0 7
8.0585 -6.6245 -2.7323 0.2534 0 7
8.1181 -6.5513 -2.7323 0.2534 0 7
8.1771 -6.4775 -2.7323 0.2534 0 7
8.2354 -6.4032 -2.7323 0.2534 0 7
8.2930 -6.3284 -2.7323 0.2534 0 7
8.3500 -6.2530 -2.7323 0.2534 0 7
8.4063 -6.1772 -2.7323 0.2534 0 7
8.4619 -6.1008 -2.7323 0.2534 0 7
8.5167 -6.0240 -2.7323 0.2534 0 7
8.5709 -5.9466 -2.7323 0.2534 0 7
8.6244 -5.8688 -2.7323 0.2534 0 7
8.6772 -5.7904 -2.7323 0.2534 0 7
8.7293 -5.7116 -2.7323 0.2534 0 7
8.7806 -5.6324 -2.7323 0.2534 0 6
8.8313 -5.5526 -2.7323 0.2534 0 7
8.8812 -5.4725 -2.7323 0.2534 0 7
8.9303 -5.3918 -2.7323 0.2534 0 7
8.9788 -5.3108 -2.7323 0.2534 0 7
9.0265 -5.2293 -2.7323 0.2534 0 7
9.0735 -5.1473 -2.7323 0.2534 0 7
9.1197 -5.0650 -2.7323 0.2534 0 7
9.1652 -4.9822 -2.7323 0.2534 0 7
9.2099 -4.8990 -2.7323 0.2534 0 7
9.2539 -4.8154 -2.7323 0.2534 0 7
9.2971 -4.7315 -2.7323 0.2534 0 7
9.3396 -4.6471 -2.7323 0.2534 0 7
9.3813 -4.5623 -2.7323 0.2534 0 7
9.4222 -4.4772 -2.7323 0.2534 0 7
9.4623 -4.3917 -2.7323 0.2534 0 7
9.5017 -4.3059 -2.7323 0.2534 0 7
9.5403 -4.2197 -2.7323 0.2534 0 7
9.5781 -4.1331 -2.7323 0.2534 0 7
9.6151 -4.0463 -2.7323 0.2534 0 7
9.6514 -3.9590 -2.7323 0.2534 0 7
9.6868 -3.8715 -2.7323 0.2534 0 7
9.7215 -3.7836 -2.7323 0.2534 0 7
9.7553 -3.6955 -2.7323 0.2534 0 7
9.7884 -3.6070 -2.7323 0.2534 0 7
9.8206 -3.5182 -2.7323 0.2534 0 7
9.8521 -3.4292 -2.7323 0.2534 0 7
9.8827 -3.3398 -2.7323 0.2534 0 7
9.9126 -3.2502 -2.7323 0.2534 0 7
9.9416 -3.1604 -2.7323 0.2534 0 7
9.9698 -3.0702 -2.7323 0.2534 0 7
9.9972 -2.9798 -2.7323 0.2534 0 7
10.0237 -2.8892 -2.7323 0.2534 0 7
10.0495 -2.7983 -2.7323 0.2534 0 7
10.0744 -2.7072 -2.7323 0.2534 0 7
10.0985 -2.6159 -2.7323 0.2534 0 7
10.1218 -2.5244 -2.7323 0.2534 0 7
10.1442 -2.4326 -2.7323 0.2534 0 6
10.1658 -2.3407 -2.7323 0.2534 0 6
10.1866 -2.2486 -2.7323 0.2534 0 7
10.2065 -2.1562 -2.7323 0.2534 0 6
10.2256 -2.0638 -2.7323 0.2534 0 7
10.2439 -1.9711 -2.7323 0.2534 0 7
10.2613 -1.8783 -2.7323 0.2534 0 7
10.2779 -1.7853 -2.7323 0.2534 0 7
10.2937 -1.6922 -2.7323 0.2534 0 7
10.3086 -1.5989 -2.7323 0.2534 0 7
10.3226 -1.5055 -2.7323 0.2534 0 7
10.3358 -1.4120 -2.7323 0.2534 0 7
10.3482 -1.3184 -2.7323 0.2534 0 7
10.3597 -1.2246 -2.7323 0.2534 0 7
10.3704 -1.1308 -2.7323 0.2534 0 7
10.3802 -1.0368 -2.7323 0.2534 0 7
10.3891 -0.9428 -2.7323 0.2534 0 7
10.3972 -0.8487 -2.7323 0.2534 0 7
10.4045 -0.7546 -2.7323 0.2534 0 7
10.4109 -0.6603 -2.7323 0.2534 0 7
10.4165 -0.5661 -2.7323 0.2534 0 7
10.4211 -0.4717 -2.7323 0.2534 0 7
10.4250 -0.3774 -2.7323 0.2534 0 7
10.4280 -0.2830 -2.7323 0.2534 0 7
10.4301 -0.1885 -2.7323 0.2534 0 7
10.4314 -0.0941 -2.7323 0.2534 0 7
10.4318 0.0004 -2.7323 0.2534 0 7
10.4314 0.0948 -2.7323 0.2534 0 7
10.4301 0.1892 -2.7323 0.2534 0 7
10.4280 0.2837 -2.7323 0.2534 0 7
10.4250 0.3781 -2.7323 0.2534 0 7
10.4211 0.4724 -2.7323 0.2534 0 7
10.4164 0.5668 -2.7323 0.2534 0 7
10.4109 0.6610 -2.7323 0.2534 0 7
10.4044 0.7553 -2.7323 0.2534 0 7
10.3972 0.8494 -2.7323 0.2534 0 7
10.3891 0.9435 -2.7323 0.2534 0 7
10.3801 1.0375 -2.7323 0.2534 0 7
10.3703 1.1315 -2.7323 0.2534 0 7
10.3596 1.2253 -2.7323 0.2534 0 7
10.3481 1.3191 -2.7323 0.2534 0 7
10.3357 1.4127 -2.7323 0.2534 0 7
10.3225 1.5062 -2.7323 0.2534 0 7
10.3085 1.5996 -2.7323 0.2534 0 7
10.2936 1.6929 -2.7323 0.2534 0 7
10.2778 1.7860 -2.7323 0.2534 0 7
10.2612 1.8790 -2.7323 0.2534 0 7
10.2438 1.9718 -2.7323 0.2534 0 7
10.2255 2.0644 -2.7323 0.2534 0 7
10.2064 2.1569 -2.7323 0.2534 0 7
10.1865 2.2492 -2.7323 0.2534 0 7
10.1657 2.3414 -2.7323 0.2534 0 7
10.1441 2.4333 -2.7323 0.2534 0 7
10.1216 2.5251 -2.7323 0.2534 0 7
10.0983 2.6166 -2.7323 0.2534 0 7
10.0742 2.7079 -2.7323 0.2534 0 7
10.0493 2.7990 -2.7323 0.2534 0 7
10.0236 2.8899 -2.7323 0.2534 0 7
9.9970 2.9805 -2.7323 0.2534 0 7
9.9696 3.0709 -2.7323 0.2534 0 7
9.9414 3.1610 -2.7323 0.2534 0 7
9.9123 3.2509 -2.7323 0.2534 0 7
9.8825 3.3405 -2.7323 0.2534 0 7
9.8519 3.4298 -2.7323 0.2534 0 7
9.8204 3.5189 -2.7323 0.2534 0 7
9.7881 3.6077 -2.7323 0.2534 0 7
9.7551 3.6961 -2.7323 0.2534 0 7
9.7212 3.7843 -2.7323 0.2534 0 7
9.6866 3.8722 -2.7323 0.2534 0 7
9.6511 3.9597 -2.7323 0.2534 0 7
9.6149 4.0469 -2.7323 0.2534 0 7
9.5778 4.1338 -2.7323 0.2534 0 7
9.5400 4.2203 -2.7323 0.2534 0 7
9.5014 4.3065 -2.7323 0.2534 0 7
9.4620 4.3924 -2.7323 0.2534 0 7
9.4219 4.4779 -2.7323 0.2534 0 7
9.3809 4.5630 -2.7323 0.2534 0 7
9.3393 4.6477 -2.7323 0.2534 0 7
9.2968 4.7321 -2.7323 0.2534 0 7
9.2536 4.8160 -2.7323 0.2534 0 7
9.2096 4.8996 -2.7323 0.2534 0 6
9.1649 4.9828 -2.7323 0.2534 0 7
9.1194 5.0656 -2.7323 0.2534 0 7
9.0731 5.1479 -2.7323 0.2534 0 7
9.0262 5.2299 -2.7323 0.2534 0 7
8.9784 5.3114 -2.7323 0.2534 0 7
8.9300 5.3924 -2.7323 0.2534 0 7
8.8808 5.4731 -2.7323 0.2534 0 7
8.8309 5.5532 -2.7323 0.2534 0 7
8.7802 5.6330 -2.7323 0.2534 0 7
8.7289 5.7122 -2.7323 0.2534 0 7
8.6768 5.7910 -2.7323 0.2534 0 7
8.6240 5.8693 -2.7323 0.2534 0 7
8.5705 5.9472 -2.7323 0.2534 0 7
8.5163 6.0245 -2.7323 0.2534 0 7
8.4614 6.1014 -2.7323 0.2534 0 7
8.4059 6.1777 -2.7323 0.2534 0 7
8.3496 6.2536 -2.7323 0.2534 0 7
8.2926 6.3289 -2.7323 0.2534 0 7
8.2350 6.4037 -2.7323 0.2534 0 7
8.1767 6.4780 -2.7323 0.2534 0 7
8.1177 6.5518 -2.7323 0.2534 0 7
9.5491 0.0000 -2.7323 0.2751 0 7
9.5487 0.0865 -2.7323 0.2751 0 7
9.5475 0.1729 -2.7323 0.2751 0 7
9.5456 0.2593 -2.7323 0.2751 0 7
9.5428 0.3458 -2.7323 0.2751 0 7
9.5393 0.4321 -2.7323 0.2751 0 7
9.5350 0.5185 -2.7323 0.2751 0 7
9.5299 0.6048 -2.7323 0.2751 0 7
9.5241 0.6910 -2.7323 0.2751 0 7
9.5174 0.7772 -2.7323 0.2751 0 7
9.5100 0.8634 -2.7323 0.2751 0 7
9.5018 0.9494 -2.7323 0.2751 0 7
9.4928 1.0354 -2.7323 0.2751 0 7
9.4830 1.1213 -2.7323 0.2751 0 7
9.4725 1.2071 -2.7323 0.2751 0 7
9.4612 1.2928 -2.7323 0.2751 0 7
9.4491 1.3784 -2.7323 0.2751 0 7
9.4362 1.4639 -2.7323 0.2751 0 7
9.4226 1.5493 -2.7323 0.2751 0 7
9.4082 1.6345 -2.7323 0.2751 0 7
9.3930 1.7197 -2.7323 0.2751 0 7
9.3770 1.8046 -2.7323 0.2751 0 7
9.3603 1.8894 -2.7323 0.2751 0 7
9.3428 1.9741 -2.7323 0.2751 0 7
9.3246 2.0586 -2.7323 0.2751 0 7
9.3055 2.1429 -2.7323 0.2751 0 7
9.2858 2.2271 -2.7323 0.2751 0 7
9.2652 2.3111 -2.7323 0.2751 0 7
9.2439 2.3949 -2.7323 0.2751 0 7
9.2219 2.4785 -2.7323 0.2751 0 7
9.1990 2.5619 -2.7323 0.2751 0 7
9.1755 2.6450 -2.7323 0.2751 0 7
9.1511 2.7280 -2.7323 0.2751 0 7
9.1261 2.8107 -2.7323 0.2751 0 7
9.1003 2.8932 -2.7323 0.2751 0 7
9.0737 2.9755 -2.7323 0.2751 0 7
9.0464 3.0575 -2.7323 0.2751 0 7
9.0183 3.1393 -2.7323 0.2751 0 7
8.9895 3.2208 -2.7323 0.2751 0 7
8.9600 3.3021 -2.7323 0.2751 0 7
8.9297 3.3831 -2.7323 0.2751 0 7
8.8987 3.4638 -2.7323 0.2751 0 7
8.8670 3.5442 -2.7323 0.2751 0 7
8.8346 3.6243 -2.7323 0.2751 0 7
8.8014 3.7042 -2.7323 0.2751 0 7
8.7675 3.7837 -2.7323 0.2751 0 7
8.7329 3.8629 -2.7323 0.2751 0 7
8.6975 3.9418 -2.7323 0.2751 0 7
8.6615 4.0204 -2.7323 0.2751 0 7
8.6248 4.0987 -2.7323 0.2751 0 7
8.5873 4.1766 -2.7323 0.2751 0 7
8.5491 4.2542 -2.7323 0.2751 0 7
8.5103 4.3314 -2.7323 0.2751 0 7
8.4707 4.4082 -2.7323 0.2751 0 7
8.4304 4.4848 -2.7323 0.2751 0 7
8.3895 4.5609 -2.7323 0.2751 0 7
8.3479 4.6367 -2.7323 0.2751 0 7
8.3055 4.7121 -2.7323 0.2751 0 7
8.2625 4.7871 -2.7323 0.2751 0 7
8.2189 4.8617 -2.7323 0.2751 0 7
8.1745 4.9359 -2.7323 0.2751 0 6
8.1295 5.0097 -2.7323 0.2751 0 6
8.0838 5.0831 -2.7323 0.2751 0 7
8.0374 5.1560 -2.7323 0.2751 0 7
7.9904 5.2286 -2.7323 0.2751 0 7
7.9428 5.3007 -2.7323 0.2751 0 7
7.8945 5.3724 -2.7323 0.2751 0 7
7.8455 5.4437 -2.7323 0.2751 0 7
7.7959 5.5145 -2.7323 0.2751 0 7
7.7456 5.5848 -2.7323 0.2751 0 7
7.6948 5.6547 -2.7323 0.2751 0 7
7.6433 5.7242 -2.7323 0.2751 0 7
7.5911 5.7931 -2.7323 0.2751 0 7
7.5384 5.8616 -2.7323 0.2751 0 7
7.4850 5.9296 -2.7323 0.2751 0 7
7.4310 5.9971 -2.7323 0.2751 0 7
7.3764 6.0642 -2.7323 0.2751 0 7
7.3212 6.1307 -2.7323 0.2751 0 7
7.2654 6.1967 -2.7323 0.2751 0 7
7.2090 6.2623 -2.7323 0.2751 0 7
7.1520 6.3273 -2.7323 0.2751 0 7
7.0944 6.3918 -2.7323 0.2751 0 7
7.0363 6.4557 -2.7323 0.2751 0 7
6.9775 6.5192 -2.7323 0.2751 0 7
6.9182 6.5821 -2.7323 0.2751 0 7
6.8583 6.6444 -2.7323 0.2751 0 7
6.7979 6.7063 -2.7323 0.2751 0 7
6.7369 6.7675 -2.7323 0.2751 0 7
6.6754 6.8283 -2.7323 0.2751 0 7
6.6133 6.8884 -2.7323 0.2751 0 7
6.5506 6.9480 -2.7323 0.2751 0 7
6.4875 7.0070 -2.7323 0.2751 0 7
6.4238 7.0655 -2.7323 0.2751 0 7
6.3595 7.1233 -2.7323 0.2751 0 7
6.2948 7.1806 -2.7323 0.2751 0 7
6.2283 7.2359 -2.7318 0.2884 0 8
6.1607 7.2898 -2.7310 0.2885 0 8
6.0927 7.3432 -2.7302 0.2886 0 8
6.0243 7.3960 -2.7294 0.2887 0 8
5.9554 7.4481 -2.7287 0.2888 0 8
5.8861 7.4997 -2.7279 0.2888 0 8
5.8164 7.5506 -2.7272 0.2889 0 8
5.7463 7.6010 -2.7265 0.2890 0 8
5.6757 7.6507 -2.7258 0.2891 0 8
5.6048 7.6997 -2.7251 0.2891 0 8
5.5200 7.7293 -2.7177 0.8715 0 8
5.4236 7.7417 -2.7047 0.8757 0 8
5.3281 7.7538 -2.6920 0.8798 0 8
5.2335 7.7659 -2.6796 0.8839 0 8
5.1398 7.7777 -2.6675 0.8879 0 8
5.0468 7.7895 -2.6558 0.8918 0 8
4.9546 7.8011 -2.6443 0.8957 0 8
4.8632 7.8125 -2.6332 0.8995 0 8
4.7725 7.8239 -2.6223 0.9032 0 8
4.6825 7.8350 -2.6118 0.9068 0 8
4.5933 7.8461 -2.6015 0.9104 0 8
4.5047 7.8571 -2.5915 0.9139 0 8
4.4186 7.8714 -2.5829 0.8183 0 8
4.3422 7.9020 -2.5799 0.2751 0 8
4.2705 7.9410 -2.5799 0.2751 0 8
4.1985 7.9793 -2.5799 0.2751 0 8
4.1260 8.0170 -2.5799 0.2751 0 8
4.0573 8.0620 -2.5825 0.8297 0 8
3.9802 8.0904 -2.5799 0.2751 0 8
3.9068 8.1261 -2.5799 0.2751 0 8
3.8331 8.1612 -2.5799 0.2751 0 8
3.7590 8.1955 -2.5799 0.2751 0 8
3.6847 8.2292 -2.5799 0.2751 0 8
3.6100 8.2623 -2.5799 0.2751 0 8
3.5351 8.2946 -2.5799 0.2751 0 8
3.4598 8.3263 -2.5799 0.2751 0 8
3.3843 8.3572 -2.5799 0.2751 0 8
3.3085 8.3875 -2.5799 0.2751 0 8
3.2324 8.4172 -2.5799 0.2751 0 8
3.1561 8.4461 -2.5799 0.2751 0 8
3.0795 8.4743 -2.5799 0.2751 0 8
3.0027 8.5018 -2.5799 0.2751 0 8
2.9256 8.5287 -2.5799 0.2751 0 8
2.8482 8.5548 -2.5799 0.2751 0 8
2.7707 8.5802 -2.5799 0.2751 0 8
2.6929 8.6050 -2.5799 0.2751 0 8
2.6149 8.6290 -2.5799 0.2751 0 8
2.5366 8.6523 -2.5799 0.2751 0 8
2.4582 8.6749 -2.5799 0.2751 0 8
2.3795 8.6968 -2.5799 0.2751 0 8
2.3007 8.7180 -2.5799 0.2751 0 8
2.2217 8.7385 -2.5799 0.2751 0 8
2.1425 8.7582 -2.5799 0.2751 0 8
2.0631 8.7773 -2.5799 0.2751 0 8
1.9835 8.7956 -2.5799 0.2751 0 8
1.9038 8.8132 -2.5799 0.2751 0 8
1.8240 8.8301 -2.5799 0.2751 0 8
1.7440 8.8462 -2.5799 0.2751 0 8
1.6638 8.8617 -2.5799 0.2751 0 8
1.5835 8.8764 -2.5799 0.2751 0 8
1.5031 8.8903 -2.5799 0.2751 0 8
1.4225 8.9036 -2.5799 0.2751 0 8
1.3418 8.9161 -2.5799 0.2751 0 8
1.2611 8.9279 -2.5799 0.2751 0 8
1.1802 8.9389 -2.5799 0.2751 0 8
1.0992 8.9492 -2.5799 0.2751 0 8
1.0181 8.9588 -2.5799 0.2751 0 8
0.9370 8.9677 -2.5799 0.2751 0 8
0.8558 8.9758 -2.5799 0.2751 0 8
0.7745 8.9832 -2.5799 0.2751 0 8
0.6931 8.9898 -2.5799 0.2751 0 8
0.6117 8.9957 -2.5799 0.2751 0 8
0.5302 9.0009 -2.5799 0.2751 0 8
0.4487 9.0053 -2.5799 0.2751 0 8
0.3672 9.0090 -2.5799 0.2751 0 8
0.2856 9.0120 -2.5799 0.2751 0 8
0.2040 9.0142 -2.5799 0.2751 0 8
0.1224 9.0157 -2.5799 0.2751 0 8
0.0407 9.0164 -2.5799 0.2751 0 8
-0.0409 9.0164 -2.5799 0.2751 0 8
-0.1225 9.0157 -2.5799 0.2751 0 8
-0.2041 9.0142 -2.5799 0.2751 0 8
-0.2857 9.0120 -2.5799 0.2751 0 8
-0.3673 9.0090 -2.5799 0.2751 0 8
-0.4489 9.0053 -2.5799 0.2751 0 8
-0.5304 9.0009 -2.5799 0.2751 0 8
-0.6118 8.9957 -2.5799 0.2751 0 8
-0.6933 8.9898 -2.5799 0.2751 0 8
-0.7746 8.9831 -2.5799 0.2751 0 8
-0.8559 8.9758 -2.5799 0.2751 0 8
-0.9372 8.9677 -2.5799 0.2751 0 8
-1.0183 8.9588 -2.5799 0.2751 0 8
-1.0994 8.9492 -2.5799 0.2751 0 8
-1.1803 8.9389 -2.5799 0.2751 0 8
-1.2612 8.9278 -2.5799 0.2751 0 8
-1.3420 8.9161 -2.5799 0.2751 0 8
-1.4227 8.9035 -2.5799 0.2751 0 8
-1.5032 8.8903 -2.5799 0.2751 0 8
-1.5836 8.8763 -2.5799 0.2751 0 8
-1.6639 8.8616 -2.5799 0.2751 0 8
-1.7441 8.8462 -2.5799 0.2751 0 8
-1.8241 8.8300 -2.5799 0.2751 0 8
-1.9040 8.8132 -2.5799 0.2751 0 8
-1.9837 8.7956 -2.5799 0.2751 0 8
-2.0632 8.7773 -2.5799 0.2751 0 8
-2.1426 8.7582 -2.5799 0.2751 0 8
-2.2218 8.7385 -2.5799 0.2751 0 8
-2.3009 8.7180 -2.5799 0.2751 0 8
-2.3797 8.6968 -2.5799 0.2751 0 8
-2.4583 8.6749 -2.5799 0.2751 0 8
-2.5368 8.6523 -2.5799 0.2751 0 8
-2.6150 8.6290 -2.5799 0.2751 0 8
-2.6930 8.6049 -2.5799 0.2751 0 8
-2.7790 8.6056 -2.5876 0.9153 0 8
-2.8677 8.6129 -2.5975 0.9118 0 8
-2.9571 8.6202 -2.6076 0.9083 0 8
-3.0472 8.6275 -2.6181 0.9047 0 8
-3.1380 8.6348 -2.6288 0.9010 0 8
-3.2295 8.6421 -2.6398 0.8972 0 8
-3.3218 8.6495 -2.6512 0.8934 0 8
-3.4149 8.6569 -2.6628 0.8895 0 8
-3.5088 8.6643 -2.6748 0.8855 0 8
-3.6036 8.6717 -2.6870 0.8814 0 8
-3.6992 8.6792 -2.6996 0.8773 0 8
-3.7957 8.6867 -2.7125 0.8732 0 8
-3.8917 8.6911 -2.7248 0.2892 0 8
-3.9712 8.6578 -2.7255 0.2891 0 8
-4.0505 8.6237 -2.7262 0.2890 0 8
-4.1295 8.5890 -2.7269 0.2889 0 8
-4.2082 8.5535 -2.7276 0.2889 0 8
-4.2867 8.5174 -2.7284 0.2888 0 8
-4.3648 8.4806 -2.7291 0.2887 0 8
-4.4427 8.4431 -2.7299 0.2886 0 8
-4.5202 8.4049 -2.7307 0.2885 0 8
-4.5974 8.3661 -2.7315 0.2885 0 8
-4.6744 8.3266 -2.7323 0.2884 0 8
-4.7497 8.2841 -2.7323 0.2751 0 7
-4.8245 8.2407 -2.7323 0.2751 0 7
-4.8989 8.1967 -2.7323 0.2751 0 7
-4.9729 8.1520 -2.7323 0.2751 0 7
-5.0465 8.1067 -2.7323 0.2751 0 7
-5.1197 8.0607 -2.7323 0.2751 0 7
-5.1924 8.0140 -2.7323 0.2751 0 7
-5.2648 7.9667 -2.7323 0.2751 0 7
-5.3367 7.9186 -2.7323 0.2751 0 7
-5.4082 7.8700 -2.7323 0.2751 0 7
-5.4792 7.8207 -2.7323 0.2751 0 7
-5.5498 7.7708 -2.7323 0.2751 0 7
-5.6199 7.7202 -2.7323 0.2751 0 7
-5.6896 7.6690 -2.7323 0.2751 0 7
-5.7588 7.6172 -2.7323 0.2751 0 7
-5.8275 7.5648 -2.7323 0.2751 0 7
-5.8957 7.5117 -2.7323 0.2751 0 7
-5.9635 7.4580 -2.7323 0.2751 0 7
-6.0308 7.4037 -2.7323 0.2751 0 7
-6.0976 7.3488 -2.7323 0.2751 0 7
-6.1639 7.2933 -2.7323 0.2751 0 7
-6.2296 7.2372 -2.7323 0.2751 0 7
-6.2949 7.1805 -2.7323 0.2751 0 7
-6.3596 7.1232 -2.7323 0.2751 0 7
-6.4239 7.0654 -2.7323 0.2751 0 7
-6.4876 7.0069 -2.7323 0.2751 0 7
-6.5507 6.9479 -2.7323 0.2751 0 7
-6.6134 6.8883 -2.7323 0.2751 0 7
-6.6755 6.8281 -2.7323 0.2751 0 7
-6.7370 6.7674 -2.7323 0.2751 0 7
-6.7980 6.7061 -2.7323 0.2751 0 7
-6.8585 6.6443 -2.7323 0.2751 0 7
-6.9183 6.5820 -2.7323 0.2751 0 6
-6.9776 6.5191 -2.7323 0.2751 0 6
-7.0364 6.4556 -2.7323 0.2751 0 7
-7.0945 6.3917 -2.7323 0.2751 0 7
-7.1521 6.3272 -2.7323 0.2751 0 7
-7.2091 6.2621 -2.7323 0.2751 0 7
-7.2655 6.1966 -2.7323 0.2751 0 7
-7.3213 6.1306 -2.7323 0.2751 0 7
-7.3765 6.0641 -2.7323 0.2751 0 7
-7.4311 5.9970 -2.7323 0.2751 0 7
-7.4851 5.9295 -2.7323 0.2751 0 7
-7.5385 5.8615 -2.7323 0.2751 0 7
-7.5912 5.7930 -2.7323 0.2751 0 7
-7.6433 5.7240 -2.7323 0.2751 0 7
-7.6949 5.6546 -2.7323 0.2751 0 7
-7.7457 5.5847 -2.7323 0.2751 0 7
-7.7960 5.5144 -2.7323 0.2751 0 7
-7.8456 5.4435 -2.7323 0.2751 0 7
-7.8945 5.3723 -2.7323 0.2751 0 7
-7.9429 5.3006 -2.7323 0.2751 0 7
-7.9905 5.2285 -2.7323 0.2751 0 7
-8.0375 5.1559 -2.7323 0.2751 0 7
-8.0839 5.0829 -2.7323 0.2751 0 7
-8.1296 5.0095 -2.7323 0.2751 0 7
-8.1746 4.9357 -2.7323 0.2751 0 7
-8.2189 4.8615 -2.7323 0.2751 0 7
-8.2626 4.7869 -2.7323 0.2751 0 7
-8.3056 4.7119 -2.7323 0.2751 0 7
-8.3479 4.6365 -2.7323 0.2751 0 7
-8.3896 4.5608 -2.7323 0.2751 0 7
-8.4305 4.4846 -2.7323 0.2751 0 7
-8.4708 4.4081 -2.7323 0.2751 0 7
-8.5103 4.3312 -2.7323 0.2751 0 7
-8.5492 4.2540 -2.7323 0.2751 0 7
-8.5874 4.1764 -2.7323 0.2751 0 7
-8.6248 4.0985 -2.7323 0.2751 0 7
-8.6616 4.0203 -2.7323 0.2751 0 7
-8.6976 3.9417 -2.7323 0.2751 0 7
-8.7329 3.8628 -2.7323 0.2751 0 7
-8.7676 3.7836 -2.7323 0.2751 0 7
-8.8015 3.7040 -2.7323 0.2751 0 7
-8.8346 3.6242 -2.7323 0.2751 0 7
-8.8671 3.5440 -2.7323 0.2751 0 7
-8.8988 3.4636 -2.7323 0.2751 0 7
-8.9298 3.3829 -2.7323 0.2751 0 7
-8.9601 3.3019 -2.7323 0.2751 0 7
-8.9896 3.2207 -2.7323 0.2751 0 7
-9.0184 3.1392 -2.7323 0.2751 0 7
-9.0464 3.0574 -2.7323 0.2751 0 7
-9.0737 2.9754 -2.7323 0.2751 0 7
-9.1003 2.8931 -2.7323 0.2751 0 7
-9.1261 2.8106 -2.7323 0.2751 0 7
-9.1512 2.7278 -2.7323 0.2751 0 7
-9.1755 2.6449 -2.7323 0.2751 0 7
-9.1991 2.5617 -2.7323 0.2751 0 7
-9.2219 2.4783 -2.7323 0.2751 0 7
-9.2440 2.3947 -2.7323 0.2751 0 7
-9.2653 2.3109 -2.7323 0.2751 0 7
-9.2858 2.2270 -2.7323 0.2751 0 7
-9.3056 2.1428 -2.7323 0.2751 0 7
-9.3246 2.0585 -2.7323 0.2751 0 7
-9.3429 1.9740 -2.7323 0.2751 0 7
-9.3603 1.8893 -2.7323 0.2751 0 7
-9.3771 1.8045 -2.7323 0.2751 0 7
-9.3930 1.7195 -2.7323 0.2751 0 7
-9.4082 1.6344 -2.7323 0.2751 0 7
-9.4226 1.5491 -2.7323 0.2751 0 7
-9.4362 1.4638 -2.7323 0.2751 0 7
-9.4491 1.3783 -2.7323 0.2751 0 7
-9.4612 1.2927 -2.7323 0.2751 0 7
-9.4725 1.2070 -2.7323 0.2751 0 7
-9.4831 1.1212 -2.7323 0.2751 0 7
-9.4928 1.0352 -2.7323 0.2751 0 7
-9.5018 0.9493 -2.7323 0.2751 0 7
-9.5100 0.8632 -2.7323 0.2751 0 7
-9.5174 0.7771 -2.7323 0.2751 0 7
-9.5241 0.6909 -2.7323 0.2751 0 7
-9.5299 0.6046 -2.7323 0.2751 0 7
-9.5350 0.5183 -2.7323 0.2751 0 7
-9.5393 0.4320 -2.7323 0.2751 0 7
-9.5428 0.3456 -2.7323 0.2751 0 7
-9.5456 0.2592 -2.7323 0.2751 0 7
-9.5475 0.1727 -2.7323 0.2751 0 7
-9.5487 0.0863 -2.7323 0.2751 0 7
-9.5491 -0.0002 -2.7323 0.2751 0 7
-9.5487 -0.0866 -2.7323 0.2751 0 6
-9.5475 -0.1731 -2.7323 0.2751 0 7
-9.5456 -0.2595 -2.7323 0.2751 0 7
-9.5428 -0.3459 -2.7323 0.2751 0 6
-9.5393 -0.4323 -2.7323 0.2751 0 7
-9.5350 -0.5186 -2.7323 0.2751 0 7
-9.5299 -0.6049 -2.7323 0.2751 0 7
-9.5241 -0.6912 -2.7323 0.2751 0 7
-9.5174 -0.7774 -2.7323 0.2751 0 7
-9.5100 -0.8635 -2.7323 0.2751 0 7
-9.5018 -0.9496 -2.7323 0.2751 0 7
-9.4928 -1.0356 -2.7323 0.2751 0 7
-9.4830 -1.1215 -2.7323 0.2751 0 7
-9.4725 -1.2073 -2.7323 0.2751 0 7
-9.4612 -1.2930 -2.7323 0.2751 0 7
-9.4491 -1.3786 -2.7323 0.2751 0 7
-9.4362 -1.4641 -2.7323 0.2751 0 7
-9.4226 -1.5495 -2.7323 0.2751 0 7
-9.4081 -1.6347 -2.7323 0.2751 0 7
-9.3930 -1.7198 -2.7323 0.2751 0 7
-9.3770 -1.8048 -2.7323 0.2751 0 7
-9.3603 -1.8896 -2.7323 0.2751 0 7
-9.3428 -1.9743 -2.7323 0.2751 0 7
-9.3245 -2.0588 -2.7323 0.2751 0 7
-9.3055 -2.1431 -2.7323 0.2751 0 7
-9.2857 -2.2273 -2.7323 0.2751 0 7
-9.2652 -2.3112 -2.7323 0.2751 0 7
-9.2439 -2.3950 -2.7323 0.2751 0 7
-9.2218 -2.4786 -2.7323 0.2751 0 7
-9.1990 -2.5620 -2.7323 0.2751 0 7
-9.1754 -2.6452 -2.7323 0.2751 0 7
-9.1511 -2.7281 -2.7323 0.2751 0 7
-9.1260 -2.8109 -2.7323 0.2751 0 7
-9.1002 -2.8934 -2.7323 0.2751 0 7
-9.0736 -2.9757 -2.7323 0.2751 0 7
-9.0463 -3.0577 -2.7323 0.2751 0 7
-9.0183 -3.1395 -2.7323 0.2751 0 7
-8.9895 -3.2210 -2.7323 0.2751 0 7
-8.9599 -3.3022 -2.7323 0.2751 0 7
-8.9297 -3.3832 -2.7323 0.2751 0 7
-8.8987 -3.4639 -2.7323 0.2751 0 7
-8.8670 -3.5443 -2.7323 0.2751 0 7
-8.8345 -3.6245 -2.7323 0.2751 0 7
-8.8013 -3.7043 -2.7323 0.2751 0 7
-8.7674 -3.7838 -2.7323 0.2751 0 7
-8.7328 -3.8631 -2.7323 0.2751 0 7
-8.6975 -3.9420 -2.7323 0.2751 0 7
-8.6614 -4.0206 -2.7323 0.2751 0 7
-8.6247 -4.0988 -2.7323 0.2751 0 7
-8.5872 -4.1767 -2.7323 0.2751 0 7
-8.5491 -4.2543 -2.7323 0.2751 0 7
-8.5102 -4.3315 -2.7323 0.2751 0 7
-8.4706 -4.4084 -2.7323 0.2751 0 7
-8.4304 -4.4849 -2.7323 0.2751 0 7
-8.3894 -4.5610 -2.7323 0.2751 0 7
-8.3478 -4.6368 -2.7323 0.2751 0 7
-8.3055 -4.7122 -2.7323 0.2751 0 7
-8.2625 -4.7872 -2.7323 0.2751 0 7
-8.2188 -4.8618 -2.7323 0.2751 0 7
-8.1744 -4.9360 -2.7323 0.2751 0 7
-8.1294 -5.0098 -2.7323 0.2751 0 7
-8.0837 -5.0832 -2.7323 0.2751 0 7
-8.0374 -5.1562 -2.7323 0.2751 0 7
-7.9903 -5.2287 -2.7323 0.2751 0 7
-7.9427 -5.3009 -2.7323 0.2751 0 7
-7.8944 -5.3726 -2.7323 0.2751 0 7
-7.8454 -5.4438 -2.7323 0.2751 0 7
-7.7958 -5.5146 -2.7323 0.2751 0 7
-7.7456 -5.5850 -2.7323 0.2751 0 7
-7.6947 -5.6549 -2.7323 0.2751 0 7
-7.6432 -5.7243 -2.7323 0.2751 0 7
-7.5910 -5.7933 -2.7323 0.2751 0 7
-7.5383 -5.8617 -2.7323 0.2751 0 7
-7.4849 -5.9298 -2.7323 0.2751 0 7
-7.4309 -5.9973 -2.7323 0.2751 0 7
-7.3763 -6.0643 -2.7323 0.2751 0 7
-7.3211 -6.1308 -2.7323 0.2751 0 7
-7.2653 -6.1969 -2.7323 0.2751 0 7
-7.2089 -6.2624 -2.7323 0.2751 0 7
-7.1519 -6.3274 -2.7323 0.2751 0 7
-7.0943 -6.3919 -2.7323 0.2751 0 7
-7.0361 -6.4558 -2.7323 0.2751 0 7
-6.9774 -6.5193 -2.7323 0.2751 0 7
-6.9181 -6.5822 -2.7323 0.2751 0 7
-6.8582 -6.6446 -2.7323 0.2751 0 7
-6.7978 -6.7064 -2.7323 0.2751 0 7
-6.7368 -6.7676 -2.7323 0.2751 0 7
-6.6752 -6.8284 -2.7323 0.2751 0 7
-6.6131 -6.8885 -2.7323 0.2751 0 7
-6.5505 -6.9481 -2.7323 0.2751 0 7
-6.4873 -7.0071 -2.7323 0.2751 0 7
-6.4236 -7.0656 -2.7323 0.2751 0 7
-6.3594 -7.1234 -2.7323 0.2751 0 7
-6.2947 -7.1807 -2.7323 0.2751 0 7
-6.2294 -7.2374 -2.7323 0.2751 0 7
-6.1636 -7.2935 -2.7323 0.2751 0 7
-6.0973 -7.3490 -2.7323 0.2751 0 7
-6.0305 -7.4039 -2.7323 0.2751 0 7
-5.9633 -7.4582 -2.7323 0.2751 0 7
-5.8955 -7.5119 -2.7323 0.2751 0 7
-5.8272 -7.5650 -2.7323 0.2751 0 7
-5.7585 -7.6174 -2.7323 0.2751 0 6
-5.6893 -7.6692 -2.7323 0.2751 0 6
-5.6196 -7.7204 -2.7323 0.2751 0 6
-5.5495 -7.7710 -2.7323 0.2751 0 7
-5.4789 -7.8209 -2.7323 0.2751 0 7
-5.4079 -7.8702 -2.7323 0.2751 0 7
-5.3364 -7.9188 -2.7323 0.2751 0 7
-5.2645 -7.9668 -2.7323 0.2751 0 7
-5.1922 -8.0142 -2.7323 0.2751 0 7
-5.1194 -8.0608 -2.7323 0.2751 0 7
-5.0462 -8.1069 -2.7323 0.2751 0 7
-4.9726 -8.1522 -2.7323 0.2751 0 7
-4.8986 -8.1969 -2.7323 0.2751 0 7
-4.8242 -8.2409 -2.7323 0.2751 0 7
-4.7494 -8.2842 -2.7323 0.2751 0 7
-4.6742 -8.3269 -2.7323 0.2751 0 7
-4.5986 -8.3689 -2.7323 0.2751 0 7
-4.5227 -8.4102 -2.7323 0.2751 0 7
-4.4463 -8.4508 -2.7323 0.2751 0 7
-4.3696 -8.4907 -2.7323 0.2751 0 7
-4.2926 -8.5299 -2.7323 0.2751 0 7
-4.2152 -8.5684 -2.7323 0.2751 0 7
-4.1374 -8.6062 -2.7323 0.2751 0 7
-4.0594 -8.6433 -2.7323 0.2751 0 7
-3.9809 -8.6797 -2.7323 0.2751 0 7
-3.9022 -8.7154 -2.7323 0.2751 0 7
-3.8231 -8.7504 -2.7323 0.2751 0 7
-3.7437 -8.7846 -2.7323 0.2751 0 7
-3.6641 -8.8182 -2.7323 0.2751 0 7
-3.5841 -8.8510 -2.7323 0.2751 0 7
-3.5038 -8.8831 -2.7323 0.2751 0 7
-3.4232 -8.9144 -2.7323 0.2751 0 7
-3.3424 -8.9450 -2.7323 0.2751 0 7
-3.2613 -8.9749 -2.7323 0.2751 0 7
-3.1799 -9.0041 -2.7323 0.2751 0 7
-3.0982 -9.0325 -2.7323 0.2751 0 7
-3.0163 -9.0602 -2.7323 0.2751 0 7
-2.9342 -9.0871 -2.7323 0.2751 0 7
-2.8518 -9.1133 -2.7323 0.2751 0 7
-2.7692 -9.1388 -2.7323 0.2751 0 7
-2.6863 -9.1635 -2.7323 0.2751 0 7
-2.6032 -9.1874 -2.7323 0.2751 0 7
-2.5200 -9.2106 -2.7323 0.2751 0 7
-2.4365 -9.2330 -2.7323 0.2751 0 7
-2.3528 -9.2547 -2.7323 0.2751 0 7
-2.2689 -9.2756 -2.7323 0.2751 0 7
-2.1848 -9.2958 -2.7323 0.2751 0 7
-2.1006 -9.3152 -2.7323 0.2751 0 7
-2.0161 -9.3338 -2.7323 0.2751 0 7
-1.9316 -9.3517 -2.7323 0.2751 0 7
-1.8468 -9.3688 -2.7323 0.2751 0 7
-1.7619 -9.3851 -2.7323 0.2751 0 7
-1.6769 -9.4007 -2.7323 0.2751 0 7
-1.5917 -9.4155 -2.7323 0.2751 0 7
-1.5064 -9.4295 -2.7323 0.2751 0 7
-1.4210 -9.4428 -2.7323 0.2751 0 7
-1.3354 -9.4553 -2.7323 0.2751 0 7
-1.2497 -9.4670 -2.7323 0.2751 0 7
-1.1640 -9.4779 -2.7323 0.2751 0 7
-1.0781 -9.4880 -2.7323 0.2751 0 7
-0.9922 -9.4974 -2.7323 0.2751 0 7
-0.9062 -9.5060 -2.7323 0.2751 0 7
-0.8201 -9.5138 -2.7323 0.2751 0 7
-0.7339 -9.5209 -2.7323 0.2751 0 7
-0.6477 -9.5271 -2.7323 0.2751 0 7
-0.5614 -9.5326 -2.7323 0.2751 0 7
-0.4751 -9.5373 -2.7323 0.2751 0 7
-0.3887 -9.5412 -2.7323 0.2751 0 7
-0.3023 -9.5443 -2.7323 0.2751 0 7
-0.2159 -9.5467 -2.7323 0.2751 0 7
-0.1294 -9.5482 -2.7323 0.2751 0 7
-0.0430 -9.5490 -2.7323 0.2751 0 7
0.0435 -9.5490 -2.7323 0.2751 0 7
0.1299 -9.5482 -2.7323 0.2751 0 7
0.2164 -9.5467 -2.7323 0.2751 0 7
0.3028 -9.5443 -2.7323 0.2751 0 7
0.3892 -9.5412 -2.7323 0.2751 0 7
0.4755 -9.5373 -2.7323 0.2751 0 7
0.5619 -9.5326 -2.7323 0.2751 0 7
0.6481 -9.5271 -2.7323 0.2751 0 7
0.6909 -8.9574 -2.5706 0.7295 0 10
0.7713 -8.9427 -2.5683 0.9256 0 10
0.8590 -9.0061 -2.5887 0.2783 0 10
0.9436 -9.0278 -2.5972 0.9195 0 10
1.0275 -9.0381 -2.6028 0.9135 0 10
1.1048 -8.9925 -2.5924 0.7014 0 10
1.1868 -8.9863 -2.5936 0.6556 0 10
1.3359 -9.4552 -2.7323 0.2751 0 7
1.4214 -9.4427 -2.7323 0.2751 0 7
1.5069 -9.4295 -2.7323 0.2751 0 7
1.5922 -9.4154 -2.7323 0.2751 0 7
1.6773 -9.4006 -2.7323 0.2751 0 7
1.7624 -9.3851 -2.7323 0.2751 0 7
1.8473 -9.3687 -2.7323 0.2751 0 7
1.9320 -9.3516 -2.7323 0.2751 0 7
2.0166 -9.3337 -2.7323 0.2751 0 7
2.1010 -9.3151 -2.7323 0.2751 0 7
2.1853 -9.2957 -2.7323 0.2751 0 7
2.2694 -9.2755 -2.7323 0.2751 0 7
2.3532 -9.2546 -2.7323 0.2751 0 7
2.4369 -9.2329 -2.7323 0.2751 0 7
2.5204 -9.2105 -2.7323 0.2751 0 7
2.6037 -9.1873 -2.7323 0.2751 0 7
2.6868 -9.1633 -2.7323 0.2751 0 7
2.7696 -9.1386 -2.7323 0.2751 0 7
2.8522 -9.1132 -2.7323 0.2751 0 7
2.9346 -9.0870 -2.7323 0.2751 0 7
3.0168 -9.0600 -2.7323 0.2751 0 7
3.0987 -9.0324 -2.7323 0.2751 0 7
3.1803 -9.0039 -2.7323 0.2751 0 7
3.2617 -8.9748 -2.7323 0.2751 0 7
3.3428 -8.9449 -2.7323 0.2751 0 7
3.4237 -8.9142 -2.7323 0.2751 0 7
3.5042 -8.8829 -2.7323 0.2751 0 7
3.5845 -8.8508 -2.7323 0.2751 0 7
3.6645 -8.8180 -2.7323 0.2751 0 7
3.7442 -8.7844 -2.7323 0.2751 0 7
3.8236 -8.7502 -2.7323 0.2751 0 7
3.9026 -8.7152 -2.7323 0.2751 0 7
3.9814 -8.6795 -2.7323 0.2751 0 6
4.0598 -8.6431 -2.7323 0.2751 0 6
4.1379 -8.6060 -2.7323 0.2751 0 6
4.2156 -8.5682 -2.7323 0.2751 0 7
4.2930 -8.5297 -2.7323 0.2751 0 7
4.3701 -8.4905 -2.7323 0.2751 0 7
4.4468 -8.4505 -2.7323 0.2751 0 7
4.5231 -8.4099 -2.7323 0.2751 0 7
4.5990 -8.3686 -2.7323 0.2751 0 7
4.6746 -8.3267 -2.7323 0.2751 0 7
4.7498 -8.2840 -2.7323 0.2751 0 7
4.8246 -8.2407 -2.7323 0.2751 0 7
4.8990 -8.1966 -2.7323 0.2751 0 7
4.9730 -8.1520 -2.7323 0.2751 0 7
5.0466 -8.1066 -2.7323 0.2751 0 7
5.1198 -8.0606 -2.7323 0.2751 0 7
5.1926 -8.0139 -2.7323 0.2751 0 7
5.2649 -7.9666 -2.7323 0.2751 0 7
5.3368 -7.9186 -2.7323 0.2751 0 7
5.4083 -7.8699 -2.7323 0.2751 0 7
5.4793 -7.8206 -2.7323 0.2751 0 7
5.5499 -7.7707 -2.7323 0.2751 0 7
5.6200 -7.7201 -2.7323 0.2751 0 7
5.6897 -7.6689 -2.7323 0.2751 0 7
5.7589 -7.6171 -2.7323 0.2751 0 7
5.8276 -7.5647 -2.7323 0.2751 0 7
5.8959 -7.5116 -2.7323 0.2751 0 7
5.9636 -7.4579 -2.7323 0.2751 0 7
6.0309 -7.4036 -2.7323 0.2751 0 7
6.0977 -7.3487 -2.7323 0.2751 0 7
6.1640 -7.2932 -2.7323 0.2751 0 7
6.2297 -7.2371 -2.7323 0.2751 0 7
6.2950 -7.1804 -2.7323 0.2751 0 7
6.3598 -7.1231 -2.7323 0.2751 0 7
6.4240 -7.0652 -2.7323 0.2751 0 7
6.4877 -7.0068 -2.7323 0.2751 0 7
6.5509 -6.9478 -2.7323 0.2751 0 7
6.6135 -6.8882 -2.7323 0.2751 0 7
6.6756 -6.8280 -2.7323 0.2751 0 7
6.7371 -6.7673 -2.7323 0.2751 0 7
6.7981 -6.7060 -2.7323 0.2751 0 7
6.8586 -6.6442 -2.7323 0.2751 0 7
6.9184 -6.5818 -2.7323 0.2751 0 7
6.9777 -6.5189 -2.7323 0.2751 0 7
7.0365 -6.4555 -2.7323 0.2751 0 7
7.0946 -6.3915 -2.7323 0.2751 0 7
7.1522 -6.3270 -2.7323 0.2751 0 7
7.2092 -6.2620 -2.7323 0.2751 0 7
7.2656 -6.1965 -2.7323 0.2751 0 7
7.3214 -6.1305 -2.7323 0.2751 0 7
7.3766 -6.0639 -2.7323 0.2751 0 7
7.4312 -5.9969 -2.7323 0.2751 0 7
7.4852 -5.9294 -2.7323 0.2751 0 7
7.5386 -5.8614 -2.7323 0.2751 0 7
7.5913 -5.7929 -2.7323 0.2751 0 7
7.6434 -5.7239 -2.7323 0.2751 0 7
7.6950 -5.6545 -2.7323 0.2751 0 7
7.7458 -5.5846 -2.7323 0.2751 0 7
7.7961 -5.5142 -2.7323 0.2751 0 7
7.8457 -5.4434 -2.7323 0.2751 0 7
7.8946 -5.3722 -2.7323 0.2751 0 7
7.9430 -5.3005 -2.7323 0.2751 0 7
7.9906 -5.2283 -2.7323 0.2751 0 7
8.0376 -5.1558 -2.7323 0.2751 0 7
8.0840 -5.0828 -2.7323 0.2751 0 7
8.1297 -5.0094 -2.7323 0.2751 0 7
8.1747 -4.9356 -2.7323 0.2751 0 7
8.2190 -4.8614 -2.7323 0.2751 0 7
8.2627 -4.7868 -2.7323 0.2751 0 7
8.3057 -4.7118 -2.7323 0.2751 0 7
8.3480 -4.6364 -2.7323 0.2751 0 7
8.3896 -4.5606 -2.7323 0.2751 0 7
8.4306 -4.4845 -2.7323 0.2751 0 7
8.4708 -4.4080 -2.7323 0.2751 0 7
8.5104 -4.3311 -2.7323 0.2751 0 7
8.5493 -4.2539 -2.7323 0.2751 0 7
8.5874 -4.1763 -2.7323 0.2751 0 7
8.6249 -4.0984 -2.7323 0.2751 0 7
8.6616 -4.0201 -2.7323 0.2751 0 7
8.6977 -3.9415 -2.7323 0.2751 0 7
8.7330 -3.8626 -2.7323 0.2751 0 7
8.7676 -3.7834 -2.7323 0.2751 0 7
8.8015 -3.7039 -2.7323 0.2751 0 7
8.8347 -3.6240 -2.7323 0.2751 0 7
8.8671 -3.5439 -2.7323 0.2751 0 7
8.8989 -3.4635 -2.7323 0.2751 0 7
8.9298 -3.3828 -2.7323 0.2751 0 7
8.9601 -3.3018 -2.7323 0.2751 0 7
8.9896 -3.2205 -2.7323 0.2751 0 7
9.0184 -3.1390 -2.7323 0.2751 0 7
9.0465 -3.0572 -2.7323 0.2751 0 7
9.0738 -2.9752 -2.7323 0.2751 0 7
9.1003 -2.8929 -2.7323 0.2751 0 7
9.1262 -2.8104 -2.7323 0.2751 0 7
9.1512 -2.7277 -2.7323 0.2751 0 7
9.1756 -2.6447 -2.7323 0.2751 0 7
9.1991 -2.5615 -2.7323 0.2751 0 7
9.2219 -2.4781 -2.7323 0.2751 0 7
9.2440 -2.3946 -2.7323 0.2751 0 7
9.2653 -2.3108 -2.7323 0.2751 0 6
9.2858 -2.2268 -2.7323 0.2751 0 6
9.3056 -2.1426 -2.7323 0.2751 0 7
9.3246 -2.0583 -2.7323 0.2751 0 6
9.3429 -1.9738 -2.7323 0.2751 0 7
9.3604 -1.8891 -2.7323 0.2751 0 7
9.3771 -1.8043 -2.7323 0.2751 0 7
9.3930 -1.7193 -2.7323 0.2751 0 7
9.4082 -1.6342 -2.7323 0.2751 0 7
9.4226 -1.5490 -2.7323 0.2751 0 7
9.4363 -1.4636 -2.7323 0.2751 0 7
9.4491 -1.3781 -2.7323 0.2751 0 7
9.4612 -1.2925 -2.7323 0.2751 0 7
9.4725 -1.2068 -2.7323 0.2751 0 7
9.4831 -1.1210 -2.7323 0.2751 0 7
9.4928 -1.0351 -2.7323 0.2751 0 7
9.5018 -0.9491 -2.7323 0.2751 0 7
9.5100 -0.8630 -2.7323 0.2751 0 7
9.5174 -0.7769 -2.7323 0.2751 0 7
9.5241 -0.6907 -2.7323 0.2751 0 7
9.5300 -0.6045 -2.7323 0.2751 0 7
9.5350 -0.5182 -2.7323 0.2751 0 7
9.5393 -0.4318 -2.7323 0.2751 0 7
