ply
format ascii 1.0
element vertex 1350
property float32 x
property float32 y
property float32 z
property float32 CosAngle
property uint32 ObjIdx
property uint32 ObjTag
end_header
-15.1601 31.1545 -2.6385 0.0802 0 8
-15.4488 31.0311 -2.6398 0.0759 0 7
-15.7290 30.8900 -2.6398 0.0759 0 7
-16.0079 30.7464 -2.6398 0.0759 0 7
-16.2854 30.6003 -2.6398 0.0759 0 7
-16.5616 30.4517 -2.6398 0.0759 0 7
-16.8365 30.3006 -2.6398 0.0759 0 7
-17.1100 30.1470 -2.6398 0.0759 0 6
-17.3821 29.9909 -2.6398 0.0759 0 7
-17.6528 29.8324 -2.6398 0.0759 0 7
-17.9220 29.6715 -2.6398 0.0759 0 7
-18.1897 29.5081 -2.6398 0.0759 0 7
-18.4560 29.3423 -2.6398 0.0759 0 7
-18.7208 29.1740 -2.6398 0.0759 0 7
-18.9840 29.0035 -2.6398 0.0759 0 7
-19.2457 28.8305 -2.6398 0.0759 0 7
-19.5058 28.6552 -2.6398 0.0759 0 7
-19.7642 28.4775 -2.6398 0.0759 0 7
-20.0211 28.2975 -2.6398 0.0759 0 7
-20.2764 28.1152 -2.6398 0.0759 0 7
-20.5299 27.9305 -2.6398 0.0759 0 7
-20.7818 27.7436 -2.6398 0.0759 0 7
-21.0320 27.5544 -2.6398 0.0759 0 7
-21.2805 27.3630 -2.6398 0.0759 0 7
-21.5272 27.1693 -2.6398 0.0759 0 7
-21.7722 26.9734 -2.6398 0.0759 0 7
-22.0154 26.7753 -2.6398 0.0759 0 7
-22.2568 26.5750 -2.6398 0.0759 0 7
-22.4963 26.3725 -2.6398 0.0759 0 7
-22.7341 26.1679 -2.6398 0.0759 0 6
-22.9699 25.9611 -2.6398 0.0759 0 6
-23.2039 25.7522 -2.6398 0.0759 0 7
-23.4359 25.5411 -2.6398 0.0759 0 7
-23.6661 25.3280 -2.6398 0.0759 0 7
-23.8943 25.1128 -2.6398 0.0759 0 7
-24.1206 24.8956 -2.6398 0.0759 0 7
-24.3449 24.6763 -2.6398 0.0759 0 7
-24.5672 24.4550 -2.6398 0.0759 0 7
-24.7874 24.2317 -2.6398 0.0759 0 7
-25.0057 24.0064 -2.6398 0.0759 0 7
-25.2219 23.7792 -2.6398 0.0759 0 7
-25.4360 23.5500 -2.6398 0.0759 0 7
-25.6481 23.3188 -2.6398 0.0759 0 7
-25.8581 23.0858 -2.6398 0.0759 0 7
-26.0659 22.8509 -2.6398 0.0759 0 7
-26.2716 22.6141 -2.6398 0.0759 0 7
-26.4751 22.3754 -2.6398 0.0759 0 7
-26.6765 22.1349 -2.6398 0.0759 0 7
-26.8757 21.8926 -2.6398 0.0759 0 7
-27.0727 21.6486 -2.6398 0.0759 0 7
-27.2675 21.4027 -2.6398 0.0759 0 7
-27.4601 21.1551 -2.6398 0.0759 0 7
-27.6504 20.9057 -2.6398 0.0759 0 6
-27.8384 20.6547 -2.6398 0.0759 0 7
-28.0242 20.4019 -2.6398 0.0759 0 7
-28.2076 20.1475 -2.6398 0.0759 0 7
-28.3888 19.8914 -2.6398 0.0759 0 7
-28.5676 19.6337 -2.6398 0.0759 0 7
-28.7441 19.3744 -2.6398 0.0759 0 7
-28.8879 19.0935 -2.6370 0.0799 0 8
-28.9973 18.7910 -2.6314 0.2530 0 8
-28.2081 17.9193 -2.5449 0.2616 0 8
-27.7276 17.2638 -2.4874 0.0759 0 8
-27.8826 17.0122 -2.4874 0.0759 0 8
-28.0355 16.7593 -2.4874 0.0759 0 8
-28.1859 16.5048 -2.4874 0.0759 0 8
-28.3341 16.2491 -2.4874 0.0759 0 8
-28.4800 15.9921 -2.4874 0.0759 0 8
-28.6235 15.7337 -2.4874 0.0759 0 8
-28.7647 15.4741 -2.4874 0.0759 0 8
-28.9036 15.2131 -2.4874 0.0759 0 8
-29.0400 14.9510 -2.4874 0.0759 0 8
-28.5716 14.3842 -2.4360 0.3472 0 1
-28.0192 13.7898 -2.3782 0.3556 0 1
-27.4923 13.2228 -2.3232 0.3640 0 1
-26.9891 12.6814 -2.2709 0.3724 0 1
-26.5081 12.1637 -2.2211 0.3808 0 1
-26.0477 11.6683 -2.1735 0.3891 0 1
-25.6066 11.1936 -2.1282 0.3974 0 1
-25.1834 10.7383 -2.0849 0.4056 0 1
-24.7771 10.3011 -2.0434 0.4139 0 1
-24.3866 9.8809 -2.0038 0.4221 0 1
-24.0110 9.4767 -1.9658 0.4302 0 1
-23.9388 9.1987 -1.9530 0.0759 0 1
-24.4877 9.1562 -1.9909 0.9510 0 9
-24.2377 8.8135 -1.9640 0.2091 0 9
-23.8766 8.4384 -1.9285 0.2912 0 9
-23.7589 8.1557 -1.9129 0.9422 0 9
-23.3283 7.7727 -1.8725 0.5981 0 9
-23.4022 7.5627 -1.8729 0.5065 0 9
-23.1422 7.2481 -1.8468 0.7482 0 9
-23.0151 6.9802 -1.8315 0.9571 0 9
-23.0391 6.7605 -1.8285 0.7336 0 9
-22.8825 6.4902 -1.8113 0.3154 0 9
-22.9669 6.2902 -1.8134 0.9269 0 9
-22.9699 6.0681 -1.8092 0.4520 0 9
-22.5627 5.7426 -1.7730 0.5064 0 9
-22.5166 5.5144 -1.7654 0.5549 0 9
-22.3095 5.2502 -1.7453 0.5310 0 9
-22.3251 5.0411 -1.7429 0.4772 0 9
-22.3629 4.8374 -1.7424 0.4462 0 9
-22.2821 4.6093 -1.7328 0.5284 0 9
-22.3975 4.4222 -1.7386 0.7541 0 9
-22.4006 4.2126 -1.7358 0.7553 0 9
-22.3561 3.9951 -1.7295 0.5138 0 9
-22.2781 3.7735 -1.7207 0.6476 0 9
-22.3941 3.5850 -1.7271 0.6452 0 9
-22.5610 3.4026 -1.7375 0.5420 0 9
-22.5868 3.1978 -1.7372 0.7442 0 9
-22.5585 2.9858 -1.7329 0.7511 0 9
-22.5924 2.7825 -1.7335 0.3877 0 9
-22.7027 2.5878 -1.7401 0.5895 0 9
-22.8122 2.3913 -1.7467 0.4108 0 9
-22.8493 2.1864 -1.7480 0.5308 0 9
-22.9764 1.9889 -1.7563 0.6292 0 9
-22.9447 1.7771 -1.7525 0.7947 0 9
-23.1333 1.5813 -1.7658 0.4663 0 9
-23.0904 1.3686 -1.7615 0.4666 0 9
-23.1202 1.1605 -1.7629 0.5323 0 9
-23.2733 0.9572 -1.7738 0.5151 0 9
-23.2984 0.7471 -1.7752 0.7849 0 9
-23.4099 0.5386 -1.7832 0.9694 0 9
-23.4825 0.3277 -1.7884 0.8876 0 9
-23.8941 0.1173 -1.8196 0.4757 0 9
-23.8856 -0.0989 -1.8190 0.3808 0 9
-24.0545 -0.3173 -1.8320 0.5372 0 9
-24.4625 -0.5441 -1.8634 0.7453 0 9
-24.7375 -0.7742 -1.8848 0.9691 0 9
-24.7011 -0.9969 -1.8826 0.9740 0 9
-25.0546 -1.2383 -1.9103 0.8715 0 9
-25.5329 -1.4937 -1.9477 0.9391 0 9
-25.7416 -1.7398 -1.9648 0.7636 0 9
-25.5704 -1.9608 -1.9530 0.0759 0 1
-25.5516 -2.1921 -1.9530 0.0759 0 1
-25.8118 -2.4499 -1.9745 0.6064 0 1
-26.0979 -2.7155 -1.9982 0.5992 0 1
-22.0675 -2.4982 -1.6912 0.9673 0 5
-26.6913 -3.2665 -2.0478 0.5847 0 1
-26.9992 -3.5524 -2.0738 0.5774 0 1
-27.3151 -3.8458 -2.1006 0.5700 0 1
-27.6393 -4.1468 -2.1284 0.5626 0 1
-27.9722 -4.4559 -2.1570 0.5551 0 1
-28.3142 -4.7735 -2.1866 0.5476 0 1
-28.6658 -5.1000 -2.2173 0.5400 0 1
-29.0274 -5.4357 -2.2489 0.5324 0 1
-29.3995 -5.7812 -2.2817 0.5247 0 1
-29.7826 -6.1370 -2.3157 0.5171 0 1
-30.1774 -6.5036 -2.3509 0.5093 0 1
-30.5843 -6.8814 -2.3873 0.5015 0 1
-31.0042 -7.2713 -2.4251 0.4937 0 1
-31.4375 -7.6737 -2.4644 0.4859 0 1
-31.6598 -8.0322 -2.4874 0.0759 0 8
-31.5858 -8.3183 -2.4874 0.0759 0 8
-31.5093 -8.6038 -2.4874 0.0759 0 8
-31.4301 -8.8886 -2.4874 0.0759 0 8
-31.3484 -9.1726 -2.4874 0.0759 0 8
-31.2641 -9.4559 -2.4874 0.0759 0 8
-31.1772 -9.7384 -2.4874 0.0759 0 8
-31.0878 -10.0201 -2.4874 0.0759 0 8
-30.9959 -10.3010 -2.4874 0.0759 0 8
-30.9014 -10.5811 -2.4874 0.0759 0 8
-30.8044 -10.8602 -2.4874 0.0759 0 8
-30.7049 -11.1386 -2.4874 0.0759 0 8
-30.7721 -11.4791 -2.5011 0.3937 0 8
-31.3189 -12.0070 -2.5543 0.3855 0 8
-31.8892 -12.5577 -2.6100 0.3773 0 8
-32.0784 -12.9688 -2.6350 0.0820 0 8
-32.0155 -13.2816 -2.6395 0.0819 0 8
-31.8967 -13.5719 -2.6398 0.0759 0 7
-31.7725 -13.8600 -2.6398 0.0759 0 7
-31.6458 -14.1469 -2.6398 0.0759 0 7
-31.5165 -14.4327 -2.6398 0.0759 0 7
25.1639 -0.0000 -2.4874 0.0984 0 8
25.1629 0.2277 -2.4874 0.0984 0 8
25.1598 0.4554 -2.4874 0.0984 0 8
25.1546 0.6830 -2.4874 0.0984 0 8
25.1474 0.9106 -2.4874 0.0984 0 8
25.1381 1.1381 -2.4874 0.0984 0 8
25.1268 1.3656 -2.4874 0.0984 0 8
25.1134 1.5929 -2.4874 0.0984 0 8
25.0980 1.8201 -2.4874 0.0984 0 8
25.0805 2.0471 -2.4874 0.0984 0 8
25.0609 2.2739 -2.4874 0.0984 0 8
25.0393 2.5006 -2.4874 0.0984 0 8
25.0157 2.7271 -2.4874 0.0984 0 8
24.9900 2.9533 -2.4874 0.0984 0 8
24.9622 3.1793 -2.4874 0.0984 0 8
24.9324 3.4051 -2.4874 0.0984 0 8
24.9006 3.6305 -2.4874 0.0984 0 8
24.8667 3.8557 -2.4874 0.0984 0 8
24.8308 4.0806 -2.4874 0.0984 0 8
24.7929 4.3051 -2.4874 0.0984 0 8
24.7529 4.5293 -2.4874 0.0984 0 8
24.7109 4.7531 -2.4874 0.0984 0 8
24.6669 4.9765 -2.4874 0.0984 0 8
24.6208 5.1995 -2.4874 0.0984 0 8
24.5728 5.4220 -2.4874 0.0984 0 8
24.5227 5.6442 -2.4874 0.0984 0 8
24.4706 5.8658 -2.4874 0.0984 0 8
24.4166 6.0870 -2.4874 0.0984 0 8
24.3605 6.3077 -2.4874 0.0984 0 8
24.3024 6.5279 -2.4874 0.0984 0 8
24.3000 6.7636 -2.4933 0.3966 0 8
24.6446 7.1004 -2.5351 0.4649 0 8
25.0039 7.4496 -2.5789 0.4570 0 8
25.3758 7.8111 -2.6245 0.4491 0 8
25.4058 8.0727 -2.6350 0.1056 0 8
25.3648 8.3131 -2.6384 0.1055 0 8
25.3012 8.5466 -2.6398 0.0984 0 7
25.2228 8.7752 -2.6398 0.0984 0 7
25.1423 9.0030 -2.6398 0.0984 0 7
25.0598 9.2302 -2.6398 0.0984 0 7
24.9753 9.4566 -2.6398 0.0984 0 7
24.8887 9.6822 -2.6398 0.0984 0 7
24.8001 9.9070 -2.6398 0.0984 0 7
24.7094 10.1310 -2.6398 0.0984 0 7
24.6167 10.3542 -2.6398 0.0984 0 7
24.5220 10.5765 -2.6398 0.0984 0 7
24.4253 10.7979 -2.6398 0.0984 0 7
24.3266 11.0185 -2.6398 0.0984 0 7
24.2259 11.2382 -2.6398 0.0984 0 7
24.1232 11.4569 -2.6398 0.0984 0 7
24.0186 11.6748 -2.6398 0.0984 0 7
23.9120 11.8916 -2.6398 0.0984 0 7
23.8034 12.1075 -2.6398 0.0984 0 7
23.6929 12.3224 -2.6398 0.0984 0 7
23.5804 12.5363 -2.6398 0.0984 0 7
23.4660 12.7491 -2.6398 0.0984 0 7
23.3496 12.9610 -2.6398 0.0984 0 7
23.2314 13.1717 -2.6398 0.0984 0 7
23.1113 13.3814 -2.6398 0.0984 0 7
22.9892 13.5900 -2.6398 0.0984 0 7
22.8653 13.7974 -2.6398 0.0984 0 7
22.7395 14.0038 -2.6398 0.0984 0 7
22.6119 14.2090 -2.6398 0.0984 0 7
22.4824 14.4130 -2.6398 0.0984 0 7
22.3510 14.6158 -2.6398 0.0984 0 7
22.2179 14.8175 -2.6398 0.0984 0 7
22.0829 15.0179 -2.6398 0.0984 0 7
21.9461 15.2171 -2.6398 0.0984 0 7
21.8075 15.4151 -2.6398 0.0984 0 7
21.6671 15.6118 -2.6398 0.0984 0 7
21.5250 15.8072 -2.6398 0.0984 0 7
21.3810 16.0013 -2.6398 0.0984 0 7
21.2354 16.1942 -2.6398 0.0984 0 7
21.0880 16.3856 -2.6398 0.0984 0 7
20.9388 16.5758 -2.6398 0.0984 0 7
20.7880 16.7646 -2.6398 0.0984 0 7
20.6354 16.9520 -2.6398 0.0984 0 6
20.4812 17.1380 -2.6398 0.0984 0 7
13.6244 11.6117 -1.7695 0.8985 0 19
13.5141 11.7304 -1.7689 0.9321 0 19
16.6355 14.7059 -2.1948 0.4043 0 19
18.7591 16.8880 -2.4950 0.0984 0 14
18.6055 17.0571 -2.4950 0.0984 0 14
18.4504 17.2247 -2.4950 0.0984 0 14
18.2937 17.3910 -2.4950 0.0984 0 14
12.9088 12.4961 -1.7759 0.8187 0 9
12.7245 12.5427 -1.7661 0.9370 0 9
12.6217 12.6686 -1.7677 0.9361 0 9
12.5285 12.8047 -1.7708 0.7613 0 9
17.4884 18.2006 -2.4950 0.0984 0 14
17.3230 18.3581 -2.4950 0.0984 0 14
16.9716 18.3148 -2.4681 0.9427 0 19
14.9132 16.3886 -2.1903 0.9455 0 19
12.9036 14.4405 -1.9142 0.9483 0 19
11.8393 13.4932 -1.7744 0.9510 0 19
17.4310 20.2325 -2.6398 0.0984 0 6
17.2472 20.3894 -2.6398 0.0984 0 7
17.0620 20.5446 -2.6398 0.0984 0 7
16.8754 20.6981 -2.6398 0.0984 0 7
16.6874 20.8500 -2.6398 0.0984 0 7
16.4981 21.0001 -2.6398 0.0984 0 7
16.3074 21.1486 -2.6398 0.0984 0 7
16.1153 21.2953 -2.6398 0.0984 0 7
15.9220 21.4402 -2.6398 0.0984 0 7
15.7274 21.5834 -2.6398 0.0984 0 7
15.5314 21.7248 -2.6398 0.0984 0 7
15.3342 21.8645 -2.6398 0.0984 0 7
15.1357 22.0023 -2.6398 0.0984 0 7
14.9360 22.1384 -2.6398 0.0984 0 7
14.7350 22.2726 -2.6398 0.0984 0 7
14.5329 22.4051 -2.6398 0.0984 0 7
14.3296 22.5357 -2.6398 0.0984 0 7
14.1251 22.6644 -2.6398 0.0984 0 7
13.9194 22.7913 -2.6398 0.0984 0 7
13.7126 22.9163 -2.6398 0.0984 0 7
13.5047 23.0394 -2.6398 0.0984 0 7
13.2956 23.1607 -2.6398 0.0984 0 7
13.0855 23.2801 -2.6398 0.0984 0 7
12.8743 23.3975 -2.6398 0.0984 0 7
12.6621 23.5131 -2.6398 0.0984 0 7
12.4488 23.6267 -2.6398 0.0984 0 7
12.2345 23.7383 -2.6398 0.0984 0 7
12.0192 23.8481 -2.6398 0.0984 0 7
11.8029 23.9559 -2.6398 0.0984 0 7
11.5857 24.0617 -2.6398 0.0984 0 7
11.3675 24.1655 -2.6398 0.0984 0 6
11.1483 24.2674 -2.6398 0.0984 0 7
10.9283 24.3673 -2.6398 0.0984 0 7
10.7074 24.4652 -2.6398 0.0984 0 7
10.4855 24.5611 -2.6398 0.0984 0 7
10.2629 24.6549 -2.6398 0.0984 0 7
10.0393 24.7468 -2.6398 0.0984 0 7
9.8150 24.8366 -2.6398 0.0984 0 7
9.5899 24.9244 -2.6398 0.0984 0 7
9.3639 25.0102 -2.6398 0.0984 0 7
9.1372 25.0939 -2.6398 0.0984 0 7
8.9098 25.1755 -2.6398 0.0984 0 7
8.6716 25.2261 -2.6367 0.1062 0 8
8.4323 25.2715 -2.6334 0.1063 0 8
8.1181 25.0834 -2.6060 0.4895 0 8
7.7680 24.7644 -2.5655 0.4972 0 8
7.4285 24.4549 -2.5264 0.5049 0 8
7.1017 24.1630 -2.4895 0.4253 0 8
6.8770 24.2059 -2.4874 0.0984 0 8
6.6577 24.2672 -2.4874 0.0984 0 8
6.4378 24.3264 -2.4874 0.0984 0 8
6.2174 24.3837 -2.4874 0.0984 0 8
5.9965 24.4390 -2.4874 0.0984 0 8
5.7751 24.4922 -2.4874 0.0984 0 8
5.5532 24.5435 -2.4874 0.0984 0 8
5.3309 24.5927 -2.4874 0.0984 0 8
5.1082 24.6399 -2.4874 0.0984 0 8
4.8850 24.6852 -2.4874 0.0984 0 8
4.6615 24.7284 -2.4874 0.0984 0 8
4.4375 24.7695 -2.4874 0.0984 0 8
4.2132 24.8087 -2.4874 0.0984 0 8
3.9885 24.8458 -2.4874 0.0984 0 8
3.7636 24.8808 -2.4874 0.0984 0 8
3.5383 24.9139 -2.4874 0.0984 0 8
3.3127 24.9449 -2.4874 0.0984 0 8
3.0868 24.9738 -2.4874 0.0984 0 8
2.8607 25.0007 -2.4874 0.0984 0 8
2.6344 25.0256 -2.4874 0.0984 0 8
2.4078 25.0484 -2.4874 0.0984 0 8
2.1810 25.0692 -2.4874 0.0984 0 8
1.9541 25.0879 -2.4874 0.0984 0 8
1.7270 25.1046 -2.4874 0.0984 0 8
1.4998 25.1191 -2.4874 0.0984 0 8
1.2724 25.1317 -2.4874 0.0984 0 8
1.0450 25.1422 -2.4874 0.0984 0 8
0.8174 25.1506 -2.4874 0.0984 0 8
0.5898 25.1570 -2.4874 0.0984 0 8
0.3621 25.1613 -2.4874 0.0984 0 8
0.1344 25.1635 -2.4874 0.0984 0 8
-0.0933 25.1637 -2.4874 0.0984 0 8
-0.3209 25.1618 -2.4874 0.0984 0 8
-0.5486 25.1579 -2.4874 0.0984 0 8
-0.7762 25.1519 -2.4874 0.0984 0 8
-1.0038 25.1438 -2.4874 0.0984 0 8
-1.2313 25.1337 -2.4874 0.0984 0 8
-1.4587 25.1216 -2.4874 0.0984 0 8
-1.6859 25.1073 -2.4874 0.0984 0 8
-1.9131 25.0911 -2.4874 0.0984 0 8
-2.1400 25.0727 -2.4874 0.0984 0 8
-2.3668 25.0523 -2.4874 0.0984 0 8
-2.5934 25.0299 -2.4874 0.0984 0 8
-2.8198 25.0054 -2.4874 0.0984 0 8
-3.0459 24.9789 -2.4874 0.0984 0 8
-3.2718 24.9503 -2.4874 0.0984 0 8
-3.4975 24.9196 -2.4874 0.0984 0 8
-3.7228 24.8870 -2.4874 0.0984 0 8
-3.9479 24.8523 -2.4874 0.0984 0 8
-4.1726 24.8155 -2.4874 0.0984 0 8
-4.3970 24.7768 -2.4874 0.0984 0 8
-4.6209 24.7360 -2.4874 0.0984 0 8
-4.8446 24.6931 -2.4874 0.0984 0 8
-5.0531 24.5765 -2.4801 0.8474 0 9
-5.2753 24.5298 -2.4801 0.5140 0 9
-5.5131 24.5525 -2.4874 0.0984 0 8
-5.7350 24.5016 -2.4874 0.0984 0 8
-5.9565 24.4488 -2.4874 0.0984 0 8
-6.1775 24.3938 -2.4874 0.0984 0 8
-6.3979 24.3370 -2.4874 0.0984 0 8
-6.6180 24.2780 -2.4874 0.0984 0 8
-6.8373 24.2172 -2.4874 0.0984 0 8
-7.0562 24.1543 -2.4874 0.0984 0 8
-7.2745 24.0895 -2.4874 0.0984 0 8
-7.4922 24.0227 -2.4874 0.0984 0 8
-7.7092 23.9539 -2.4874 0.0984 0 8
-7.9479 23.9502 -2.4943 0.3622 0 8
-8.3220 24.3384 -2.5425 0.4168 0 8
-8.7112 24.7430 -2.5929 0.4087 0 8
-9.0729 25.0447 -2.6330 0.1049 0 8
-9.3117 24.9951 -2.6366 0.1048 0 8
-9.5491 24.9401 -2.6398 0.0984 0 7
-9.7743 24.8527 -2.6398 0.0984 0 7
-9.9988 24.7632 -2.6398 0.0984 0 7
-10.2225 24.6717 -2.6398 0.0984 0 7
-10.4453 24.5782 -2.6398 0.0984 0 7
-10.6673 24.4827 -2.6398 0.0984 0 7
-10.8884 24.3851 -2.6398 0.0984 0 7
-11.1086 24.2856 -2.6398 0.0984 0 7
-11.3279 24.1841 -2.6398 0.0984 0 7
-11.5463 24.0806 -2.6398 0.0984 0 7
-11.7637 23.9751 -2.6398 0.0984 0 7
-11.9801 23.8677 -2.6398 0.0984 0 7
-12.1956 23.7583 -2.6398 0.0984 0 7
-12.4101 23.6470 -2.6398 0.0984 0 7
-12.6236 23.5337 -2.6398 0.0984 0 7
-12.8360 23.4186 -2.6398 0.0984 0 7
-13.0474 23.3014 -2.6398 0.0984 0 7
-13.2577 23.1824 -2.6398 0.0984 0 7
-13.4670 23.0615 -2.6398 0.0984 0 7
-13.6751 22.9387 -2.6398 0.0984 0 7
-13.8821 22.8140 -2.6398 0.0984 0 7
-14.0879 22.6875 -2.6398 0.0984 0 7
-14.2927 22.5591 -2.6398 0.0984 0 7
-14.4962 22.4288 -2.6398 0.0984 0 7
-14.6986 22.2967 -2.6398 0.0984 0 7
-14.8997 22.1628 -2.6398 0.0984 0 7
-15.0997 22.0271 -2.6398 0.0984 0 7
-15.2984 21.8895 -2.6398 0.0984 0 7
-15.4958 21.7502 -2.6398 0.0984 0 7
-15.6920 21.6091 -2.6398 0.0984 0 7
-15.8869 21.4662 -2.6398 0.0984 0 7
-16.0805 21.3216 -2.6398 0.0984 0 7
-16.2728 21.1752 -2.6398 0.0984 0 7
-16.4637 21.0271 -2.6398 0.0984 0 7
-16.6533 20.8773 -2.6398 0.0984 0 7
-16.8415 20.7257 -2.6398 0.0984 0 7
-17.0284 20.5725 -2.6398 0.0984 0 7
-17.2138 20.4175 -2.6398 0.0984 0 7
-17.3979 20.2609 -2.6398 0.0984 0 7
-17.5805 20.1027 -2.6398 0.0984 0 7
-17.7617 19.9428 -2.6398 0.0984 0 7
-17.9414 19.7812 -2.6398 0.0984 0 7
-18.1197 19.6181 -2.6398 0.0984 0 7
-18.2965 19.4533 -2.6398 0.0984 0 7
-18.4717 19.2870 -2.6398 0.0984 0 7
-18.6455 19.1190 -2.6398 0.0984 0 7
-18.8177 18.9495 -2.6398 0.0984 0 7
-18.9884 18.7785 -2.6398 0.0984 0 7
-19.1576 18.6059 -2.6398 0.0984 0 7
-19.3252 18.4318 -2.6398 0.0984 0 7
-19.4911 18.2562 -2.6398 0.0984 0 7
-19.6556 18.0790 -2.6398 0.0984 0 7
-19.8183 17.9004 -2.6398 0.0984 0 7
-19.9795 17.7204 -2.6398 0.0984 0 7
-20.1390 17.5389 -2.6398 0.0984 0 7
-20.2969 17.3559 -2.6398 0.0984 0 7
-20.4531 17.1715 -2.6398 0.0984 0 7
-20.6077 16.9858 -2.6398 0.0984 0 7
-20.7605 16.7986 -2.6398 0.0984 0 7
-20.9117 16.6100 -2.6398 0.0984 0 7
-21.0611 16.4201 -2.6398 0.0984 0 7
-21.2089 16.2289 -2.6398 0.0984 0 7
-21.3548 16.0363 -2.6398 0.0984 0 7
-21.4991 15.8424 -2.6398 0.0984 0 7
-21.6415 15.6472 -2.6398 0.0984 0 7
-21.7822 15.4507 -2.6398 0.0984 0 7
-21.9212 15.2530 -2.6398 0.0984 0 7
-22.0583 15.0540 -2.6398 0.0984 0 7
-22.1936 14.8538 -2.6398 0.0984 0 7
-22.3271 14.6524 -2.6398 0.0984 0 7
-22.4588 14.4497 -2.6398 0.0984 0 7
-22.5886 14.2459 -2.6398 0.0984 0 7
-22.7166 14.0410 -2.6398 0.0984 0 7
-22.8427 13.8348 -2.6398 0.0984 0 7
-22.9670 13.6276 -2.6398 0.0984 0 7
-23.0893 13.4192 -2.6398 0.0984 0 7
-23.2078 13.2086 -2.6395 0.1034 0 8
-23.2936 12.9798 -2.6358 0.1035 0 8
-23.3774 12.7506 -2.6321 0.1037 0 8
-22.9062 12.2260 -2.5665 0.3387 0 8
-22.4614 11.7287 -2.5047 0.3433 0 8
-22.5131 11.2419 -2.4874 0.0984 0 8
-22.6139 11.0378 -2.4874 0.0984 0 8
-22.7128 10.8327 -2.4874 0.0984 0 8
-22.8099 10.6267 -2.4874 0.0984 0 8
-22.9052 10.4199 -2.4874 0.0984 0 8
-20.9270 9.2924 -2.2633 0.9196 0 5
-21.0915 9.1378 -2.2721 0.9161 0 5
-23.1796 9.7943 -2.4874 0.0984 0 8
-23.2672 9.5842 -2.4874 0.0984 0 8
-23.3530 9.3733 -2.4874 0.0984 0 8
-23.4369 9.1616 -2.4874 0.0984 0 8
-23.5047 8.9437 -2.4859 0.7262 0 1
-23.3873 8.6576 -2.4651 0.7323 0 1
-23.2719 8.3763 -2.4448 0.7384 0 1
-23.1583 8.0994 -2.4251 0.7444 0 1
-23.0466 7.8271 -2.4059 0.7503 0 1
-22.9366 7.5589 -2.3872 0.7562 0 1
-22.8283 7.2949 -2.3689 0.7621 0 1
-22.7216 7.0348 -2.3511 0.7678 0 1
-22.6166 6.7787 -2.3338 0.7735 0 1
-22.5130 6.5262 -2.3170 0.7791 0 1
-22.4109 6.2773 -2.3005 0.7847 0 1
-22.3103 6.0320 -2.2845 0.7902 0 1
-22.2110 5.7900 -2.2689 0.7957 0 1
-22.1131 5.5512 -2.2536 0.8010 0 1
-22.0164 5.3157 -2.2388 0.8063 0 1
-21.9211 5.0832 -2.2243 0.8116 0 1
-21.8269 4.8536 -2.2102 0.8168 0 1
-21.7339 4.6270 -2.1965 0.8219 0 1
-21.6421 4.4031 -2.1831 0.8269 0 1
-21.6363 4.1984 -2.1786 0.9752 0 1
-21.7142 4.0099 -2.1827 0.9734 0 1
-21.7924 3.8208 -2.1870 0.9715 0 1
-21.8709 3.6309 -2.1915 0.9695 0 1
-21.9498 3.4402 -2.1962 0.9674 0 1
-22.0290 3.2487 -2.2010 0.9653 0 1
-22.1086 3.0563 -2.2061 0.9630 0 1
-22.1885 2.8629 -2.2114 0.9607 0 1
-22.2689 2.6687 -2.2170 0.9583 0 1
-22.3496 2.4734 -2.2227 0.9559 0 1
-22.4308 2.2772 -2.2286 0.9533 0 1
-22.5124 2.0798 -2.2348 0.9507 0 1
-22.5945 1.8814 -2.2411 0.9480 0 1
-22.6770 1.6818 -2.2477 0.9452 0 1
-22.7600 1.4810 -2.2545 0.9424 0 1
-22.8436 1.2790 -2.2615 0.9394 0 1
-22.9277 1.0756 -2.2688 0.9364 0 1
-23.0123 0.8710 -2.2763 0.9333 0 1
-23.0975 0.6650 -2.2841 0.9302 0 1
-23.1833 0.4575 -2.2920 0.9269 0 1
-23.2697 0.2486 -2.3003 0.9236 0 1
-23.3567 0.0382 -2.3087 0.9202 0 1
-23.3656 -0.1732 -2.3097 0.7342 0 1
-23.5917 -0.3884 -2.3323 0.6650 0 1
-23.8282 -0.6080 -2.3561 0.6583 0 1
-24.0696 -0.8321 -2.3806 0.6515 0 1
-24.3161 -1.0611 -2.4059 0.6447 0 1
-24.5679 -1.2949 -2.4318 0.6378 0 1
-24.8252 -1.5338 -2.4586 0.6309 0 1
-25.0883 -1.7781 -2.4861 0.6239 0 1
-25.0838 -2.0060 -2.4874 0.0984 0 8
-25.0646 -2.2329 -2.4874 0.0984 0 8
-25.0434 -2.4596 -2.4874 0.0984 0 8
-22.0636 -2.3688 -2.1934 0.7986 0 5
-21.9812 -2.5613 -2.1875 0.5949 0 5
-24.9674 -3.1385 -2.4874 0.0984 0 8
-24.9380 -3.3643 -2.4874 0.0984 0 8
-24.9065 -3.5898 -2.4874 0.0984 0 8
-24.8730 -3.8150 -2.4874 0.0984 0 8
-24.8375 -4.0399 -2.4874 0.0984 0 8
-24.7999 -4.2645 -2.4874 0.0984 0 8
-24.7603 -4.4887 -2.4874 0.0984 0 8
-24.7186 -4.7126 -2.4874 0.0984 0 8
-24.6750 -4.9361 -2.4874 0.0984 0 8
-24.6293 -5.1592 -2.4874 0.0984 0 8
-24.5816 -5.3818 -2.4874 0.0984 0 8
-24.5413 -5.6062 -2.4883 0.4255 0 8
-24.8506 -5.9139 -2.5250 0.5052 0 8
-25.1797 -6.2335 -2.5641 0.4975 0 8
-25.5191 -6.5632 -2.6046 0.4898 0 8
-25.7393 -6.8687 -2.6333 0.1064 0 8
-25.7086 -7.1103 -2.6366 0.1062 0 8
-25.6739 -7.3515 -2.6398 0.0984 0 7
-25.6063 -7.5835 -2.6398 0.0984 0 7
-25.5366 -7.8149 -2.6398 0.0984 0 7
-25.4649 -8.0456 -2.6398 0.0984 0 7
-25.3910 -8.2757 -2.6398 0.0984 0 7
-25.3151 -8.5052 -2.6398 0.0984 0 7
-25.2371 -8.7339 -2.6398 0.0984 0 7
-25.1571 -8.9619 -2.6398 0.0984 0 7
-25.0749 -9.1891 -2.6398 0.0984 0 7
-24.9907 -9.4157 -2.6398 0.0984 0 7
-24.9045 -9.6414 -2.6398 0.0984 0 7
-24.8162 -9.8664 -2.6398 0.0984 0 7
-24.7260 -10.0905 -2.6398 0.0984 0 7
-24.6336 -10.3139 -2.6398 0.0984 0 7
-24.5393 -10.5363 -2.6398 0.0984 0 7
-24.4430 -10.7580 -2.6398 0.0984 0 7
-24.3446 -10.9787 -2.6398 0.0984 0 7
-24.2443 -11.1985 -2.6398 0.0984 0 7
-24.1419 -11.4174 -2.6398 0.0984 0 7
-24.0376 -11.6354 -2.6398 0.0984 0 7
-23.9314 -11.8525 -2.6398 0.0984 0 7
-23.8232 -12.0685 -2.6398 0.0984 0 7
-23.7130 -12.2836 -2.6398 0.0984 0 7
-23.6008 -12.4977 -2.6398 0.0984 0 7
-23.4868 -12.7107 -2.6398 0.0984 0 7
-23.3708 -12.9227 -2.6398 0.0984 0 7
-23.2529 -13.1337 -2.6398 0.0984 0 7
-23.1331 -13.3435 -2.6398 0.0984 0 7
-23.0114 -13.5523 -2.6398 0.0984 0 7
-22.8879 -13.7600 -2.6398 0.0984 0 7
-22.7624 -13.9665 -2.6398 0.0984 0 7
-22.6351 -14.1719 -2.6398 0.0984 0 7
-22.5059 -14.3762 -2.6398 0.0984 0 7
-22.3749 -14.5792 -2.6398 0.0984 0 7
-22.2421 -14.7811 -2.6398 0.0984 0 7
-22.1074 -14.9818 -2.6398 0.0984 0 7
-21.9710 -15.1812 -2.6398 0.0984 0 7
-21.8327 -15.3794 -2.6398 0.0984 0 7
-21.6926 -15.5763 -2.6398 0.0984 0 7
-21.5508 -15.7720 -2.6398 0.0984 0 7
-21.4072 -15.9663 -2.6398 0.0984 0 7
-21.2618 -16.1594 -2.6398 0.0984 0 6
-21.1148 -16.3511 -2.6398 0.0984 0 7
-19.8160 -15.6343 -2.4950 0.0984 0 8
-19.6738 -15.8130 -2.4950 0.0984 0 14
-19.5299 -15.9903 -2.4950 0.0984 0 14
-19.3844 -16.1664 -2.4950 0.0984 0 14
-19.2373 -16.3411 -2.4950 0.0984 0 14
-19.0886 -16.5145 -2.4950 0.0984 0 14
-18.9384 -16.6866 -2.4950 0.0984 0 14
-18.7867 -16.8573 -2.4950 0.0984 0 14
-18.6333 -17.0266 -2.4950 0.0984 0 14
-18.4785 -17.1945 -2.4950 0.0984 0 14
-18.3222 -17.3610 -2.4950 0.0984 0 14
-18.1643 -17.5261 -2.4950 0.0984 0 14
-18.0050 -17.6897 -2.4950 0.0984 0 14
-17.8442 -17.8519 -2.4950 0.0984 0 14
-17.6819 -18.0127 -2.4950 0.0984 0 14
-18.5347 -19.2264 -2.6398 0.0984 0 7
-18.3600 -19.3933 -2.6398 0.0984 0 7
-18.1838 -19.5587 -2.6398 0.0984 0 6
-18.0061 -19.7224 -2.6398 0.0984 0 7
-17.8268 -19.8846 -2.6398 0.0984 0 7
-17.6462 -20.0451 -2.6398 0.0984 0 7
-17.4641 -20.2039 -2.6398 0.0984 0 7
-17.2805 -20.3611 -2.6398 0.0984 0 7
-17.0956 -20.5166 -2.6398 0.0984 0 7
-16.9092 -20.6705 -2.6398 0.0984 0 7
-16.7215 -20.8227 -2.6398 0.0984 0 7
-16.5324 -20.9731 -2.6398 0.0984 0 7
-16.3420 -21.1219 -2.6398 0.0984 0 7
-16.1502 -21.2689 -2.6398 0.0984 0 7
-15.9570 -21.4141 -2.6398 0.0984 0 7
-15.7626 -21.5577 -2.6398 0.0984 0 7
-15.5669 -21.6994 -2.6398 0.0984 0 7
-15.3699 -21.8394 -2.6398 0.0984 0 7
-15.1716 -21.9776 -2.6398 0.0984 0 7
-14.9722 -22.1139 -2.6398 0.0984 0 7
-14.7715 -22.2485 -2.6398 0.0984 0 7
-14.5695 -22.3813 -2.6398 0.0984 0 7
-14.3664 -22.5122 -2.6398 0.0984 0 7
-14.1621 -22.6413 -2.6398 0.0984 0 7
-13.9567 -22.7685 -2.6398 0.0984 0 7
-13.7501 -22.8938 -2.6398 0.0984 0 7
-13.5423 -23.0173 -2.6398 0.0984 0 7
-13.3335 -23.1389 -2.6398 0.0984 0 7
-13.1236 -23.2586 -2.6398 0.0984 0 7
-12.9126 -23.3764 -2.6398 0.0984 0 7
-12.7005 -23.4923 -2.6398 0.0984 0 7
-12.4874 -23.6063 -2.6398 0.0984 0 7
-12.2733 -23.7183 -2.6398 0.0984 0 7
-12.0582 -23.8284 -2.6398 0.0984 0 7
-11.8421 -23.9365 -2.6398 0.0984 0 7
-11.6250 -24.0427 -2.6398 0.0984 0 7
-11.4070 -24.1469 -2.6398 0.0984 0 7
-11.1880 -24.2491 -2.6398 0.0984 0 7
-10.9681 -24.3494 -2.6398 0.0984 0 7
-10.7474 -24.4476 -2.6398 0.0984 0 7
-10.5257 -24.5439 -2.6398 0.0984 0 7
-10.3032 -24.6381 -2.6398 0.0984 0 7
-10.0798 -24.7303 -2.6398 0.0984 0 7
-9.8511 -24.8093 -2.6386 0.1055 0 8
-9.6137 -24.8649 -2.6351 0.1056 0 8
-9.3561 -24.8654 -2.6261 0.4488 0 8
-8.9722 -24.5158 -2.5805 0.4567 0 8
-8.6013 -24.1780 -2.5366 0.4646 0 8
-8.2430 -23.8521 -2.4945 0.3965 0 8
-8.0038 -23.8571 -2.4874 0.0984 0 8
-7.7708 -23.8771 -2.4820 0.4843 0 5
-7.5258 -23.8555 -2.4726 0.8704 0 5
-7.3533 -24.0655 -2.4874 0.0984 0 8
-7.1352 -24.1311 -2.4874 0.0984 0 8
-6.9165 -24.1947 -2.4874 0.0984 0 8
-6.6973 -24.2563 -2.4874 0.0984 0 8
-6.4776 -24.3159 -2.4874 0.0984 0 8
-6.2573 -24.3735 -2.4874 0.0984 0 8
-6.0365 -24.4291 -2.4874 0.0984 0 8
-5.8152 -24.4827 -2.4874 0.0984 0 8
-5.5934 -24.5344 -2.4874 0.0984 0 8
-5.3712 -24.5840 -2.4874 0.0984 0 8
-5.1485 -24.6316 -2.4874 0.0984 0 8
-4.9254 -24.6771 -2.4874 0.0984 0 8
-4.7019 -24.7207 -2.4874 0.0984 0 8
-4.4780 -24.7622 -2.4874 0.0984 0 8
-4.2538 -24.8017 -2.4874 0.0984 0 8
-4.0292 -24.8392 -2.4874 0.0984 0 8
-3.8042 -24.8747 -2.4874 0.0984 0 8
-3.5790 -24.9081 -2.4874 0.0984 0 8
-3.3535 -24.9394 -2.4874 0.0984 0 8
-3.1277 -24.9687 -2.4874 0.0984 0 8
-2.9016 -24.9960 -2.4874 0.0984 0 8
-2.6753 -25.0213 -2.4874 0.0984 0 8
-2.4488 -25.0444 -2.4874 0.0984 0 8
-2.2220 -25.0656 -2.4874 0.0984 0 8
-1.9951 -25.0847 -2.4874 0.0984 0 8
-1.7681 -25.1017 -2.4874 0.0984 0 8
-1.5409 -25.1166 -2.4874 0.0984 0 8
-1.3135 -25.1296 -2.4874 0.0984 0 8
-1.0861 -25.1404 -2.4874 0.0984 0 8
-0.8585 -25.1492 -2.4874 0.0984 0 8
-0.6309 -25.1560 -2.4874 0.0984 0 8
-0.4033 -25.1606 -2.4874 0.0984 0 8
-0.1756 -25.1633 -2.4874 0.0984 0 8
0.0521 -25.1638 -2.4874 0.0984 0 8
0.2798 -25.1623 -2.4874 0.0984 0 8
0.5075 -25.1588 -2.4874 0.0984 0 8
0.7351 -25.1531 -2.4874 0.0984 0 8
0.9627 -25.1455 -2.4874 0.0984 0 8
1.1902 -25.1357 -2.4874 0.0984 0 8
1.4176 -25.1239 -2.4874 0.0984 0 8
1.6449 -25.1101 -2.4874 0.0984 0 8
1.8720 -25.0941 -2.4874 0.0984 0 8
2.0992 -25.0761 -2.4874 0.0984 0 8
2.3258 -25.0561 -2.4874 0.0984 0 8
2.5525 -25.0341 -2.4874 0.0984 0 8
2.7789 -25.0100 -2.4874 0.0984 0 8
3.0051 -24.9838 -2.4874 0.0984 0 8
3.2310 -24.9556 -2.4874 0.0984 0 8
3.4567 -24.9253 -2.4874 0.0984 0 8
3.6821 -24.8930 -2.4874 0.0984 0 8
3.9072 -24.8587 -2.4874 0.0984 0 8
4.1320 -24.8223 -2.4874 0.0984 0 8
4.3564 -24.7839 -2.4874 0.0984 0 8
4.5805 -24.7434 -2.4874 0.0984 0 8
4.8042 -24.7010 -2.4874 0.0984 0 8
5.0275 -24.6565 -2.4874 0.0984 0 8
5.2504 -24.6100 -2.4874 0.0984 0 8
5.4729 -24.5615 -2.4874 0.0984 0 8
5.6950 -24.5110 -2.4874 0.0984 0 8
5.9165 -24.4584 -2.4874 0.0984 0 8
6.1376 -24.4039 -2.4874 0.0984 0 8
6.3582 -24.3474 -2.4874 0.0984 0 8
6.5782 -24.2888 -2.4874 0.0984 0 8
6.7977 -24.2283 -2.4874 0.0984 0 8
7.0167 -24.1658 -2.4874 0.0984 0 8
7.2351 -24.1013 -2.4874 0.0984 0 8
7.4529 -24.0349 -2.4874 0.0984 0 8
7.6700 -23.9665 -2.4874 0.0984 0 8
7.8866 -23.8961 -2.4874 0.0984 0 8
8.1025 -23.8237 -2.4874 0.0984 0 8
8.3177 -23.7494 -2.4874 0.0984 0 8
8.3435 -23.1494 -2.4323 0.9175 0 5
8.5200 -22.9849 -2.4230 0.9210 0 5
8.9593 -23.5149 -2.4874 0.0984 0 8
9.1717 -23.4329 -2.4874 0.0984 0 8
9.3834 -23.3489 -2.4874 0.0984 0 8
9.5943 -23.2631 -2.4874 0.0984 0 8
9.8119 -23.1930 -2.4893 0.3102 0 8
10.0863 -23.2530 -2.5054 0.3443 0 8
10.5526 -23.7373 -2.5678 0.3359 0 8
11.0372 -24.2343 -2.6322 0.1037 0 8
11.2718 -24.1672 -2.6359 0.1035 0 8
11.5062 -24.0981 -2.6396 0.1034 0 8
11.7245 -23.9944 -2.6398 0.0984 0 7
11.9411 -23.8873 -2.6398 0.0984 0 7
12.1568 -23.7783 -2.6398 0.0984 0 7
12.3714 -23.6673 -2.6398 0.0984 0 7
12.5851 -23.5544 -2.6398 0.0984 0 7
12.7977 -23.4395 -2.6398 0.0984 0 7
13.0093 -23.3228 -2.6398 0.0984 0 7
13.2198 -23.2041 -2.6398 0.0984 0 7
13.4292 -23.0835 -2.6398 0.0984 0 7
13.6375 -22.9610 -2.6398 0.0984 0 7
13.8447 -22.8367 -2.6398 0.0984 0 7
14.0508 -22.7105 -2.6398 0.0984 0 7
14.2558 -22.5824 -2.6398 0.0984 0 7
14.4595 -22.4525 -2.6398 0.0984 0 7
14.6621 -22.3207 -2.6398 0.0984 0 7
14.8635 -22.1871 -2.6398 0.0984 0 7
15.0636 -22.0517 -2.6398 0.0984 0 7
15.2625 -21.9145 -2.6398 0.0984 0 7
15.4602 -21.7755 -2.6398 0.0984 0 7
15.6566 -21.6347 -2.6398 0.0984 0 7
15.8518 -21.4922 -2.6398 0.0984 0 7
16.0456 -21.3479 -2.6398 0.0984 0 7
16.2381 -21.2018 -2.6398 0.0984 0 7
16.4293 -21.0540 -2.6398 0.0984 0 7
16.6191 -20.9045 -2.6398 0.0984 0 7
16.8076 -20.7532 -2.6398 0.0984 0 7
16.9947 -20.6003 -2.6398 0.0984 0 7
17.1804 -20.4457 -2.6398 0.0984 0 7
17.3647 -20.2894 -2.6398 0.0984 0 7
17.5476 -20.1314 -2.6398 0.0984 0 7
17.7290 -19.9718 -2.6398 0.0984 0 7
17.9090 -19.8106 -2.6398 0.0984 0 7
18.0876 -19.6477 -2.6398 0.0984 0 7
18.2646 -19.4832 -2.6398 0.0984 0 7
18.4402 -19.3172 -2.6398 0.0984 0 7
18.6142 -19.1495 -2.6398 0.0984 0 7
18.7867 -18.9803 -2.6398 0.0984 0 7
18.9577 -18.8095 -2.6398 0.0984 0 7
19.1271 -18.6372 -2.6398 0.0984 0 7
19.2950 -18.4634 -2.6398 0.0984 0 7
19.4613 -18.2880 -2.6398 0.0984 0 7
19.6260 -18.1112 -2.6398 0.0984 0 7
19.7890 -17.9328 -2.6398 0.0984 0 7
19.9505 -17.7530 -2.6398 0.0984 0 7
20.1103 -17.5718 -2.6398 0.0984 0 7
20.2685 -17.3891 -2.6398 0.0984 0 7
20.4250 -17.2050 -2.6398 0.0984 0 7
20.5799 -17.0194 -2.6398 0.0984 0 7
20.7330 -16.8325 -2.6398 0.0984 0 7
20.8845 -16.6442 -2.6398 0.0984 0 7
21.0343 -16.4546 -2.6398 0.0984 0 7
21.1823 -16.2635 -2.6398 0.0984 0 7
21.3286 -16.0712 -2.6398 0.0984 0 7
21.4731 -15.8776 -2.6398 0.0984 0 7
21.6159 -15.6826 -2.6398 0.0984 0 7
21.7569 -15.4864 -2.6398 0.0984 0 7
21.8962 -15.2889 -2.6398 0.0984 0 7
22.0336 -15.0901 -2.6398 0.0984 0 7
22.1693 -14.8901 -2.6398 0.0984 0 7
22.3031 -14.6889 -2.6398 0.0984 0 7
22.4351 -14.4865 -2.6398 0.0984 0 7
22.5653 -14.2829 -2.6398 0.0984 0 7
22.6936 -14.0781 -2.6398 0.0984 0 7
22.8201 -13.8722 -2.6398 0.0984 0 7
22.9446 -13.6651 -2.6398 0.0984 0 7
23.0674 -13.4569 -2.6398 0.0984 0 7
23.1882 -13.2477 -2.6398 0.0984 0 7
23.3071 -13.0373 -2.6398 0.0984 0 7
23.4241 -12.8258 -2.6398 0.0984 0 7
23.5392 -12.6134 -2.6398 0.0984 0 7
23.6524 -12.3999 -2.6398 0.0984 0 7
23.7636 -12.1853 -2.6398 0.0984 0 7
23.8729 -11.9698 -2.6398 0.0984 0 7
23.9803 -11.7533 -2.6398 0.0984 0 7
24.0856 -11.5358 -2.6398 0.0984 0 7
24.1890 -11.3174 -2.6398 0.0984 0 7
24.2603 -11.0843 -2.6365 0.1048 0 8
24.3270 -10.8498 -2.6330 0.1050 0 8
24.0431 -10.4634 -2.5919 0.4088 0 8
23.6679 -10.0463 -2.5415 0.4170 0 8
23.3093 -9.6462 -2.4936 0.3624 0 8
23.3376 -9.4114 -2.4874 0.0984 0 8
23.4218 -9.1999 -2.4874 0.0984 0 8
23.5041 -8.9876 -2.4874 0.0984 0 8
23.5845 -8.7745 -2.4874 0.0984 0 8
23.6629 -8.5607 -2.4874 0.0984 0 8
23.7394 -8.3463 -2.4874 0.0984 0 8
23.8140 -8.1311 -2.4874 0.0984 0 8
23.8866 -7.9153 -2.4874 0.0984 0 8
23.9572 -7.6988 -2.4874 0.0984 0 8
24.0259 -7.4817 -2.4874 0.0984 0 8
24.0926 -7.2640 -2.4874 0.0984 0 8
24.1574 -7.0457 -2.4874 0.0984 0 8
24.2200 -6.8269 -2.4874 0.0984 0 8
24.2809 -6.6074 -2.4874 0.0984 0 8
24.3397 -6.3874 -2.4874 0.0984 0 8
24.3965 -6.1669 -2.4874 0.0984 0 8
24.4513 -5.9459 -2.4874 0.0984 0 8
24.5041 -5.7244 -2.4874 0.0984 0 8
24.5549 -5.5024 -2.4874 0.0984 0 8
24.6037 -5.2800 -2.4874 0.0984 0 8
24.6505 -5.0572 -2.4874 0.0984 0 8
24.6952 -4.8339 -2.4874 0.0984 0 8
24.7380 -4.6102 -2.4874 0.0984 0 8
24.7787 -4.3862 -2.4874 0.0984 0 8
24.8174 -4.1618 -2.4874 0.0984 0 8
24.8540 -3.9371 -2.4874 0.0984 0 8
24.8886 -3.7120 -2.4874 0.0984 0 8
24.9212 -3.4867 -2.4874 0.0984 0 8
24.9517 -3.2610 -2.4874 0.0984 0 8
24.9802 -3.0351 -2.4874 0.0984 0 8
25.0066 -2.8089 -2.4874 0.0984 0 8
25.0310 -2.5825 -2.4874 0.0984 0 8
25.0534 -2.3559 -2.4874 0.0984 0 8
25.0736 -2.1291 -2.4874 0.0984 0 8
25.0919 -1.9021 -2.4874 0.0984 0 8
25.1081 -1.6750 -2.4874 0.0984 0 8
25.1222 -1.4478 -2.4874 0.0984 0 8
19.5077 -0.9472 -1.9305 0.9932 0 5
25.1443 -0.9929 -2.4874 0.0984 0 8
25.1522 -0.7653 -2.4874 0.0984 0 8
25.1581 -0.5377 -2.4874 0.0984 0 8
25.1620 -0.3100 -2.4874 0.0984 0 8
25.1637 -0.0823 -2.4874 0.0984 0 8
25.1635 0.1454 -2.4874 0.0984 0 8
25.1611 0.3730 -2.4874 0.0984 0 8
25.1567 0.6007 -2.4874 0.0984 0 8
25.1502 0.8283 -2.4874 0.0984 0 8
25.1417 1.0559 -2.4874 0.0984 0 8
25.1311 1.2833 -2.4874 0.0984 0 8
25.1185 1.5107 -2.4874 0.0984 0 8
25.1038 1.7379 -2.4874 0.0984 0 8
25.0870 1.9650 -2.4874 0.0984 0 8
25.0682 2.1919 -2.4874 0.0984 0 8
25.0474 2.4187 -2.4874 0.0984 0 8
25.0245 2.6452 -2.4874 0.0984 0 8
24.9995 2.8716 -2.4874 0.0984 0 8
24.9725 3.0977 -2.4874 0.0984 0 8
24.9434 3.3235 -2.4874 0.0984 0 8
24.9123 3.5491 -2.4874 0.0984 0 8
24.8792 3.7743 -2.4874 0.0984 0 8
24.8440 3.9993 -2.4874 0.0984 0 8
24.8068 4.2240 -2.4874 0.0984 0 8
24.7676 4.4483 -2.4874 0.0984 0 8
24.7263 4.6722 -2.4874 0.0984 0 8
24.6830 4.8957 -2.4874 0.0984 0 8
24.6377 5.1189 -2.4874 0.0984 0 8
24.5904 5.3416 -2.4874 0.0984 0 8
24.5411 5.5639 -2.4874 0.0984 0 8
24.4897 5.7857 -2.4874 0.0984 0 8
24.4363 6.0071 -2.4874 0.0984 0 8
24.3810 6.2280 -2.4874 0.0984 0 8
24.3236 6.4484 -2.4874 0.0984 0 8
24.2643 6.6682 -2.4874 0.0984 0 8
24.5176 6.9770 -2.5197 0.4678 0 8
24.8726 7.3220 -2.5629 0.4599 0 8
25.2398 7.6789 -2.6078 0.4520 0 8
25.4201 7.9858 -2.6338 0.1057 0 8
25.3798 8.2262 -2.6372 0.1056 0 8
25.3290 8.4637 -2.6398 0.0984 0 7
25.2514 8.6926 -2.6398 0.0984 0 7
25.1717 8.9207 -2.6398 0.0984 0 7
25.0899 9.1481 -2.6398 0.0984 0 7
25.0061 9.3748 -2.6398 0.0984 0 7
24.9203 9.6007 -2.6398 0.0984 0 7
24.8324 9.8258 -2.6398 0.0984 0 7
24.7424 10.0501 -2.6398 0.0984 0 7
24.6505 10.2736 -2.6398 0.0984 0 7
24.5565 10.4962 -2.6398 0.0984 0 7
24.4605 10.7180 -2.6398 0.0984 0 7
24.3625 10.9389 -2.6398 0.0984 0 6
24.2626 11.1589 -2.6398 0.0984 0 7
24.1606 11.3780 -2.6398 0.0984 0 7
24.0567 11.5961 -2.6398 0.0984 0 7
23.9507 11.8133 -2.6398 0.0984 0 7
23.8429 12.0296 -2.6398 0.0984 0 7
23.7330 12.2448 -2.6398 0.0984 0 7
23.6213 12.4591 -2.6398 0.0984 0 7
23.5076 12.6723 -2.6398 0.0984 0 7
23.3919 12.8845 -2.6398 0.0984 0 7
23.2744 13.0956 -2.6398 0.0984 0 7
23.1549 13.3057 -2.6398 0.0984 0 7
23.0336 13.5147 -2.6398 0.0984 0 7
22.9103 13.7225 -2.6398 0.0984 0 7
22.7852 13.9293 -2.6398 0.0984 0 7
22.6583 14.1349 -2.6398 0.0984 0 6
22.5294 14.3394 -2.6398 0.0984 0 7
22.3988 14.5426 -2.6398 0.0984 0 7
22.2662 14.7447 -2.6398 0.0984 0 7
22.1319 14.9456 -2.6398 0.0984 0 7
21.9958 15.1453 -2.6398 0.0984 0 7
21.8578 15.3437 -2.6398 0.0984 0 7
21.7181 15.5408 -2.6398 0.0984 0 7
21.5766 15.7367 -2.6398 0.0984 0 7
21.4333 15.9313 -2.6398 0.0984 0 7
21.2882 16.1246 -2.6398 0.0984 0 7
21.1415 16.3166 -2.6398 0.0984 0 7
20.9930 16.5072 -2.6398 0.0984 0 7
20.8427 16.6965 -2.6398 0.0984 0 7
20.6908 16.8844 -2.6398 0.0984 0 7
20.5372 17.0709 -2.6398 0.0984 0 7
20.3819 17.2561 -2.6398 0.0984 0 7
13.5359 11.6719 -1.7667 0.9332 0 19
15.5797 13.6821 -2.0496 0.4073 0 19
18.8142 16.8265 -2.4950 0.0984 0 14
18.6612 16.9961 -2.4950 0.0984 0 14
18.5066 17.1643 -2.4950 0.0984 0 14
18.3505 17.3310 -2.4950 0.0984 0 14
12.9869 12.4896 -1.7810 0.2916 0 9
12.7901 12.5251 -1.7695 0.8143 0 9
12.6589 12.6230 -1.7671 0.9364 0 9
12.5481 12.7410 -1.7676 0.9801 0 9
12.5539 12.9798 -1.7849 0.0834 0 9
17.3830 18.3013 -2.4950 0.0984 0 14
17.0824 18.3138 -2.4755 0.4382 0 19
14.9994 16.3753 -2.1951 0.4463 0 19
13.8774 15.4284 -2.0512 0.9473 0 19
11.9052 13.4791 -1.7776 0.4623 0 19
11.7769 13.5795 -1.7768 0.8738 0 19
17.3138 20.3328 -2.6398 0.0984 0 7
17.1291 20.4887 -2.6398 0.0984 0 7
16.9430 20.6428 -2.6398 0.0984 0 7
16.7556 20.7953 -2.6398 0.0984 0 7
16.5667 20.9460 -2.6398 0.0984 0 7
16.3765 21.0951 -2.6398 0.0984 0 7
16.1849 21.2424 -2.6398 0.0984 0 7
15.9921 21.3880 -2.6398 0.0984 0 7
15.7979 21.5318 -2.6398 0.0984 0 7
15.6024 21.6739 -2.6398 0.0984 0 7
15.4056 21.8142 -2.6398 0.0984 0 7
15.2076 21.9527 -2.6398 0.0984 0 7
15.0083 22.0894 -2.6398 0.0984 0 7
14.8078 22.2243 -2.6398 0.0984 0 7
14.6061 22.3574 -2.6398 0.0984 0 6
14.4032 22.4887 -2.6398 0.0984 0 7
14.1991 22.6181 -2.6398 0.0984 0 7
13.9939 22.7456 -2.6398 0.0984 0 7
13.7875 22.8713 -2.6398 0.0984 0 7
13.5800 22.9951 -2.6398 0.0984 0 7
13.3713 23.1171 -2.6398 0.0984 0 7
13.1616 23.2371 -2.6398 0.0984 0 7
12.9508 23.3553 -2.6398 0.0984 0 7
12.7389 23.4715 -2.6398 0.0984 0 7
12.5260 23.5858 -2.6398 0.0984 0 7
12.3121 23.6982 -2.6398 0.0984 0 7
12.0971 23.8086 -2.6398 0.0984 0 7
11.8812 23.9171 -2.6398 0.0984 0 7
11.6643 24.0236 -2.6398 0.0984 0 7
11.4465 24.1282 -2.6398 0.0984 0 6
11.2277 24.2308 -2.6398 0.0984 0 7
11.0080 24.3314 -2.6398 0.0984 0 7
10.7873 24.4300 -2.6398 0.0984 0 7
10.5658 24.5266 -2.6398 0.0984 0 7
10.3435 24.6212 -2.6398 0.0984 0 7
10.1203 24.7138 -2.6398 0.0984 0 7
9.8962 24.8044 -2.6398 0.0984 0 7
9.6713 24.8929 -2.6398 0.0984 0 7
9.4457 24.9794 -2.6398 0.0984 0 7
9.2193 25.0639 -2.6398 0.0984 0 7
8.9921 25.1462 -2.6398 0.0984 0 7
8.7582 25.2092 -2.6379 0.1062 0 8
8.5189 25.2553 -2.6346 0.1063 0 8
8.2474 25.2013 -2.6211 0.4867 0 8
7.8933 24.8786 -2.5800 0.4944 0 8
7.5501 24.5657 -2.5403 0.5022 0 8
7.2171 24.2622 -2.5021 0.5098 0 8
6.9561 24.1833 -2.4874 0.0984 0 8
6.7370 24.2453 -2.4874 0.0984 0 8
6.5173 24.3053 -2.4874 0.0984 0 8
6.2971 24.3632 -2.4874 0.0984 0 8
6.0764 24.4192 -2.4874 0.0984 0 8
5.8552 24.4732 -2.4874 0.0984 0 8
5.6335 24.5252 -2.4874 0.0984 0 8
5.4114 24.5751 -2.4874 0.0984 0 8
5.1888 24.6231 -2.4874 0.0984 0 8
4.9658 24.6691 -2.4874 0.0984 0 8
4.7423 24.7130 -2.4874 0.0984 0 8
4.5185 24.7549 -2.4874 0.0984 0 8
4.2943 24.7947 -2.4874 0.0984 0 8
4.0698 24.8326 -2.4874 0.0984 0 8
3.8449 24.8684 -2.4874 0.0984 0 8
3.6198 24.9022 -2.4874 0.0984 0 8
3.3943 24.9339 -2.4874 0.0984 0 8
3.1685 24.9636 -2.4874 0.0984 0 8
2.9425 24.9912 -2.4874 0.0984 0 8
2.7162 25.0168 -2.4874 0.0984 0 8
2.4897 25.0404 -2.4874 0.0984 0 8
2.2630 25.0619 -2.4874 0.0984 0 8
2.0328 25.0394 -2.4832 0.4867 0 20
1.8091 25.0988 -2.4874 0.0984 0 8
1.5819 25.1141 -2.4874 0.0984 0 8
1.3546 25.1274 -2.4874 0.0984 0 8
1.1272 25.1386 -2.4874 0.0984 0 8
0.8997 25.1478 -2.4874 0.0984 0 8
0.6721 25.1549 -2.4874 0.0984 0 8
0.4445 25.1599 -2.4874 0.0984 0 8
0.2168 25.1629 -2.4874 0.0984 0 8
-0.0109 25.1639 -2.4874 0.0984 0 8
-0.2386 25.1627 -2.4874 0.0984 0 8
-0.4663 25.1596 -2.4874 0.0984 0 8
-0.6939 25.1545 -2.4874 0.0984 0 8
-0.9215 25.1470 -2.4874 0.0984 0 8
-1.1491 25.1376 -2.4874 0.0984 0 8
-1.3765 25.1262 -2.4874 0.0984 0 8
-1.6038 25.1127 -2.4874 0.0984 0 8
-1.8310 25.0972 -2.4874 0.0984 0 8
-2.0580 25.0796 -2.4874 0.0984 0 8
-2.2848 25.0599 -2.4874 0.0984 0 8
-2.5115 25.0382 -2.4874 0.0984 0 8
-2.7380 25.0145 -2.4874 0.0984 0 8
-2.9642 24.9887 -2.4874 0.0984 0 8
-3.1902 24.9608 -2.4874 0.0984 0 8
-3.4159 24.9309 -2.4874 0.0984 0 8
-3.6414 24.8990 -2.4874 0.0984 0 8
-3.8665 24.8650 -2.4874 0.0984 0 8
-4.0914 24.8290 -2.4874 0.0984 0 8
-4.3159 24.7910 -2.4874 0.0984 0 8
-4.5400 24.7509 -2.4874 0.0984 0 8
-4.7638 24.7088 -2.4874 0.0984 0 8
-4.9827 24.6426 -2.4851 0.8457 0 9
-5.1767 24.4603 -2.4714 0.8504 0 9
-5.4327 24.5704 -2.4874 0.0984 0 8
-5.6548 24.5203 -2.4874 0.0984 0 8
-5.8765 24.4681 -2.4874 0.0984 0 8
-6.0977 24.4139 -2.4874 0.0984 0 8
-6.3183 24.3577 -2.4874 0.0984 0 8
-6.5385 24.2996 -2.4874 0.0984 0 8
-6.7581 24.2394 -2.4874 0.0984 0 8
-6.9772 24.1773 -2.4874 0.0984 0 8
-7.1956 24.1131 -2.4874 0.0984 0 8
-7.4135 24.0470 -2.4874 0.0984 0 8
-7.6308 23.9790 -2.4874 0.0984 0 8
-7.8475 23.9089 -2.4874 0.0984 0 8
-8.1849 24.1959 -2.5248 0.4197 0 8
-8.5687 24.5949 -2.5744 0.4116 0 8
-8.9679 25.0098 -2.6263 0.4035 0 8
-9.2254 25.0133 -2.6353 0.1049 0 8
-9.4641 24.9624 -2.6388 0.1047 0 8
-9.6930 24.8845 -2.6398 0.0984 0 7
-9.9178 24.7958 -2.6398 0.0984 0 7
-10.1417 24.7050 -2.6398 0.0984 0 7
-10.3648 24.6122 -2.6398 0.0984 0 7
-10.5871 24.5174 -2.6398 0.0984 0 7
-10.8086 24.4206 -2.6398 0.0984 0 7
-11.0291 24.3218 -2.6398 0.0984 0 7
-11.2487 24.2210 -2.6398 0.0984 0 7
-11.4674 24.1183 -2.6398 0.0984 0 6
-11.6852 24.0135 -2.6398 0.0984 0 7
-11.9020 23.9068 -2.6398 0.0984 0 7
-12.1178 23.7981 -2.6398 0.0984 0 7
-12.3327 23.6875 -2.6398 0.0984 0 7
-12.5465 23.5749 -2.6398 0.0984 0 7
-12.7593 23.4604 -2.6398 0.0984 0 7
-12.9711 23.3440 -2.6398 0.0984 0 7
-13.1818 23.2257 -2.6398 0.0984 0 7
-13.3914 23.1055 -2.6398 0.0984 0 7
-13.5999 22.9833 -2.6398 0.0984 0 7
-13.8074 22.8593 -2.6398 0.0984 0 7
-14.0137 22.7335 -2.6398 0.0984 0 7
-14.2188 22.6057 -2.6398 0.0984 0 7
-14.4228 22.4761 -2.6398 0.0984 0 7
-14.6255 22.3447 -2.6398 0.0984 0 6
-14.8271 22.2114 -2.6398 0.0984 0 7
-15.0275 22.0764 -2.6398 0.0984 0 7
-15.2267 21.9395 -2.6398 0.0984 0 7
-15.4246 21.8008 -2.6398 0.0984 0 7
-15.6212 21.6603 -2.6398 0.0984 0 7
-15.8166 21.5181 -2.6398 0.0984 0 7
-16.0106 21.3741 -2.6398 0.0984 0 7
-16.2034 21.2283 -2.6398 0.0984 0 7
-16.3948 21.0809 -2.6398 0.0984 0 7
-16.5849 20.9316 -2.6398 0.0984 0 7
-16.7736 20.7807 -2.6398 0.0984 0 7
-16.9610 20.6281 -2.6398 0.0984 0 7
-17.1469 20.4738 -2.6398 0.0984 0 7
-17.3315 20.3178 -2.6398 0.0984 0 6
-17.5146 20.1601 -2.6398 0.0984 0 6
-17.6964 20.0008 -2.6398 0.0984 0 7
-17.8766 19.8398 -2.6398 0.0984 0 7
-18.0554 19.6773 -2.6398 0.0984 0 7
-18.2327 19.5131 -2.6398 0.0984 0 7
-18.4085 19.3473 -2.6398 0.0984 0 7
-18.5829 19.1799 -2.6398 0.0984 0 7
-18.7556 19.0110 -2.6398 0.0984 0 7
-18.9269 18.8405 -2.6398 0.0984 0 7
-19.0966 18.6685 -2.6398 0.0984 0 7
-19.2648 18.4949 -2.6398 0.0984 0 7
-19.4313 18.3198 -2.6398 0.0984 0 7
-19.5963 18.1432 -2.6398 0.0984 0 7
-19.7597 17.9652 -2.6398 0.0984 0 7
-19.9214 17.7856 -2.6398 0.0984 0 7
-20.0815 17.6046 -2.6398 0.0984 0 7
-20.2400 17.4222 -2.6398 0.0984 0 7
-20.3968 17.2384 -2.6398 0.0984 0 7
-20.5520 17.0531 -2.6398 0.0984 0 7
-20.7055 16.8664 -2.6398 0.0984 0 7
-20.8572 16.6784 -2.6398 0.0984 0 7
-21.0073 16.4889 -2.6398 0.0984 0 7
-21.1556 16.2982 -2.6398 0.0984 0 7
-21.3022 16.1061 -2.6398 0.0984 0 7
-21.4471 15.9127 -2.6398 0.0984 0 7
-21.5902 15.7179 -2.6398 0.0984 0 7
-21.7316 15.5219 -2.6398 0.0984 0 7
-21.8711 15.3247 -2.6398 0.0984 0 7
-22.0089 15.1261 -2.6398 0.0984 0 7
-22.1449 14.9264 -2.6398 0.0984 0 7
-22.2790 14.7254 -2.6398 0.0984 0 7
-22.4114 14.5232 -2.6398 0.0984 0 7
-22.5419 14.3198 -2.6398 0.0984 0 7
-22.6705 14.1152 -2.6398 0.0984 0 7
-22.7973 13.9095 -2.6398 0.0984 0 7
-22.9223 13.7026 -2.6398 0.0984 0 7
-23.0453 13.4947 -2.6398 0.0984 0 7
-23.1665 13.2856 -2.6398 0.0984 0 7
-23.2628 13.0625 -2.6372 0.1035 0 8
-23.3473 12.8335 -2.6335 0.1036 0 8
-23.0736 12.4125 -2.5898 0.3331 0 8
-22.6220 11.9069 -2.5269 0.3402 0 8
-22.3878 11.5261 -2.4890 0.0971 0 8
-22.4762 11.3155 -2.4874 0.0984 0 8
-22.5777 11.1117 -2.4874 0.0984 0 8
-22.6773 10.9069 -2.4874 0.0984 0 8
-22.7750 10.7013 -2.4874 0.0984 0 8
-22.8710 10.4948 -2.4874 0.0984 0 8
-20.9804 9.3984 -2.2724 0.3891 0 5
-21.0319 9.1938 -2.2689 0.9174 0 5
-23.1474 9.8701 -2.4874 0.0984 0 8
-23.2357 9.6602 -2.4874 0.0984 0 8
-23.3222 9.4496 -2.4874 0.0984 0 8
-23.4068 9.2382 -2.4874 0.0984 0 8
-23.4894 9.0260 -2.4874 0.0984 0 8
-23.4295 8.7605 -2.4725 0.7301 0 1
-23.3134 8.4775 -2.4521 0.7362 0 1
-23.1992 8.1990 -2.4322 0.7422 0 1
-23.0868 7.9250 -2.4128 0.7482 0 1
-22.9762 7.6554 -2.3939 0.7541 0 1
-22.8673 7.3899 -2.3755 0.7600 0 1
-22.7600 7.1284 -2.3575 0.7657 0 1
-22.6544 6.8708 -2.3400 0.7715 0 1
-22.5503 6.6171 -2.3230 0.7771 0 1
-22.4476 6.3669 -2.3064 0.7827 0 1
-22.3465 6.1203 -2.2902 0.7882 0 1
-22.2467 5.8771 -2.2745 0.7937 0 1
-22.1483 5.6372 -2.2591 0.7991 0 1
-22.0512 5.4005 -2.2441 0.8044 0 1
-21.9554 5.1669 -2.2295 0.8097 0 1
-21.8608 4.9363 -2.2153 0.8149 0 1
-21.7674 4.7086 -2.2014 0.8200 0 1
-21.6752 4.4837 -2.1879 0.8251 0 1
-21.6082 4.2663 -2.1771 0.9759 0 1
-21.6860 4.0782 -2.1812 0.9741 0 1
-21.7641 3.8893 -2.1854 0.9722 0 1
-21.8425 3.6997 -2.1898 0.9702 0 1
-21.9212 3.5093 -2.1944 0.9682 0 1
-22.0003 3.3180 -2.1993 0.9660 0 1
-22.0798 3.1259 -2.2043 0.9638 0 1
-22.1596 2.9330 -2.2095 0.9616 0 1
-22.2398 2.7390 -2.2149 0.9592 0 1
-22.3204 2.5442 -2.2206 0.9568 0 1
-22.4014 2.3482 -2.2264 0.9543 0 1
-22.4828 2.1513 -2.2325 0.9517 0 1
-22.5647 1.9532 -2.2388 0.9490 0 1
-22.6471 1.7541 -2.2453 0.9462 0 1
-22.7300 1.5537 -2.2520 0.9434 0 1
-22.8133 1.3521 -2.2590 0.9405 0 1
-22.8972 1.1493 -2.2662 0.9375 0 1
-22.9816 0.9452 -2.2736 0.9345 0 1
-23.0666 0.7396 -2.2812 0.9313 0 1
-23.1522 0.5327 -2.2891 0.9281 0 1
-23.2384 0.3243 -2.2973 0.9248 0 1
-23.3252 0.1145 -2.3056 0.9215 0 1
-23.4126 -0.0970 -2.3143 0.9180 0 1
-23.5073 -0.3101 -2.3238 0.6675 0 1
-23.7421 -0.5281 -2.3474 0.6608 0 1
-23.9817 -0.7506 -2.3717 0.6540 0 1
-24.2264 -0.9777 -2.3966 0.6472 0 1
-24.4762 -1.2097 -2.4223 0.6403 0 1
-24.7316 -1.4468 -2.4488 0.6334 0 1
-24.9925 -1.6891 -2.4761 0.6264 0 1
-25.0902 -1.9240 -2.4874 0.0984 0 8
-25.0718 -2.1509 -2.4874 0.0984 0 8
-25.0513 -2.3777 -2.4874 0.0984 0 8
-25.0287 -2.6043 -2.4874 0.0984 0 8
-21.9550 -2.4855 -2.1840 0.8020 0 5
-24.9775 -3.0568 -2.4874 0.0984 0 8
-24.9488 -3.2827 -2.4874 0.0984 0 8
-24.9181 -3.5083 -2.4874 0.0984 0 8
-24.8853 -3.7336 -2.4874 0.0984 0 8
-24.8505 -3.9587 -2.4874 0.0984 0 8
-24.8137 -4.1834 -2.4874 0.0984 0 8
-24.7748 -4.4077 -2.4874 0.0984 0 8
-24.7339 -4.6317 -2.4874 0.0984 0 8
-24.6910 -4.8554 -2.4874 0.0984 0 8
-24.6461 -5.0786 -2.4874 0.0984 0 8
-24.5991 -5.3014 -2.4874 0.0984 0 8
-24.5501 -5.5237 -2.4874 0.0984 0 8
-24.7340 -5.8008 -2.5112 0.5080 0 8
-25.0595 -6.1169 -2.5498 0.5003 0 8
-25.3952 -6.4428 -2.5898 0.4926 0 8
-25.7415 -6.7792 -2.6312 0.4848 0 8
-25.7199 -7.0230 -2.6354 0.1063 0 8
-25.6880 -7.2647 -2.6388 0.1061 0 8
-25.6310 -7.4997 -2.6398 0.0984 0 7
-25.5621 -7.7313 -2.6398 0.0984 0 7
-25.4911 -7.9623 -2.6398 0.0984 0 7
-25.4180 -8.1926 -2.6398 0.0984 0 7
-25.3428 -8.4223 -2.6398 0.0984 0 7
-25.2655 -8.6513 -2.6398 0.0984 0 7
-25.1862 -8.8795 -2.6398 0.0984 0 7
-25.1048 -9.1071 -2.6398 0.0984 0 7
-25.0214 -9.3339 -2.6398 0.0984 0 7
-24.9359 -9.5599 -2.6398 0.0984 0 7
-24.8484 -9.7851 -2.6398 0.0984 0 7
-24.7588 -10.0096 -2.6398 0.0984 0 7
-24.6672 -10.2332 -2.6398 0.0984 0 7
-24.5736 -10.4560 -2.6398 0.0984 0 7
-24.4780 -10.6779 -2.6398 0.0984 0 7
-24.3804 -10.8990 -2.6398 0.0984 0 7
-24.2808 -11.1191 -2.6398 0.0984 0 7
20.4483 -0.0000 -2.4874 0.1208 0 8
20.4475 0.1850 -2.4874 0.1208 0 8
20.4450 0.3700 -2.4874 0.1208 0 8
20.4408 0.5550 -2.4874 0.1208 0 8
20.4349 0.7400 -2.4874 0.1208 0 8
20.4274 0.9249 -2.4874 0.1208 0 8
20.4182 1.1097 -2.4874 0.1208 0 8
20.4073 1.2944 -2.4874 0.1208 0 8
20.3948 1.4790 -2.4874 0.1208 0 8
20.3805 1.6635 -2.4874 0.1208 0 8
20.3647 1.8478 -2.4874 0.1208 0 8
20.3471 2.0320 -2.4874 0.1208 0 8
20.3279 2.2161 -2.4874 0.1208 0 8
20.3070 2.3999 -2.4874 0.1208 0 8
20.2845 2.5835 -2.4874 0.1208 0 8
20.3533 2.7797 -2.4988 0.7334 0 8
20.4972 2.9885 -2.5197 0.7273 0 8
20.6449 3.2011 -2.5413 0.6653 0 8
20.8239 3.4221 -2.5670 0.6586 0 8
21.0064 3.6476 -2.5935 0.6519 0 8
21.2234 3.8834 -2.6245 0.5840 0 8
21.2646 4.0902 -2.6341 0.1303 0 8
21.2473 4.2866 -2.6366 0.1302 0 8
21.2284 4.4830 -2.6392 0.1295 0 8
21.1914 4.6759 -2.6398 0.1208 0 7
21.1483 4.8675 -2.6398 0.1208 0 7
21.1033 5.0587 -2.6398 0.1208 0 7
21.0567 5.2494 -2.6398 0.1208 0 7
21.0083 5.4397 -2.6398 0.1208 0 7
20.9582 5.6296 -2.6398 0.1208 0 7
20.9065 5.8190 -2.6398 0.1208 0 7
20.8529 6.0080 -2.6398 0.1208 0 7
20.7977 6.1964 -2.6398 0.1208 0 7
20.7408 6.3844 -2.6398 0.1208 0 7
20.6822 6.5718 -2.6398 0.1208 0 7
20.6219 6.7587 -2.6398 0.1208 0 7
20.5599 6.9450 -2.6398 0.1208 0 7
20.4962 7.1308 -2.6398 0.1208 0 7
20.4308 7.3159 -2.6398 0.1208 0 7
20.3638 7.5005 -2.6398 0.1208 0 7
20.2951 7.6845 -2.6398 0.1208 0 7
20.2247 7.8678 -2.6398 0.1208 0 7
20.1527 8.0505 -2.6398 0.1208 0 7
20.0790 8.2325 -2.6398 0.1208 0 7
20.0037 8.4138 -2.6398 0.1208 0 7
19.9268 8.5945 -2.6398 0.1208 0 7
19.8482 8.7745 -2.6398 0.1208 0 7
19.7680 8.9537 -2.6398 0.1208 0 7
19.6861 9.1322 -2.6398 0.1208 0 7
19.6027 9.3100 -2.6398 0.1208 0 7
19.5176 9.4870 -2.6398 0.1208 0 7
19.4310 9.6632 -2.6398 0.1208 0 7
19.3428 9.8386 -2.6398 0.1208 0 7
19.2529 10.0132 -2.6398 0.1208 0 7
19.1616 10.1871 -2.6398 0.1208 0 7
19.0686 10.3600 -2.6398 0.1208 0 7
18.9741 10.5321 -2.6398 0.1208 0 7
18.8780 10.7034 -2.6398 0.1208 0 7
18.7804 10.8738 -2.6398 0.1208 0 7
18.6812 11.0433 -2.6398 0.1208 0 7
18.5805 11.2119 -2.6398 0.1208 0 7
18.4783 11.3795 -2.6398 0.1208 0 7
18.3746 11.5463 -2.6398 0.1208 0 7
18.2693 11.7121 -2.6398 0.1208 0 7
18.1626 11.8769 -2.6398 0.1208 0 7
18.0544 12.0408 -2.6398 0.1208 0 7
17.9447 12.2036 -2.6398 0.1208 0 7
17.8335 12.3655 -2.6398 0.1208 0 7
17.7209 12.5264 -2.6398 0.1208 0 7
17.6068 12.6862 -2.6398 0.1208 0 7
17.4913 12.8450 -2.6398 0.1208 0 7
17.3744 13.0028 -2.6398 0.1208 0 7
17.2560 13.1595 -2.6398 0.1208 0 7
17.1362 13.3151 -2.6398 0.1208 0 7
17.0150 13.4696 -2.6398 0.1208 0 7
16.8924 13.6230 -2.6398 0.1208 0 7
16.7685 13.7753 -2.6398 0.1208 0 7
15.7303 13.1627 -2.4950 0.1208 0 8
13.6244 11.6117 -2.1775 0.8963 0 19
13.5141 11.7304 -2.1768 0.9297 0 19
15.3673 13.5848 -2.4950 0.1208 0 14
15.2437 13.7233 -2.4950 0.1208 0 14
12.8883 11.8157 -2.1269 0.9927 0 9
12.7948 11.9448 -2.1292 0.9926 0 9
12.6878 12.0617 -2.1295 0.9925 0 9
12.5809 12.1786 -2.1299 0.9923 0 9
12.4739 12.2956 -2.1306 0.9920 0 9
12.3668 12.4127 -2.1314 0.9916 0 9
12.2596 12.5298 -2.1324 0.9912 0 9
