ply
format ascii 1.0
element vertex 1403
property float32 x
property float32 y
property float32 z
property float32 CosAngle
property uint32 ObjIdx
property uint32 ObjTag
end_header
4.2485 -9.5825 1.8179 0.4286 0 9
11.5882 -12.8460 3.0003 0.6560 0 9
11.1819 -12.1723 2.8665 0.1756 0 9
10.6991 -11.4373 2.7161 0.8769 0 9
10.7598 -11.2956 2.7055 0.6377 0 9
11.6693 -12.0306 2.9067 0.6991 0 9
10.8525 -10.9879 2.6783 0.4729 0 9
10.9062 -10.8442 2.6673 0.4590 0 9
11.1073 -10.8461 2.6923 0.4548 0 9
13.9898 -13.1748 3.3327 0.4008 0 9
13.0465 -12.0657 3.0819 0.3352 0 9
13.6097 -12.3600 3.1884 0.6662 0 9
12.0501 -10.5521 2.7778 0.7994 0 9
12.0986 -10.4027 2.7672 0.8025 0 9
11.9085 -10.0533 2.7028 0.4848 0 9
11.9079 -9.8696 2.6823 0.2171 0 9
12.0371 -9.7944 2.6913 0.4440 0 9
12.2847 -9.2778 2.6698 0.1008 0 9
12.4380 -9.2180 2.6849 0.1304 0 9
12.0782 -8.6173 2.5731 0.2156 0 9
12.0279 -8.4182 2.5461 0.0703 0 9
12.2148 -8.3854 2.5695 0.0697 0 9
13.1671 -8.8650 2.7528 0.4880 0 9
13.1583 -8.6871 2.7344 0.9732 0 9
13.2679 -8.5881 2.7410 0.8869 0 9
16.9386 -10.5342 3.4593 0.3220 0 9
16.9309 -10.3181 3.4386 0.4906 0 9
14.0524 -8.2190 2.8233 0.8348 0 9
14.1082 -8.0812 2.8197 0.8359 0 9
17.8462 -10.0090 3.5485 0.3789 0 9
13.1660 -6.9213 2.5796 0.5247 0 9
12.8963 -6.6313 2.5149 0.6296 0 9
13.0768 -6.1365 2.5051 0.7180 0 9
13.0850 -5.9965 2.4962 0.7205 0 9
13.1754 -5.8943 2.5032 0.5699 0 9
13.4873 -5.8879 2.5522 0.7403 0 9
13.2097 -5.6250 2.4900 0.4762 0 9
13.3604 -5.5469 2.5088 0.7522 0 9
13.2680 -5.3684 2.4822 0.2286 0 9
13.6496 -5.3796 2.5444 0.8215 0 9
13.7927 -5.2923 2.5621 0.9803 0 9
13.7626 -5.1384 2.5477 0.5826 0 9
13.7832 -5.0045 2.5431 0.4800 0 9
14.0633 -4.9627 2.5863 0.5815 0 9
13.9885 -4.7944 2.5645 0.6246 0 9
14.2914 -4.7542 2.6120 0.8222 0 9
14.3209 -4.6205 2.6097 0.8230 0 9
14.3604 -4.4902 2.6094 0.4767 0 9
14.5834 -4.4155 2.6425 0.4736 0 9
16.0295 -4.5384 2.8892 0.5519 0 9
16.1557 -4.4167 2.9046 0.4777 0 9
9.2681 4.7663 1.8074 0.1083 0 9
8.3803 4.4061 1.6420 0.4021 0 9
8.4037 4.5159 1.6545 0.3654 0 9
8.2871 4.5503 1.6396 0.3111 0 9
8.1587 4.5764 1.6223 0.5190 0 9
8.0641 4.6198 1.6118 0.5224 0 9
11.0560 6.4672 2.2213 0.4393 0 9
8.6461 5.1631 1.7465 0.5330 0 9
8.5256 5.1964 1.7316 0.5376 0 9
8.4071 5.2290 1.7170 0.5422 0 9
8.6057 5.4612 1.7676 0.5731 0 9
8.5845 5.5573 1.7735 0.5712 0 9
8.5628 5.6539 1.7795 0.5693 0 9
8.3244 5.6052 1.7404 0.5862 0 9
8.2225 5.6454 1.7297 0.5898 0 9
8.2093 5.7463 1.7378 0.0074 0 9
8.7212 6.2229 1.8580 0.1489 0 9
8.7222 6.3435 1.8704 0.5961 0 9
8.7681 6.4990 1.8928 0.5462 0 9
10.8894 8.3808 2.3831 0.2625 0 9
9.2718 7.2703 2.0434 0.8705 0 9
9.1803 7.3337 2.0377 0.9664 0 9
9.1486 7.4449 2.0456 0.8027 0 9
8.0723 6.6913 1.8184 0.9024 0 9
8.0018 6.7560 1.8162 0.9035 0 9
7.9314 6.8204 1.8141 0.9045 0 9
7.8611 6.8846 1.8122 0.9054 0 9
7.3779 6.5804 1.7145 0.3425 0 9
7.2612 6.5951 1.7012 0.9409 0 9
7.1183 6.5839 1.6816 0.1888 0 9
7.0365 6.6274 1.6764 0.6993 0 9
6.9858 6.6999 1.6786 0.7010 0 9
6.9341 6.7718 1.6809 0.7000 0 9
6.9947 6.9557 1.7107 0.6717 0 9
6.9401 7.0275 1.7129 0.6709 0 9
6.8468 7.0596 1.7055 0.7242 0 9
6.7283 7.0642 1.6919 0.7162 0 9
7.1304 7.6233 1.8103 0.6022 0 9
7.0858 7.7143 1.8166 0.6711 0 9
7.0919 7.8626 1.8363 0.7916 0 9
7.0891 8.0039 1.8543 0.6476 0 9
7.3362 8.4354 1.9388 0.2569 0 9
7.0860 8.2981 1.8924 0.8365 0 9
7.0520 8.4112 1.9036 0.8316 0 9
8.5845 10.4294 2.3426 0.6727 0 9
6.5955 8.1623 1.8199 0.9709 0 9
6.3363 7.9883 1.7683 0.8675 0 9
6.3091 8.1035 1.7811 0.7119 0 9
5.7561 7.5328 1.6441 0.8016 0 9
5.6822 7.5773 1.6425 0.8023 0 9
5.6087 7.6219 1.6411 0.8041 0 9
5.5740 7.7202 1.6514 0.3734 0 9
7.0301 9.9248 2.1093 0.7351 0 9
6.7088 9.6552 2.0390 0.8381 0 9
6.5672 9.8261 2.0497 0.6912 0 9
6.1231 9.3436 1.9374 0.6122 0 9
6.0848 9.4710 1.9523 0.6728 0 9
2.5766 7.6020 1.3921 0.7058 0 9
2.4991 7.5987 1.3873 0.7083 0 9
2.4221 7.5953 1.3826 0.7106 0 9
2.3455 7.5918 1.3780 0.7130 0 9
2.4401 8.4362 1.5230 0.3694 0 9
1.8718 7.1978 1.2898 0.4504 0 9
1.7831 7.1206 1.2730 0.4564 0 9
1.5327 7.2201 1.2801 0.4035 0 9
1.4479 7.1381 1.2631 0.4089 0 9
1.2688 6.8929 1.2155 0.3486 0 9
1.2070 6.9075 1.2161 0.3710 0 9
1.1481 6.9403 1.2200 0.3698 0 9
1.0888 6.9731 1.2240 0.3686 0 9
1.0291 7.0060 1.2281 0.3669 0 9
0.9173 7.1409 1.2486 0.2650 0 9
0.8486 7.1150 1.2427 0.4140 0 9
0.7848 7.1281 1.2437 0.6662 0 9
0.7192 7.8327 1.3641 0.7357 0 9
0.6470 7.8226 1.3613 0.7373 0 9
0.2905 6.2659 1.0879 0.4431 0 9
0.2317 6.2122 1.0781 0.9388 0 9
0.1750 6.1953 1.0749 0.9417 0 9
0.1187 6.1835 1.0726 0.8870 0 9
0.0630 6.2123 1.0774 0.8830 0 9
0.0068 6.2727 1.0879 0.3471 0 9
-0.0609 7.6578 1.3281 0.5840 0 9
-0.1337 7.8639 1.3640 0.5681 0 9
-0.2063 7.9196 1.3739 0.5640 0 9
-0.2663 7.5838 1.3161 0.0579 0 9
-0.3416 7.7323 1.3423 0.0574 0 9
-0.5151 8.2653 1.4362 0.4614 0 9
-0.5859 8.2056 1.4267 0.2798 0 9
-0.6779 8.4203 1.4650 0.4523 0 9
-1.7471 6.7790 1.2141 0.5991 0 9
-1.8139 6.7837 1.2178 0.6430 0 9
-1.8979 6.8490 1.2326 0.4144 0 9
-1.9780 6.8950 1.2440 0.6393 0 9
-2.0548 6.9257 1.2528 0.6348 0 9
-2.1263 6.9359 1.2581 0.7119 0 9
-2.2040 6.9640 1.2668 0.3321 0 9
-2.4225 7.4204 1.3537 0.2175 0 9
-2.4615 7.3148 1.3385 0.4621 0 9
-11.4054 9.1521 2.5361 0.6161 0 9
-11.4389 9.0101 2.5253 0.6187 0 9
-11.4722 8.8694 2.5148 0.6224 0 9
-11.5198 8.7407 2.5078 0.6299 0 9
-10.4016 7.7451 2.2491 0.0640 0 9
-10.3354 7.5514 2.2199 0.3705 0 9
-10.2835 7.3717 2.1943 0.5675 0 9
-6.2203 4.3744 1.3188 0.8914 0 5
-10.4433 7.2038 2.2002 0.4084 0 9
-10.5692 7.1504 2.2130 0.3287 0 9
-11.7960 7.6729 2.4404 0.2087 0 9
-10.6057 6.7629 2.1814 0.6068 0 9
-10.6911 6.6821 2.1865 0.6054 0 9
-10.8528 6.6474 2.2072 0.4793 0 9
-10.8761 6.5271 2.1998 0.4809 0 9
-12.0691 5.0426 2.2684 0.3411 0 9
-12.0467 4.9057 2.2558 0.8688 0 9
-12.0800 4.7923 2.2538 0.9840 0 9
-12.1920 4.7095 2.2667 0.6288 0 9
-18.2868 6.8744 3.3881 0.4824 0 9
-14.2435 5.2078 2.6301 0.3723 0 9
-14.4689 5.1423 2.6630 0.1685 0 9
-14.7992 5.1094 2.7152 0.1199 0 9
-17.7455 5.9475 3.2458 0.6407 0 9
-17.8904 5.8166 3.2625 0.6248 0 9
-17.7780 5.6027 3.2327 0.7427 0 9
-17.7579 5.4202 3.2199 0.3840 0 9
-19.2398 5.4941 3.4701 0.7257 0 9
-22.0811 6.0899 3.9724 0.4178 0 9
-18.9841 5.0514 3.4069 0.8989 0 9
-19.0315 4.8801 3.4073 0.8988 0 9
-18.8024 4.6405 3.3587 0.7085 0 9
-18.7619 4.4508 3.3441 0.7116 0 9
-18.8524 4.2925 3.3532 0.4002 0 9
-28.6885 6.2596 5.0924 0.1989 0 9
-29.2036 6.0958 5.1738 0.5977 0 9
-19.4031 3.8672 3.4312 0.4389 0 9
-19.2581 3.6575 3.3996 0.6734 0 9
-21.1611 3.8209 3.7292 0.5691 0 9
-17.3464 2.9703 3.0521 0.9803 0 5
-19.2251 3.1133 3.3776 0.8978 0 9
-19.2255 2.9351 3.3728 0.8987 0 9
-18.6702 2.6777 3.2710 0.3009 0 9
-19.0011 2.5499 3.3248 0.5914 0 9
-19.0067 2.3758 3.3219 0.6791 0 9
-20.8222 2.4117 3.6352 0.6282 0 9
-19.0524 2.0322 3.3229 0.5297 0 9
-19.2306 1.8754 3.3509 0.5172 0 9
-24.1256 2.1326 4.2003 0.5911 0 9
-18.8090 1.4913 3.2722 0.7521 0 9
-21.2101 1.4887 3.6874 0.4966 0 9
-21.1573 1.2927 3.6761 0.4982 0 9
-21.9229 1.1405 3.8071 0.3865 0 9
-22.2673 0.9565 3.8653 0.5304 0 9
-26.0112 0.8817 4.5136 0.7374 0 9
-22.4920 0.5587 3.9019 0.9665 0 9
-26.9847 0.4261 4.6804 0.7551 0 9
-29.3472 0.1979 5.0897 0.4689 0 9
-27.5882 -0.0636 4.7845 0.7679 0 9
-33.9361 -0.3852 5.8858 0.0399 0 9
-27.7253 -0.5657 4.8093 0.9751 0 9
-27.7996 -0.8188 4.8233 0.8184 0 9
-27.5703 -1.0618 4.7849 0.8778 0 9
-30.1855 -1.4361 5.2409 0.5285 0 9
-29.5600 -1.6745 5.1347 0.5068 0 9
-29.7912 -1.9582 5.1777 0.5332 0 9
-29.0708 -2.1751 5.0557 0.6817 0 9
-35.1602 -2.9508 6.1191 0.2635 0 9
-29.2468 -2.7212 5.0941 0.4284 0 9
-36.9381 -3.7742 6.4394 0.8574 0 9
-38.4147 -4.2766 6.7033 0.8922 0 9
-15.4191 -6.8575 2.9266 0.5708 0 9
-15.2876 -6.9654 2.9135 0.4727 0 9
-15.8548 -7.3977 3.0342 0.6481 0 9
-15.7175 -7.5075 3.0208 0.6510 0 9
-14.9787 -7.3218 2.8914 0.4301 0 9
-15.0681 -7.5352 2.9217 0.4256 0 9
-15.3343 -7.8425 2.9870 0.3646 0 9
-15.7863 -8.2547 3.0894 0.5125 0 9
-15.0605 -8.0495 2.9615 0.4651 0 9
-15.1102 -8.2527 2.9859 0.4595 0 9
-15.8284 -8.8318 3.1435 0.8415 0 9
-15.3243 -8.7332 3.0589 0.7403 0 9
-14.9503 -8.7002 2.9998 0.7776 0 9
-14.9951 -8.9088 3.0249 0.4705 0 9
-14.7956 -8.9724 3.0009 0.9490 0 9
-14.6186 -9.0470 2.9815 0.3453 0 9
-15.4945 -9.7840 3.1780 0.6272 0 9
-17.5732 -11.3203 3.6253 0.3274 0 9
-15.1366 -9.9456 3.1410 0.3703 0 9
-19.0390 -12.7577 3.9746 0.3567 0 9
-14.0261 -9.5837 2.9461 0.3717 0 9
-13.5625 -9.4480 2.8665 0.6241 0 9
-13.4796 -9.5726 2.8672 0.6470 0 9
-13.4741 -9.7532 2.8847 0.7219 0 9
-13.3829 -9.8730 2.8842 0.9291 0 9
-13.3233 -10.0164 2.8907 0.7143 0 9
-13.2850 -10.1770 2.9023 0.7102 0 9
-14.6843 -11.4613 3.2305 0.5063 0 9
-14.2629 -11.3415 3.1603 0.6499 0 9
-15.6087 -12.6438 3.4836 0.5470 0 9
-15.5850 -12.8598 3.5042 0.7166 0 9
-14.3693 -12.0769 3.2553 0.7231 0 9
-14.3114 -12.2509 3.2671 0.7112 0 9
-15.3151 -13.3520 3.5237 0.6422 0 9
-13.5806 -12.0578 3.1496 0.6288 0 9
-14.7954 -13.3777 3.4592 0.5726 0 9
-13.3948 -12.3334 3.1577 0.6846 0 9
-13.3473 -12.5147 3.1731 0.5259 0 9
-13.5442 -12.9315 3.2476 0.7849 0 9
-13.4424 -13.0689 3.2514 0.7839 0 9
-13.3560 -13.2220 3.2593 0.7832 0 9
-9.3097 -9.3846 2.2925 0.5287 0 9
-9.1614 -9.4037 2.2768 0.5294 0 9
-13.2117 -13.8089 3.3144 0.3757 0 9
-14.2576 -15.1746 3.6110 0.8628 0 9
-14.1173 -15.3003 3.6104 0.8630 0 9
-13.9770 -15.4260 3.6101 0.8630 0 9
-14.6234 -16.4358 3.8153 0.9509 0 9
-8.2313 -9.4218 2.1697 0.3150 0 9
-8.0587 -9.3944 2.1465 0.3184 0 9
-7.3981 -8.7838 1.9917 0.3803 0 9
-8.8067 -10.6504 2.3967 0.2770 0 9
-7.0775 -8.7186 1.9475 0.4611 0 9
-7.0326 -8.8253 1.9571 0.4638 0 9
-8.6665 -11.0798 2.4395 0.8931 0 9
-16.7796 -21.8569 4.7788 0.8501 0 9
-7.3063 -9.6975 2.1057 0.3015 0 9
-6.2194 -8.4122 1.8143 0.3612 0 9
-6.0303 -8.3127 1.7810 0.3345 0 9
-5.8993 -8.2888 1.7644 0.8692 0 9
-5.9394 -8.5071 1.7994 0.3392 0 9
-5.7627 -8.4152 1.7688 0.2881 0 9
-5.1515 -7.6706 1.6024 0.7539 0 9
-5.0679 -7.6956 1.5980 0.7560 0 9
-4.8922 -7.5772 1.5642 0.1764 0 9
-4.6965 -7.4206 1.5230 0.4074 0 9
-4.6068 -7.4267 1.5156 0.3593 0 9
-4.6386 -7.6312 1.5488 0.1194 0 9
-4.6797 -7.8581 1.5862 0.5217 0 9
-4.5798 -7.8510 1.5763 0.5250 0 9
-4.4810 -7.8439 1.5667 0.5282 0 9
-4.4147 -7.8928 1.5684 0.5223 0 9
-4.3820 -8.0034 1.5824 0.5177 0 9
-4.4860 -8.3722 1.6472 0.2023 0 9
13.2266 6.8774 2.2409 0.9878 0 5
8.7189 5.0470 1.5143 0.4954 0 9
8.8691 5.3505 1.5570 0.4630 0 9
8.7357 5.3784 1.5420 0.5355 0 9
8.6252 5.4186 1.5311 0.4453 0 9
8.6131 5.5203 1.5378 0.4640 0 9
8.6012 5.6231 1.5447 0.4619 0 9
8.8452 5.8976 1.5980 0.4797 0 9
8.7297 5.9353 1.5868 0.4831 0 9
8.6644 6.0063 1.5847 0.5743 0 9
8.6043 6.0806 1.5837 0.5746 0 9
8.5441 6.1547 1.5828 0.5749 0 9
8.9333 6.8108 1.6886 0.6900 0 9
8.9369 6.9422 1.7010 0.5793 0 9
9.2114 7.2900 1.7658 0.8794 0 9
9.1387 7.3680 1.7645 0.9778 0 9
9.1715 7.5323 1.7839 0.1430 0 9
9.2086 7.8460 1.8185 0.4020 0 9
7.9445 6.8940 1.5811 0.3095 0 9
7.8747 6.9593 1.5797 0.3275 0 9
7.8005 7.0204 1.5775 0.3280 0 9
7.8425 7.1877 1.5990 0.8586 0 9
7.5997 7.0928 1.5626 0.0820 0 9
7.4040 7.0365 1.5354 0.6370 0 9
7.3550 7.1177 1.5385 0.6481 0 9
7.3048 7.1982 1.5415 0.6468 0 9
7.6259 7.6519 1.6239 0.5878 0 9
7.3608 7.5208 1.5818 0.4807 0 9
7.1703 7.4599 1.5553 0.4667 0 9
7.0371 7.4552 1.5410 0.4827 0 9
6.9211 7.4665 1.5303 0.4665 0 9
6.8954 7.5750 1.5397 0.4636 0 9
6.8683 7.6838 1.5491 0.4733 0 9
6.5847 7.5020 1.5004 0.2269 0 9
6.4715 7.5090 1.4901 0.4790 0 9
6.3710 7.5291 1.4825 0.4814 0 9
6.4097 7.7153 1.5077 0.1891 0 9
6.7832 8.3168 1.6132 0.3988 0 9
6.1934 7.7355 1.4895 0.6807 0 9
6.1205 7.7879 1.4889 0.6810 0 9
5.9842 7.7579 1.4727 0.8026 0 9
5.9847 7.9054 1.4904 0.6859 0 9
5.9299 7.9820 1.4947 0.6827 0 9
5.8748 8.0591 1.4991 0.6806 0 9
7.2183 10.0928 1.8652 0.5453 0 9
2.3341 7.9343 1.2432 0.3632 0 9
2.2346 7.8580 1.2280 0.6317 0 9
2.2224 8.0927 1.2615 0.3281 0 9
1.9506 7.6417 1.1855 0.1278 0 9
1.7166 7.2717 1.1231 0.5124 0 9
1.6358 7.2209 1.1129 0.5171 0 9
1.5564 7.1709 1.1030 0.5217 0 9
1.5208 7.3261 1.1247 0.4081 0 9
1.4433 7.2830 1.1160 0.4285 0 9
1.3721 7.2679 1.1118 0.5689 0 9
1.3030 7.2618 1.1090 0.5703 0 9
1.2311 7.2373 1.1035 0.2594 0 9
1.3653 8.4900 1.2926 0.3943 0 9
1.2779 8.4323 1.2820 0.4119 0 9
1.0917 8.2029 1.2439 0.5206 0 9
1.0093 8.1468 1.2339 0.5248 0 9
0.9282 8.0914 1.2242 0.5519 0 9
0.8390 7.9490 1.2015 0.2614 0 9
0.7748 8.0367 1.2136 0.6854 0 9
0.7004 8.0235 1.2106 0.6871 0 9
0.6263 8.0104 1.2078 0.6887 0 9
0.5652 8.1813 1.2327 0.0656 0 9
0.4874 8.1231 1.2232 0.5150 0 9
0.4167 8.1835 1.2317 0.4686 0 9
0.2607 6.2275 0.9369 0.9398 0 9
0.2037 6.2101 0.9340 0.9277 0 9
0.1470 6.1906 0.9308 0.9309 0 9
0.0911 6.2020 0.9324 0.8877 0 9
0.0352 6.2308 0.9366 0.8845 0 9
-0.0216 6.3409 0.9531 0.3933 0 9
-6.2060 4.4067 1.1441 0.9283 0 5
-6.2616 4.3615 1.1469 0.3311 0 5
-12.1831 5.1555 1.9885 0.3324 0 9
-12.0519 4.9719 1.9597 0.8699 0 9
-12.0540 4.8456 1.9528 0.9734 0 9
-12.1230 4.7464 1.9570 0.6336 0 9
-12.2915 4.6846 1.9772 0.6561 0 9
-19.1307 7.0937 3.0669 0.2778 0 9
-18.9480 6.8316 3.0276 0.3134 0 9
-18.6777 6.5438 2.9749 0.3883 0 9
-18.3761 6.2520 2.9177 0.0839 0 9
-19.1673 6.3283 3.0341 0.7194 0 9
-20.5728 6.5866 3.2470 0.4335 0 9
-18.6152 5.7747 2.9297 0.6820 0 9
-18.5990 5.5857 2.9191 0.5998 0 9
-18.6444 5.4160 2.9184 0.6059 0 9
-18.6932 5.2472 2.9185 0.6059 0 9
-18.8587 5.1101 2.9369 0.6827 0 9
-18.9115 4.9412 2.9381 0.7579 0 9
-19.0332 4.7895 2.9501 0.7548 0 9
-19.4833 4.7157 3.0132 0.7184 0 9
-19.5510 4.5452 3.0172 0.7853 0 9
-19.6374 4.3785 3.0243 0.7834 0 9
-19.8247 4.2323 3.0471 0.0971 0 9
-20.6822 4.2201 3.1729 0.7346 0 9
-22.3023 4.3409 3.4153 0.2868 0 9
-20.7103 3.8369 3.1660 0.3523 0 9
-20.8631 3.6703 3.1842 0.4104 0 9
-21.1618 3.5258 3.2248 0.9070 0 9
-21.3066 3.3521 3.2421 0.8738 0 9
-26.4995 3.9238 4.0267 0.5624 0 9
-26.5879 3.6914 4.0349 0.3468 0 9
-27.2016 3.5260 4.1230 0.4279 0 9
-27.0020 3.2521 4.0881 0.8751 0 9
-26.9020 2.9934 4.0687 0.6409 0 9
-26.9787 2.7550 4.0764 0.9190 0 9
-26.8453 2.4962 4.0526 0.8540 0 9
-27.0087 2.2652 4.0741 0.5565 0 9
-26.8120 2.0046 4.0415 0.5886 0 9
-26.4893 1.7396 3.9903 0.4022 0 9
-26.6593 1.5087 4.0137 0.6730 0 9
-26.7744 1.2723 4.0291 0.9024 0 9
-26.9199 1.0352 4.0494 0.9062 0 9
-26.6590 0.7837 4.0090 0.5634 0 9
-26.7146 0.5435 4.0164 0.7631 0 9
-26.9354 0.3042 4.0490 0.2591 0 9
-28.4640 0.0640 4.2786 0.8355 0 9
-28.2059 -0.1918 4.2399 0.9710 0 9
-28.1453 -0.4460 4.2312 0.9588 0 9
-28.8992 -0.7195 4.3453 0.6499 0 9
-28.8507 -0.9796 4.3392 0.3687 0 9
-28.9147 -1.2437 4.3503 0.3221 0 9
-31.5682 -1.6441 4.7516 0.6730 0 9
-28.7345 -1.7573 4.3273 0.8723 0 9
-28.6545 -2.0128 4.3178 0.9367 0 9
-36.1461 -2.8679 5.4504 0.5717 0 9
-28.4215 -2.5140 4.2888 0.7116 0 9
-29.2095 -2.8502 4.4115 0.9303 0 9
-36.4851 -3.8937 5.5154 0.3402 0 9
-36.9781 -4.2850 5.5955 0.4848 0 9
-37.4097 -4.6784 5.6670 0.2899 0 9
-38.6125 -5.1840 5.8561 0.4188 0 9
-18.0685 -8.5297 3.0034 0.4729 0 9
-17.1211 -9.0509 2.9110 0.6684 0 9
-16.9483 -9.1566 2.8956 0.7379 0 9
-16.4380 -9.0740 2.8223 0.4453 0 9
-16.6276 -9.3760 2.8693 0.1196 0 9
-16.5352 -9.5221 2.8681 0.4334 0 9
-16.2901 -9.9792 2.8716 0.8046 0 9
-15.1475 -9.4687 2.6851 0.6521 0 9
-15.0397 -9.5917 2.6813 0.6535 0 9
-14.8767 -9.6781 2.6677 0.5585 0 9
-14.7009 -9.7542 2.6519 0.5670 0 9
-14.8469 -10.0457 2.6946 0.5222 0 9
-14.5990 -10.0717 2.6660 0.7357 0 9
-14.5110 -10.2060 2.6667 0.7347 0 9
-14.4243 -10.3413 2.6678 0.7344 0 9
-14.4143 -10.5328 2.6835 0.2128 0 9
-15.9666 -11.8903 2.9924 0.4633 0 9
-15.7738 -11.9700 2.9764 0.6676 0 9
-15.8558 -12.2599 3.0127 0.5289 0 9
-15.0340 -11.8433 2.8768 0.1989 0 9
-15.2391 -12.2299 2.9371 0.9724 0 9
-14.5145 -12.3106 2.8608 0.6043 0 9
-14.3772 -12.4196 2.8558 0.8853 0 9
-14.2072 -12.4990 2.8444 0.7469 0 9
-14.0983 -12.6312 2.8453 0.7467 0 9
-13.9892 -12.7635 2.8465 0.9495 0 9
-13.8694 -12.8861 2.8457 0.9588 0 9
-13.7596 -13.0180 2.8472 0.9724 0 9
-15.1486 -14.5941 3.1618 0.7849 0 9
-15.4214 -15.1283 3.2472 0.5653 0 9
-15.4425 -15.4256 3.2809 0.5351 0 9
-15.5138 -15.7797 3.3263 0.8167 0 9
-15.4581 -16.0103 3.3452 0.8140 0 9
-8.6286 -9.1002 1.8850 0.2899 0 9
-8.4902 -9.1181 1.8727 0.3083 0 9
-8.2793 -9.0545 1.8442 0.4809 0 9
-8.2277 -9.1631 1.8511 0.4842 0 9
-8.2555 -9.3631 1.8764 0.1533 0 9
-18.5648 -21.4435 4.2634 0.7613 0 9
-18.4207 -21.6702 4.2752 0.8717 0 9
-18.1842 -21.7884 4.2659 0.9677 0 9
-18.0571 -22.0383 4.2826 0.8433 0 9
-18.3269 -22.7851 4.3953 0.8787 0 9
-16.6500 -21.0881 4.0388 0.5971 0 9
-7.8936 -10.1858 1.9370 0.1363 0 9
-16.1071 -21.1774 3.9994 0.6174 0 9
-16.5284 -22.1443 4.1536 0.9864 0 9
-7.3051 -9.9741 1.8583 0.5071 0 9
-7.1550 -9.9569 1.8430 0.4904 0 9
-7.0244 -9.9641 1.8325 0.2362 0 9
-15.7251 -22.7402 4.1559 0.5787 0 9
-15.5048 -22.8611 4.1521 0.5737 0 9
-15.4067 -23.1648 4.1818 0.7439 0 9
-15.6977 -24.0720 4.3198 0.9622 0 9
-14.9564 -23.3951 4.1738 0.8642 0 9
-5.5278 -8.8215 1.5648 0.3596 0 9
-5.4277 -8.8384 1.5590 0.3610 0 9
-5.3273 -8.8536 1.5532 0.3531 0 9
-5.2265 -8.8667 1.5471 0.3545 0 9
-4.7070 -8.1530 1.4151 0.1570 0 9
-4.8680 -8.6109 1.4869 0.3826 0 9
-4.7974 -8.6682 1.4892 0.3820 0 9
-4.7261 -8.7248 1.4915 0.3798 0 9
-4.7045 -8.8757 1.5100 0.1355 0 9
-4.5580 -8.7905 1.4884 0.1375 0 9
-4.4620 -8.7994 1.4830 0.4054 0 9
-4.5415 -9.1606 1.5369 0.2034 0 9
-4.4976 -9.2822 1.5504 0.6321 0 9
-4.4504 -9.4005 1.5634 0.3645 0 9
-4.0139 -8.6807 1.4376 0.2729 0 9
-3.9228 -8.6892 1.4330 0.7969 0 9
-3.8479 -8.7331 1.4345 0.7972 0 9
-3.5484 -8.2551 1.3506 0.7931 0 9
-3.4659 -8.2685 1.3477 0.7665 0 9
-3.4071 -8.3390 1.3541 0.7627 0 9
-3.8799 -9.7472 1.5770 0.5717 0 9
-3.5608 -9.1865 1.4810 0.2689 0 9
-3.4685 -9.1943 1.4771 0.3351 0 9
-3.3842 -9.2227 1.4767 0.3351 0 9
-3.3089 -9.2761 1.4804 0.1742 0 9
-3.1349 -9.0462 1.4391 0.4404 0 9
-3.6464 -11.5238 1.8168 0.4706 0 9
-3.5587 -11.6109 1.8254 0.3824 0 9
-3.2887 -11.4668 1.7931 0.4988 0 9
-3.4068 -12.2972 1.9181 0.3974 0 9
-3.3253 -12.9062 2.0033 0.3041 0 9
-3.1286 -12.6140 1.9535 0.9149 0 9
-1.2010 -9.5192 1.4422 0.7903 0 5
3.7632 -9.6428 1.5559 0.6706 0 9
3.8184 -9.5289 1.5431 0.9738 0 9
3.8980 -9.4781 1.5405 0.9755 0 9
3.9905 -9.4589 1.5432 0.9325 0 9
4.0890 -9.4528 1.5481 0.9295 0 9
4.2305 -9.5421 1.5690 0.4455 0 9
11.7303 -12.0935 2.5325 0.0837 0 9
11.8943 -12.0427 2.5443 0.0833 0 9
12.7743 -12.7017 2.7078 0.6040 0 9
12.8469 -12.5447 2.6990 0.6074 0 9
11.5375 -11.0640 2.4028 0.5657 0 9
12.1195 -11.2083 2.4814 0.6868 0 9
12.1904 -11.0709 2.4753 0.6885 0 9
11.9869 -10.6899 2.4142 0.2424 0 9
12.0023 -10.5102 2.3981 0.5791 0 9
12.1085 -10.4111 2.4004 0.5785 0 9
13.5814 -11.4656 2.6717 0.4326 0 9
12.6036 -10.4463 2.4606 0.5438 0 9
12.5955 -10.2487 2.4408 0.5489 0 9
12.6217 -10.0817 2.4282 0.7287 0 9
12.6745 -9.9374 2.4209 0.7309 0 9
12.7768 -9.8322 2.4234 0.1478 0 9
26.1813 -19.7729 4.9317 0.4130 0 5
26.5213 -19.6554 4.9620 0.5629 0 5
13.5413 -9.8472 2.5167 0.5350 0 9
13.4840 -9.6203 2.4898 0.5325 0 9
13.4281 -9.3982 2.4637 0.5382 0 9
13.4765 -9.2516 2.4571 0.2992 0 9
12.9821 -8.7404 2.3524 0.4795 0 9
13.1195 -8.6614 2.3630 0.4991 0 9
13.2696 -8.5892 2.3760 0.8666 0 9
14.2689 -8.6958 2.5117 0.6603 0 9
13.6441 -8.1467 2.3887 0.4074 0 9
13.6017 -7.9553 2.3685 0.4689 0 9
13.7364 -7.8682 2.3795 0.9199 0 9
14.5648 -7.9963 2.4976 0.7299 0 9
14.6839 -7.8896 2.5056 0.5970 0 9
13.4880 -7.0906 2.2905 0.6413 0 9
13.5257 -6.9550 2.2862 0.8989 0 9
13.2732 -6.6740 2.2332 0.4234 0 9
13.5087 -6.6400 2.2626 0.7852 0 9
13.5640 -6.5155 2.2619 0.7923 0 9
13.6405 -6.4010 2.2649 0.7907 0 9
14.4187 -6.6077 2.3841 0.7771 0 9
13.8970 -6.2171 2.2884 0.3221 0 9
13.8473 -6.0451 2.2711 0.7989 0 9
13.8901 -5.9147 2.2693 0.7995 0 9
14.0271 -5.8237 2.2830 0.2735 0 9
13.9300 -5.4901 2.2506 0.6877 0 9
14.1120 -5.4148 2.2720 0.5178 0 9
14.3305 -5.3504 2.2993 0.4277 0 9
14.2732 -5.1824 2.2825 0.8659 0 9
14.4088 -5.0846 2.2967 0.3268 0 9
14.6643 -5.0260 2.3301 0.2790 0 9
8.6904 4.9785 1.5055 0.4983 0 9
8.9437 5.3408 1.5658 0.4604 0 9
8.7979 5.3623 1.5487 0.5332 0 9
8.6733 5.3946 1.5353 0.5379 0 9
8.6190 5.4696 1.5344 0.4650 0 9
8.6072 5.5720 1.5412 0.4630 0 9
8.9032 5.8786 1.6037 0.4780 0 9
8.7869 5.9166 1.5923 0.4814 0 9
8.6942 5.9693 1.5852 0.5741 0 9
8.6342 6.0437 1.5842 0.5744 0 9
8.5740 6.1179 1.5832 0.5748 0 9
8.9859 6.7872 1.6927 0.3740 0 9
8.9222 6.8667 1.6923 0.6888 0 9
9.0264 7.0779 1.7242 0.1558 0 9
9.1683 7.3241 1.7639 0.9743 0 9
9.1308 7.4304 1.7695 0.8007 0 9
9.1743 7.8892 1.8188 0.4019 0 9
7.9097 6.9271 1.5804 0.3096 0 9
7.8374 6.9901 1.5786 0.3278 0 9
7.8704 7.1484 1.5982 0.8591 0 9
7.8142 7.2275 1.6000 0.8581 0 9
7.4568 7.0232 1.5397 0.3678 0 9
7.3798 7.0777 1.5370 0.6488 0 9
7.3297 7.1582 1.5400 0.6475 0 9
7.6314 7.5889 1.6177 0.5900 0 9
7.3788 7.4717 1.5785 0.4208 0 9
7.2372 7.4621 1.5626 0.4645 0 9
7.1031 7.4576 1.5481 0.4689 0 9
6.9709 7.4527 1.5339 0.4850 0 9
6.9082 7.5210 1.5350 0.4650 0 9
6.8822 7.6301 1.5445 0.4622 0 9
7.0672 7.9791 1.6022 0.7251 0 9
6.5218 7.4990 1.4939 0.4778 0 9
6.4208 7.5192 1.4862 0.4802 0 9
6.3656 7.5926 1.4893 0.4226 0 9
6.4731 7.8642 1.5311 0.1775 0 9
6.2296 7.7095 1.4899 0.6805 0 9
6.1567 7.7619 1.4892 0.6809 0 9
6.0841 7.8145 1.4887 0.6726 0 9
6.0119 7.8676 1.4884 0.6727 0 9
5.9571 7.9439 1.4925 0.6849 0 9
5.9022 8.0208 1.4969 0.6816 0 9
6.5053 9.0100 1.6705 0.9625 0 9
7.0210 9.9119 1.8258 0.3023 0 9
2.2709 7.8514 1.2286 0.6314 0 9
2.1981 8.1491 1.2687 0.2531 0 9
1.8848 7.5270 1.1664 0.1470 0 9
1.7573 7.2972 1.1282 0.5100 0 9
1.6758 7.2460 1.1179 0.5147 0 9
1.5957 7.1956 1.1079 0.5194 0 9
1.5170 7.1460 1.0981 0.5240 0 9
1.4817 7.3043 1.1203 0.4268 0 9
1.4065 7.2708 1.1132 0.5682 0 9
1.3373 7.2648 1.1104 0.5696 0 9
1.2661 7.2458 1.1057 0.2150 0 9
1.4096 8.5210 1.2982 0.3926 0 9
1.3211 8.4607 1.2872 0.4102 0 9
1.2875 8.7651 1.3317 0.3271 0 9
1.0500 8.1745 1.2389 0.5227 0 9
0.9683 8.1188 1.2290 0.5269 0 9
0.8796 7.9894 1.2082 0.4111 0 9
0.8120 8.0432 1.2152 0.6845 0 9
0.7373 8.0301 1.2121 0.6863 0 9
0.6630 8.0169 1.2092 0.6879 0 9
0.5936 8.0648 1.2155 0.0665 0 9
0.4520 8.1534 1.2275 0.5132 0 9
0.2909 6.2738 0.9441 0.5150 0 9
0.2319 6.2189 0.9354 0.9413 0 9
0.1751 6.2003 0.9324 0.9293 0 9
0.1187 6.1877 0.9303 0.8897 0 9
0.0630 6.2165 0.9345 0.8865 0 9
0.0068 6.2704 0.9425 0.3485 0 9
-6.2199 4.3741 1.1430 0.8947 0 5
-12.0588 5.0383 1.9645 0.8678 0 9
-12.0450 4.9050 1.9549 0.8721 0 9
-12.0864 4.7949 1.9545 0.9725 0 9
-12.2083 4.7158 1.9672 0.6594 0 9
-19.0977 6.9827 3.0565 0.5776 0 9
-18.7988 6.6812 2.9989 0.3912 0 9
-18.6818 6.4499 2.9708 0.3708 0 9
-18.3641 6.1549 2.9113 0.7362 0 9
-18.2862 5.9453 2.8903 0.6574 0 9
-18.8286 5.9338 2.9674 0.2026 0 9
-18.6011 5.6776 2.9234 0.6835 0 9
-18.6213 5.5001 2.9186 0.5998 0 9
-18.6690 5.3311 2.9184 0.6059 0 9
-18.8915 5.2102 2.9457 0.7023 0 9
-18.8513 5.0161 2.9322 0.7594 0 9
-18.9726 4.8650 2.9441 0.7563 0 9
-19.4303 4.7954 3.0083 0.7196 0 9
-19.5383 4.6350 3.0184 0.6969 0 9
-19.5944 4.4614 3.0207 0.7844 0 9
-19.6810 4.2942 3.0279 0.7825 0 9
-20.7231 4.3256 3.1821 0.6683 0 9
-20.6635 4.1184 3.1671 0.2994 0 9
-22.1257 4.2021 3.3853 0.2546 0 9
-20.7215 3.7415 3.1651 0.5448 0 9
-17.3455 2.9702 2.6452 0.9839 0 5
-21.2589 3.4426 3.2371 0.8752 0 9
-21.4230 3.2705 3.2575 0.2754 0 9
-27.6777 3.9696 4.2029 0.8704 0 9
-26.7373 3.5881 4.0550 0.3844 0 9
-27.0504 3.3813 4.0977 0.4584 0 9
-27.0113 3.1285 4.0873 0.8753 0 9
-27.0426 2.8844 4.0880 0.3387 0 9
-26.9763 2.6308 4.0742 0.9195 0 9
-26.9055 2.3783 4.0601 0.8524 0 9
-26.9353 2.1356 4.0615 0.5312 0 9
-26.5545 1.8638 4.0013 0.4010 0 9
-26.5720 1.6236 4.0016 0.6750 0 9
-26.7481 1.3916 4.0261 0.6709 0 9
-26.7907 1.1509 4.0307 0.9021 0 9
-26.7547 0.9069 4.0239 0.5398 0 9
-26.6721 0.6626 4.0104 0.7689 0 9
-26.7584 0.4225 4.0227 0.7619 0 9
-27.2587 0.1838 4.0975 0.5496 0 9
-28.5399 -0.0658 4.2900 0.8333 0 9
-28.1733 -0.3198 4.2351 0.9372 0 9
-28.1800 -0.5749 4.2367 0.7214 0 9
-28.9715 -0.8533 4.3567 0.3578 0 9
-28.7537 -1.1074 4.3253 0.6269 0 9
-31.3025 -1.4892 4.7105 0.4150 0 9
-31.6282 -1.7917 4.7618 0.8201 0 9
-28.6617 -1.8839 4.3176 0.8742 0 9
-28.6921 -2.1467 4.3249 0.9371 0 9
-28.3962 -2.3831 4.2834 0.7126 0 9
-28.4463 -2.6467 4.2944 0.7028 0 9
-29.9919 -3.0645 4.5317 0.5815 0 9
-36.9847 -4.1174 5.5937 0.7738 0 9
-38.2811 -4.6127 5.7958 0.5838 0 9
-18.2355 -8.5085 3.0248 0.4573 0 9
-17.6763 -8.6405 2.9575 0.3603 0 9
-17.2210 -9.0049 2.9211 0.6661 0 9
-17.0206 -9.0972 2.9009 0.6707 0 9
-16.5152 -9.0200 2.8286 0.4328 0 9
-17.0241 -9.4990 2.9304 0.7763 0 9
-16.5373 -9.4245 2.8611 0.4344 0 9
-16.3208 -9.8973 2.8691 0.8053 0 9
-16.2589 -10.0621 2.8741 0.8038 0 9
-15.0932 -9.5306 2.6832 0.6530 0 9
-14.9665 -9.6411 2.6760 0.5567 0 9
-14.7877 -9.7164 2.6597 0.5654 0 9
-14.7301 -9.8704 2.6653 0.1938 0 9
-14.7540 -10.0811 2.6860 0.5238 0 9
-14.5546 -10.1392 2.6663 0.7357 0 9
-14.0171 -9.9543 2.5842 0.4574 0 9
-14.3939 -10.4191 2.6710 0.8201 0 9
-14.5661 -10.7458 2.7208 0.2096 0 9
-15.8156 -11.8901 2.9742 0.7560 0 9
-15.8590 -12.1488 3.0029 0.9185 0 9
-15.0579 -11.7529 2.8712 0.2105 0 9
-15.3196 -12.1817 2.9420 0.5956 0 9
-22.8968 -18.5475 4.4292 0.4321 0 9
-14.5872 -12.2600 2.8642 0.6036 0 9
-14.4415 -12.3623 2.8575 0.6124 0 9
-14.3223 -12.4865 2.8561 0.8852 0 9
-14.1525 -12.5656 2.8448 0.7468 0 9
-14.0591 -12.7120 2.8491 0.8534 0 9
-13.9268 -12.8233 2.8456 0.9588 0 9
-13.8117 -12.9501 2.8459 0.9820 0 9
-13.7064 -13.0864 2.8485 0.4179 0 9
-15.2925 -14.8676 3.2060 0.4379 0 9
-15.4305 -15.2756 3.2637 0.5624 0 9
-15.5409 -15.6658 3.3169 0.8190 0 9
-15.4861 -15.8957 3.3358 0.8143 0 9
-8.6985 -9.0917 1.8914 0.1820 0 9
-8.5593 -9.1098 1.8789 0.3073 0 9
-8.3037 -8.9995 1.8406 0.0712 0 9
-8.2538 -9.1095 1.8477 0.4851 0 9
-8.2267 -9.2463 1.8603 0.1532 0 9
-8.6855 -9.9416 1.9843 0.6080 0 9
-18.4667 -21.5275 4.2633 0.7613 0 9
-18.2967 -21.7239 4.2693 0.8798 0 9
-18.1298 -21.9254 4.2765 0.6595 0 9
-18.0110 -22.1874 4.2956 0.2871 0 9
-17.8417 -22.3898 4.3034 0.8256 0 9
-16.4724 -21.0596 4.0189 0.6047 0 9
-17.5252 -22.8281 4.3260 0.9623 0 9
-16.6236 -22.0642 4.1525 0.8612 0 9
-16.2693 -22.0054 4.1136 0.4090 0 9
-7.2201 -9.9528 1.8482 0.4890 0 9
-7.0895 -9.9611 1.8378 0.4918 0 9
-15.8593 -22.7155 4.1643 0.5357 0 9
-15.5822 -22.7544 4.1454 0.7251 0 9
-17.0134 -25.3330 4.5870 0.4550 0 9
-15.3468 -23.3041 4.1943 0.7366 0 9
-15.0564 -23.3198 4.1724 0.7775 0 9
-5.5901 -8.8324 1.5712 0.4148 0 9
-5.4773 -8.8301 1.5619 0.3603 0 9
-5.3775 -8.8467 1.5562 0.3616 0 9
-5.2765 -8.8602 1.5501 0.3538 0 9
-4.8005 -8.2294 1.4321 0.3597 0 9
-4.7747 -8.3581 1.4469 0.2398 0 9
-4.8325 -8.6397 1.4880 0.3823 0 9
-4.7616 -8.6967 1.4904 0.3801 0 9
-4.7514 -8.8675 1.5122 0.2448 0 9
35.1744 15.1676 4.8785 0.5163 0 5
13.2259 6.8771 1.8985 0.9909 0 5
9.3550 7.2670 1.5087 0.2761 0 9
9.1783 7.2639 1.4907 0.3166 0 9
9.1282 7.3595 1.4933 0.9781 0 9
9.1051 7.4778 1.5006 0.8098 0 9
10.4332 8.8895 1.7457 0.1350 0 9
10.8847 10.1587 1.8962 0.1678 0 9
8.4670 8.0468 1.4877 0.3788 0 9
8.3901 8.1194 1.4870 0.3236 0 9
8.2415 8.7312 1.5291 0.2382 0 9
8.2926 8.9461 1.5536 0.2408 0 9
7.9203 9.0237 1.5292 0.5302 0 9
7.8349 9.0910 1.5285 0.5304 0 9
7.7341 9.1400 1.5249 0.3817 0 9
7.6187 9.3412 1.5352 0.4915 0 9
7.5546 9.4357 1.5394 0.7310 0 9
7.1857 9.1433 1.4811 0.7036 0 9
7.3240 9.4948 1.5272 0.7907 0 9
7.2775 9.6131 1.5356 0.7881 0 9
1.6873 7.4481 0.9726 0.4922 0 9
1.6149 7.4403 0.9697 0.1921 0 9
1.6738 8.0629 1.0488 0.3001 0 9
1.5917 8.0322 1.0429 0.3018 0 9
1.4710 8.1983 1.0608 0.3655 0 9
1.3076 7.6872 0.9931 0.4387 0 9
1.0909 7.6664 0.9862 0.4591 0 9
1.0393 7.8097 1.0034 0.1914 0 9
0.7662 8.7774 1.1221 0.3976 0 9
0.6825 8.7300 1.1152 0.4000 0 9
0.6425 9.3003 1.1873 0.3400 0 9
0.2609 6.2341 0.7947 0.9417 0 9
0.2038 6.2151 0.7920 0.9299 0 9
0.1471 6.1955 0.7893 0.9330 0 9
0.0912 6.2062 0.7905 0.8907 0 9
0.0352 6.2350 0.7941 0.8867 0 9
-0.0216 6.3341 0.8067 0.3949 0 9
-6.2057 4.4065 0.9693 0.9313 0 5
-6.2606 4.3608 0.9717 0.3322 0 5
-12.1545 5.1434 1.6809 0.3100 0 9
-12.0338 4.9644 1.6579 0.8510 0 9
-12.0424 4.8409 1.6530 0.9567 0 9
-12.1189 4.7448 1.6575 0.6488 0 9
-18.9735 6.8408 2.5687 0.4544 0 9
-20.4569 7.1671 2.7606 0.4498 0 9
-19.3127 6.5707 2.5981 0.3945 0 9
-19.4667 6.0388 2.5958 0.4333 0 9
-19.5417 5.6766 2.5917 0.5025 0 9
-19.7913 5.5555 2.6180 0.4788 0 9
-19.8128 5.3686 2.6143 0.4795 0 9
-28.7896 7.5221 3.7897 0.5501 0 9
-27.9198 7.0257 3.6667 0.7106 0 9
-27.9892 6.7745 3.6676 0.7237 0 9
-25.3500 5.8934 3.3146 0.4673 0 9
-24.8916 5.5500 3.2480 0.6995 0 9
-25.3579 5.4136 3.3023 0.4558 0 9
-25.8428 5.2731 3.3591 0.0697 0 9
-24.9323 4.8528 3.2349 0.7333 0 9
-21.1825 3.9244 2.7437 0.5526 0 9
-21.0953 3.7112 2.7279 0.9598 0 9
-21.1669 3.5267 2.7330 0.9368 0 9
-28.3139 4.4546 3.6504 0.5697 0 9
-28.0809 4.1579 3.6154 0.3788 0 9
-28.1658 3.9104 3.6216 0.8403 0 9
-27.8295 3.6074 3.5740 0.6190 0 9
-27.8823 3.3581 3.5767 0.6382 0 9
-29.5942 3.2929 3.7923 0.4466 0 9
-28.4682 2.9071 3.6445 0.7047 0 9
-27.4193 2.5496 3.5072 0.8134 0 9
-27.2913 2.2889 3.4880 0.3886 0 9
-27.6030 2.0637 3.5253 0.8931 0 9
-27.5825 1.8114 3.5204 0.6016 0 9
-27.2555 1.5424 3.4768 0.7164 0 9
-27.3296 1.2987 3.4846 0.7738 0 9
-27.4131 1.0542 3.4939 0.7718 0 9
-28.7388 0.8449 3.6617 0.6373 0 9
-28.8449 0.5868 3.6744 0.6136 0 9
-29.0150 0.3277 3.6956 0.7443 0 9
-28.8571 0.0649 3.6752 0.7485 0 9
-28.9804 -0.1970 3.6910 0.6284 0 9
-28.7785 -0.4561 3.6657 0.5834 0 9
-28.4829 -0.7092 3.6287 0.3484 0 9
-28.4074 -0.9645 3.6200 0.8155 0 9
-28.3708 -1.2203 3.6166 0.8005 0 9
-28.3640 -1.4772 3.6173 0.7821 0 9
-28.3923 -1.7364 3.6228 0.7672 0 9
-34.4727 -2.4215 4.4012 0.8703 0 9
-34.3096 -2.7222 4.3834 0.8326 0 9
-36.3781 -3.2177 4.6512 0.7223 0 9
-30.2899 -2.9556 3.8760 0.1209 0 9
-36.1448 -3.8574 4.6295 0.7171 0 9
-18.0604 -8.9290 2.5659 0.1908 0 9
-17.9475 -9.0761 2.5614 0.7120 0 9
-17.5529 -9.0769 2.5167 0.6925 0 9
-17.5275 -9.2657 2.5250 0.7020 0 9
-19.4232 -10.4938 2.8117 0.6331 0 9
-17.7254 -10.4221 2.6188 0.7777 0 9
-16.8748 -10.1285 2.5066 0.4124 0 9
-17.5297 -10.7385 2.6182 0.7433 0 9
-19.6933 -12.3103 2.9578 0.3009 0 9
-16.5773 -10.5723 2.5041 0.7148 0 9
-32.5333 -22.4444 5.0338 0.8747 0 9
-17.8118 -12.5275 2.7734 0.1531 0 9
-16.1049 -11.5462 2.5238 0.6535 0 9
-16.0517 -11.7294 2.5320 0.9046 0 9
-16.0588 -11.9589 2.5500 0.6561 0 9
-15.9080 -12.0719 2.5433 0.9161 0 9
-15.7660 -12.1904 2.5382 0.8631 0 9
-16.4948 -12.9941 2.6743 0.4497 0 9
-16.2458 -13.0378 2.6530 0.9509 0 9
-16.8072 -13.7402 2.7648 0.3747 0 9
-18.2624 -15.2076 3.0267 0.3699 0 9
-16.0360 -13.6012 2.6780 0.3004 0 9
-16.1401 -13.9425 2.7163 0.9097 0 9
-17.6017 -15.4853 2.9858 0.4247 0 9
-15.7902 -14.4068 2.7223 0.7595 0 9
-16.6326 -15.4534 2.8915 0.9944 0 9
-15.9390 -15.0799 2.7945 0.5178 0 9
-21.6216 -20.8302 3.8237 0.8065 0 9
-16.4876 -16.1742 2.9415 0.4028 0 9
-20.4097 -20.3874 3.6740 0.4180 0 9
-20.1586 -20.5042 3.6621 0.6226 0 9
-22.9581 -23.7782 4.2096 0.4620 0 9
-19.4159 -20.4770 3.5939 0.2821 0 9
-19.2118 -20.6325 3.5905 0.7601 0 9
-19.7656 -21.6160 3.7304 0.7713 0 9
-21.9626 -24.4595 4.1866 0.3792 0 9
-19.2385 -21.8196 3.7049 0.5847 0 9
-19.1271 -22.0931 3.7217 0.8490 0 9
-18.8347 -22.1572 3.7037 0.6696 0 9
-18.8113 -22.5398 3.7390 0.9036 0 9
-18.2158 -22.2321 3.6605 0.3218 0 9
-18.0128 -22.3945 3.6603 0.5727 0 9
-7.9185 -10.0292 1.6274 0.6558 0 9
-7.7963 -10.0602 1.6210 0.7539 0 9
-17.4045 -22.8831 3.6616 0.7776 0 9
-17.1872 -23.0268 3.6595 0.6475 0 9
-16.8146 -22.9581 3.6243 0.6488 0 9
-7.2209 -10.0485 1.5759 0.4129 0 9
-7.0981 -10.0687 1.5689 0.4561 0 9
-7.1462 -10.3342 1.6002 0.7642 0 9
-16.3155 -24.0565 3.7020 0.7699 0 9
-16.2183 -24.3852 3.7298 0.9365 0 9
-15.8377 -24.2865 3.6927 0.9858 0 9
-15.5366 -24.3026 3.6736 0.8544 0 9
-15.3188 -24.4464 3.6742 0.4847 0 9
-15.8959 -25.8850 3.8687 0.6866 0 9
-15.1178 -25.1248 3.7345 0.4738 0 9
-5.3577 -10.5656 1.5087 0.5152 0 9
-5.2200 -10.5293 1.4967 0.8507 0 9
-5.1322 -10.5918 1.4990 0.9359 0 9
-5.0837 -10.7383 1.5131 0.4889 0 9
-4.2473 -9.1856 1.2889 0.4973 0 9
-4.1731 -9.2437 1.2917 0.4962 0 9
-4.1321 -9.3781 1.3052 0.2421 0 9
-3.9892 -9.2805 1.2865 0.5137 0 9
-3.8206 -9.5983 1.3157 0.7026 0 9
-3.7226 -9.6041 1.3118 0.5405 0 9
-3.5851 -9.5036 1.2936 0.7344 0 9
-3.4801 -9.4841 1.2866 0.2791 0 9
-1.2010 -9.5186 1.2219 0.7928 0 5
3.7684 -9.6563 1.3201 0.6715 0 9
3.8210 -9.5352 1.3083 0.9935 0 9
3.9019 -9.4876 1.3065 0.9824 0 9
3.9957 -9.4713 1.3092 0.9361 0 9
4.0950 -9.4666 1.3136 0.9329 0 9
4.2303 -9.5414 1.3293 0.4623 0 9
15.3196 -11.7890 2.4619 0.1703 0 9
14.3424 -10.8319 2.2890 0.0993 0 9
14.3132 -10.6078 2.2690 0.6517 0 9
13.8487 -10.0707 2.1808 0.5735 0 9
13.8953 -9.9137 2.1739 0.5877 0 9
16.3107 -11.4157 2.5355 0.4552 0 9
13.2140 -8.8966 2.0288 0.5855 0 9
13.1830 -8.7034 2.0119 0.9816 0 9
13.2792 -8.5954 2.0146 0.8380 0 9
14.6304 -8.9161 2.1821 0.4975 0 9
14.7670 -8.8172 2.1904 0.4956 0 9
14.8544 -8.6880 2.1917 0.6602 0 9
14.8793 -8.5229 2.1839 0.5451 0 9
14.9241 -8.3701 2.1792 0.5454 0 9
14.8322 -8.1431 2.1550 0.1028 0 9
15.1243 -8.1263 2.1866 0.1013 0 9
15.4398 -8.1166 2.2216 0.6589 0 9
15.6094 -8.0264 2.2354 0.6549 0 9
15.5984 -7.8432 2.2236 0.3432 0 9
15.8102 -7.7713 2.2437 0.6497 0 9
37.8139 -4.6404 4.8521 0.2817 0 5
38.3485 -4.3543 4.9154 0.0584 0 5
35.4935 15.1164 4.9133 0.0686 0 5
35.1121 15.3306 4.8795 0.4857 0 5
9.2605 7.2615 1.4988 0.8765 0 9
9.1537 7.3125 1.4921 0.5814 0 9
9.1108 7.4142 1.4960 0.8123 0 9
11.0687 9.5182 1.8592 0.2652 0 9
10.1426 9.0462 1.7309 0.0961 0 9
10.2125 9.4457 1.7717 0.1204 0 9
9.9450 9.3667 1.7399 0.4284 0 9
8.4303 8.0852 1.4877 0.3788 0 9
8.4203 8.2232 1.4990 0.8089 0 9
8.2148 8.6249 1.5170 0.2401 0 9
8.2675 8.8389 1.5414 0.2427 0 9
7.8773 9.0576 1.5288 0.5303 0 9
7.7919 9.1248 1.5282 0.5305 0 9
7.6687 9.1468 1.5202 0.3829 0 9
7.6065 9.2411 1.5244 0.2743 0 9
7.6104 9.4182 1.5422 0.4893 0 9
7.5359 9.5007 1.5444 0.7286 0 9
7.1433 9.1750 1.4809 0.7037 0 9
7.2978 9.5505 1.5308 0.7825 0 9
1.6487 7.4347 0.9699 0.2326 0 9
1.7201 8.1027 1.0550 0.1811 0 9
1.6324 8.0474 1.0458 0.3010 0 9
1.3357 8.0742 1.0423 0.0803 0 9
1.1280 7.6793 0.9885 0.0862 0 9
1.0618 7.7136 0.9917 0.2109 0 9
0.7240 8.7535 1.1186 0.3988 0 9
0.6408 8.7063 1.1118 0.4012 0 9
0.5969 9.2521 1.1808 0.3419 0 9
0.2910 6.2774 0.8003 0.5163 0 9
0.2322 6.2249 0.7933 0.9283 0 9
0.1752 6.2052 0.7906 0.9315 0 9
0.1188 6.1919 0.7887 0.8918 0 9
0.0631 6.2206 0.7923 0.8887 0 9
0.0068 6.2682 0.7983 0.3497 0 9
-6.2196 4.3739 0.9684 0.8976 0 5
-12.0412 5.0309 1.6620 0.8519 0 9
-12.0263 4.8974 1.6538 0.8531 0 9
-12.0746 4.7902 1.6544 0.9576 0 9
-12.2039 4.7141 1.6662 0.6454 0 9
-18.9961 6.9455 2.5760 0.5072 0 9
-19.0201 6.7599 2.5708 0.4685 0 9
-20.5323 7.0888 2.7664 0.4488 0 9
-20.7095 6.9410 2.7817 0.5172 0 9
-19.4201 6.1202 2.5932 0.9364 0 9
-19.8915 5.8753 2.6416 0.2814 0 9
-19.6187 5.6023 2.5985 0.4942 0 9
-19.1320 5.2766 2.5276 0.2936 0 9
-28.5277 7.5908 3.7597 0.3263 0 9
-27.7702 7.1209 3.6512 0.7294 0 9
-27.8944 6.8844 3.6592 0.7254 0 9
-25.3723 6.0190 3.3211 0.4664 0 9
-25.3284 5.7670 3.3084 0.3883 0 9
-25.4118 5.5446 3.3126 0.4635 0 9
-25.3021 5.2814 3.2919 0.4573 0 9
-24.9072 4.9642 3.2345 0.7334 0 9
-26.8984 5.1085 3.4870 0.6389 0 9
-21.1031 3.8104 2.7311 0.9587 0 9
-17.3446 2.9700 2.2411 0.9870 0 5
-28.3653 4.5934 3.6596 0.5683 0 9
-28.2683 4.3156 3.6419 0.5951 0 9
-28.1028 4.0305 3.6158 0.8416 0 9
-28.2249 3.7878 3.6269 0.8927 0 9
-27.8324 3.4791 3.5723 0.6390 0 9
-27.8694 3.2279 3.5731 0.4087 0 9
-29.6317 3.1606 3.7953 0.5175 0 9
-27.4521 2.6772 3.5129 0.4974 0 9
-27.2910 2.4124 3.4893 0.2314 0 9
-27.3396 2.1676 3.4929 0.3906 0 9
-27.6647 1.9417 3.5320 0.5996 0 9
-27.5347 1.6824 3.5133 0.8141 0 9
-27.2922 1.4199 3.4806 0.9611 0 9
-27.3716 1.1758 3.4892 0.7728 0 9
-27.4548 0.9306 3.4986 0.7616 0 9
-28.7912 0.7152 3.6680 0.6363 0 9
-32.7717 0.5175 4.1743 0.7336 0 9
-28.9354 0.1951 3.6853 0.7464 0 9
-28.9018 -0.0666 3.6809 0.6320 0 9
-29.3646 -0.3334 3.7401 0.8857 0 9
-28.5723 -0.5829 3.6397 0.3689 0 9
-28.6502 -0.8439 3.6504 0.3096 0 9
-28.3900 -1.0933 3.6184 0.8158 0 9
-28.3500 -1.3488 3.6147 0.8009 0 9
-28.3790 -1.6076 3.6201 0.7678 0 9
-30.6179 -2.0125 3.9079 0.9427 0 9
-30.8617 -2.3091 3.9415 0.2140 0 9
-29.8641 -2.5063 3.8168 0.6214 0 9
-30.8615 -2.8714 3.9475 0.8213 0 9
-35.5359 -3.6309 4.5494 0.1970 0 9
-18.2634 -8.9274 2.5890 0.8537 0 9
-17.9995 -9.0011 2.5631 0.7115 0 9
-17.6865 -9.0455 2.5300 0.2516 0 9
-17.5402 -9.1718 2.5209 0.7032 0 9
-18.5677 -9.9240 2.6813 0.7981 0 9
-17.7901 -10.3528 2.6215 0.7769 0 9
-17.2042 -10.2213 2.5486 0.7161 0 9
-16.9913 -10.3039 2.5308 0.7211 0 9
-17.4996 -10.8300 2.6210 0.7425 0 9
-33.1224 -20.9152 4.9891 0.8394 0 9
-16.4954 -10.6260 2.4990 0.7162 0 9
-18.3054 -12.7521 2.8413 0.5833 0 9
-16.1568 -11.4738 2.5238 0.6128 0 9
-16.0735 -11.6348 2.5271 0.9063 0 9
-16.0491 -11.8399 2.5400 0.6400 0 9
-15.9875 -12.0193 2.5474 0.9107 0 9
-15.8477 -12.1402 2.5425 0.8548 0 9
-15.7258 -12.2742 2.5407 0.5456 0 9
-16.3394 -12.9927 2.6587 0.8835 0 9
-16.1936 -13.1176 2.6542 0.1949 0 9
-16.8997 -13.9447 2.7905 0.3713 0 9
-18.2631 -15.3495 3.0384 0.3685 0 9
-16.1029 -13.7845 2.6996 0.4103 0 9
-17.6037 -15.3472 2.9744 0.4392 0 9
-17.6009 -15.6273 2.9977 0.4230 0 9
-16.6645 -15.0677 2.8613 0.7601 0 9
-15.7577 -14.5091 2.7280 0.7579 0 9
-22.0553 -20.6795 3.8505 0.9146 0 9
-16.5262 -15.7786 2.9100 0.4166 0 9
-15.9354 -15.4925 2.8306 0.6458 0 9
-16.5304 -16.3645 2.9624 0.4000 0 9
-20.2554 -20.4183 3.6630 0.6240 0 9
-21.0131 -21.5689 3.8351 0.3925 0 9
-19.8307 -20.7271 3.6534 0.4725 0 9
-19.3346 -20.5781 3.5961 0.7589 0 9
-19.0878 -20.6874 3.5849 0.7613 0 9
-19.7173 -21.7614 3.7400 0.8033 0 9
-19.4063 -21.8115 3.7182 0.8719 0 9
-19.2012 -21.9782 3.7169 0.8527 0 9
-18.9523 -22.0936 3.7073 0.6690 0 9
-18.7202 -22.2268 3.7010 0.6707 0 9
-18.5860 -22.4770 3.7146 0.7717 0 9
-18.1090 -22.3082 3.6594 0.7552 0 9
-17.7228 -22.2406 3.6219 0.6342 0 9
-7.8546 -10.0419 1.6237 0.7527 0 9
-17.5455 -22.8546 3.6696 0.7597 0 9
-17.2915 -22.9507 3.6597 0.6936 0 9
-16.9990 -22.9923 3.6417 0.6507 0 9
-7.2824 -10.0387 1.5795 0.4120 0 9
-7.1588 -10.0584 1.5723 0.4138 0 9
-7.0374 -10.0798 1.5657 0.4570 0 9
-7.0830 -10.3432 1.5966 0.7678 0 9
-16.3015 -24.2729 3.7238 0.9381 0 9
-15.9499 -24.2200 3.6934 0.9856 0 9
-15.7292 -24.3619 3.6932 0.6461 0 9
-15.4105 -24.3489 3.6700 0.8583 0 9
-15.2812 -24.6351 3.6921 0.4773 0 9
-15.2140 -25.0294 3.7304 0.9603 0 9
13.2252 6.8767 1.5582 0.9936 0 5
9.3584 7.2697 1.2388 0.2769 0 9
9.1965 7.2783 1.2260 0.8758 0 9
9.1174 7.3508 1.2243 0.9823 0 9
9.0945 7.4691 1.2302 0.8205 0 9
8.1635 8.8067 1.2553 0.9672 0 9
7.8558 8.6302 1.2199 0.3973 0 9
7.9616 9.2380 1.2748 0.9705 0 9
7.8819 9.3146 1.2755 0.9965 0 9
17.5771 21.9537 2.9399 0.9245 0 5
0.3215 6.3128 0.6608 0.5007 0 9
0.2608 6.2316 0.6520 0.9179 0 9
0.2037 6.2118 0.6497 0.9212 0 9
0.1470 6.1920 0.6475 0.9135 0 9
0.0912 6.2092 0.6492 0.8888 0 9
0.0352 6.2385 0.6522 0.8847 0 9
-0.0215 6.3299 0.6617 0.4047 0 9
-6.2053 4.4062 0.7955 0.9335 0 5
-6.2595 4.3600 0.7974 0.3329 0 5
-12.0818 5.1126 1.3714 0.3002 0 9
-11.9956 4.9487 1.3565 0.8590 0 9
-12.0139 4.8295 1.3535 0.9614 0 9
-12.0919 4.7342 1.3575 0.6519 0 9
-29.5087 6.8603 3.1670 0.6112 0 9
-31.4474 7.0117 3.3681 0.4979 0 9
-29.4934 6.0180 3.1466 0.4846 0 9
-28.5275 5.5526 3.0381 0.4289 0 9
-21.1671 3.9216 2.2504 0.5489 0 9
-21.0926 3.7107 2.2388 0.9624 0 9
-21.2122 3.5342 2.2480 0.4766 0 9
-28.5724 4.4952 3.0236 0.7307 0 9
-28.6347 4.2399 3.0260 0.6151 0 9
-29.3102 2.9931 3.0799 0.3346 0 9
-30.1229 2.8010 3.1625 0.8892 0 9
-28.8878 2.4227 3.0304 0.3091 0 9
-28.3586 2.1202 2.9727 0.2749 0 9
-28.3995 1.8650 2.9751 0.1635 0 9
-38.5066 2.1791 4.0317 0.9808 0 9
-36.1755 1.7190 3.7859 0.1397 0 9
-34.7405 1.3360 3.6343 0.5800 0 9
-36.3202 1.0677 3.7984 0.4473 0 9
-30.3578 0.6176 3.1741 0.5897 0 9
-30.0059 0.3389 3.1369 0.3054 0 9
-34.1632 0.0768 3.5713 0.7529 0 9
-31.5645 -0.2146 3.2997 0.3383 0 9
-30.0850 -0.4768 3.1453 0.8625 0 9
-30.8546 -0.7682 3.2264 0.9639 0 9
-30.8619 -1.0479 3.2280 0.9827 0 9
-30.7721 -1.3236 3.2197 0.2660 0 9
-30.6646 -1.5971 3.2099 0.8739 0 9
-31.5062 -1.9269 3.2997 0.8145 0 9
-31.0906 -2.1839 3.2581 0.7693 0 9
-37.7139 -2.9923 3.9548 0.7271 0 9
-17.9517 -9.6988 2.1329 0.7620 0 9
-18.7426 -10.3462 2.2379 0.8250 0 9
-18.5704 -10.4715 2.2286 0.3606 0 9
-17.8193 -10.2615 2.1495 0.6236 0 9
-17.3789 -10.2183 2.1075 0.1397 0 9
-17.1728 -10.3074 2.0937 0.7328 0 9
-17.0620 -10.4520 2.0916 0.7335 0 9
-17.1772 -10.7375 2.1176 0.5364 0 9
-17.9206 -11.4289 2.2219 0.5970 0 9
-18.0032 -11.7121 2.2452 0.3555 0 9
-17.9642 -11.9194 2.2537 0.5019 0 9
-18.2292 -12.5761 2.3151 0.1845 0 9
-16.1083 -11.9958 2.0995 0.5403 0 9
-15.9228 -12.0831 2.0895 0.9302 0 9
-15.9140 -12.3049 2.1029 0.4061 0 9
-31.0002 -24.4210 4.1254 0.6572 0 9
-17.8431 -15.4136 2.4648 0.4350 0 9
-17.4969 -15.3931 2.4361 0.4263 0 9
-17.2573 -15.4616 2.4221 0.6082 0 9
-22.8299 -20.8297 3.2306 0.4025 0 9
-25.6509 -23.8323 3.6601 0.7773 0 9
-25.6525 -24.2699 3.6915 0.4144 0 9
-24.7460 -23.8402 3.5920 0.6308 0 9
-22.5707 -22.1417 3.3052 0.7586 0 9
-21.9446 -21.9206 3.2424 0.4265 0 9
-21.7397 -22.1124 3.2416 0.3906 0 9
-20.7389 -21.4797 3.1212 0.6133 0 9
-21.0379 -22.1876 3.1962 0.2246 0 9
-20.0166 -21.4968 3.0705 0.4935 0 9
-20.1753 -22.0642 3.1254 0.7839 0 9
-20.0138 -22.2891 3.1314 0.7057 0 9
-20.6812 -23.4558 3.2689 0.9599 0 9
-20.3762 -24.4149 3.3243 0.7899 0 9
-20.1126 -24.5470 3.3174 0.7812 0 9
-20.0458 -24.9220 3.3434 0.3196 0 9
-18.7831 -23.7897 3.1686 0.7126 0 9
-18.5733 -23.9668 3.1696 0.7123 0 9
-17.8352 -23.4494 3.0797 0.8101 0 9
-17.5943 -23.5723 3.0749 0.7417 0 9
-17.2619 -23.5688 3.0539 0.6913 0 9
-16.9495 -23.5870 3.0363 0.6738 0 9
-16.7344 -23.7380 3.0361 0.1829 0 9
-16.7826 -24.2696 3.0845 0.4833 0 9
-16.6855 -24.6019 3.1075 0.6398 0 9
-16.5675 -24.9102 3.1273 0.7430 0 9
-16.2947 -24.9874 3.1184 0.7516 0 9
-16.1363 -25.2407 3.1316 0.5700 0 9
-16.7967 -26.8049 3.3067 0.3944 0 9
-5.3457 -10.5421 1.2356 0.5177 0 9
-5.2151 -10.5194 1.2274 0.8537 0 9
-5.1298 -10.5870 1.2298 0.9388 0 9
-5.0824 -10.7355 1.2416 0.4903 0 9
-8.3379 -38.0032 4.0672 0.6665 0 5
-1.2009 -9.5180 1.0029 0.7949 0 5
3.7730 -9.6679 1.0849 0.6264 0 9
3.8229 -9.5402 1.0744 0.9956 0 9
3.9064 -9.4987 1.0736 0.9839 0 9
4.0002 -9.4819 1.0758 0.9198 0 9
4.1012 -9.4809 1.0798 0.9340 0 9
4.2315 -9.5443 1.0914 0.4614 0 9
15.4309 -11.0093 1.9815 0.2686 0 9
14.7131 -10.2975 1.8773 0.1731 0 9
14.6887 -10.0837 1.8625 0.1114 0 9
13.2367 -8.9119 1.6681 0.5860 0 9
13.1911 -8.7087 1.6523 0.9835 0 9
13.2775 -8.5943 1.6534 0.8337 0 9
15.1045 -9.5841 1.8700 0.4201 0 9
16.1988 -9.2787 1.9515 0.2493 0 9
9.2512 7.2542 1.2289 0.8708 0 9
9.1463 7.3065 1.2237 0.9845 0 9
9.0996 7.4050 1.2264 0.7984 0 9
8.1950 8.7614 1.2541 0.3145 0 9
8.1364 8.8581 1.2573 0.9206 0 9
7.9967 9.1949 1.2738 0.9712 0 9
7.9241 9.2796 1.2756 0.9456 0 9
0.2905 6.2652 0.6556 0.4980 0 9
0.2321 6.2216 0.6508 0.9196 0 9
0.1751 6.2020 0.6486 0.9228 0 9
0.1189 6.1948 0.6477 0.8908 0 9
0.0631 6.2240 0.6507 0.8867 0 9
0.0068 6.2667 0.6551 0.4088 0 9
-6.2192 4.3736 0.7948 0.8997 0 5
-12.0025 5.0147 1.3598 0.8569 0 9
-11.9883 4.8819 1.3531 0.8581 0 9
-12.0465 4.7790 1.3548 0.9606 0 9
-12.1748 4.7029 1.3644 0.6660 0 9
-29.5592 6.7303 3.1691 0.6108 0 9
-30.2505 6.6004 3.2366 0.1519 0 9
-31.0695 6.4852 3.3179 0.4025 0 9
-28.6005 5.7004 3.0486 0.4274 0 9
-29.8322 5.6657 3.1743 0.2617 0 9
-21.1004 3.8099 2.2414 0.9613 0 9
-17.3436 2.9698 1.8394 0.9897 0 5
-28.6184 4.6344 3.0306 0.7290 0 9
-28.5381 4.3568 3.0178 0.6167 0 9
-28.7330 4.1209 3.0343 0.6134 0 9
-37.6099 4.3560 3.9578 0.9917 0 9
-29.3254 3.1279 3.0829 0.2190 0 9
-30.1716 2.9424 3.1690 0.2613 0 9
-29.5933 2.6159 3.1056 0.3831 0 9
-28.5436 2.2631 2.9932 0.2532 0 9
-28.8339 2.0238 3.0216 0.6884 0 9
-29.1525 1.7813 3.0531 0.4236 0 9
-30.0092 1.2891 3.1399 0.6654 0 9
-38.6550 1.3103 4.0431 0.2503 0 9
-30.4177 0.7556 3.1807 0.8206 0 9
-30.4518 0.4809 3.1837 0.5879 0 9
-33.9811 0.2291 3.5523 0.3090 0 9
-31.3699 -0.0723 3.2793 0.9562 0 9
-31.6813 -0.3596 3.3120 0.1531 0 9
-30.8414 -0.6292 3.2247 0.9646 0 9
-30.8058 -0.9073 3.2217 0.9674 0 9
-30.6893 -1.1819 3.2105 0.8681 0 9
-31.1770 -1.4833 3.2628 0.7108 0 9
-30.6906 -1.7386 3.2134 0.7297 0 9
-31.0163 -2.0387 3.2493 0.7752 0 9
-37.0103 -2.7691 3.8797 0.7769 0 9
-31.7536 -2.6649 3.3310 0.9295 0 9
-37.9523 -3.5312 3.9845 0.5320 0 9
-17.8788 -9.7648 2.1295 0.5954 0 9
-18.4802 -10.5318 2.2235 0.3644 0 9
-17.7305 -10.3182 2.1445 0.6250 0 9
-17.2278 -10.2354 2.0948 0.7324 0 9
-17.1171 -10.3802 2.0926 0.7332 0 9
-17.1957 -10.6418 2.1139 0.5217 0 9
-17.1787 -10.8475 2.1238 0.6028 0 9
-17.9565 -11.5672 2.2328 0.4102 0 9
-18.0376 -11.8517 2.2562 0.5204 0 9
-17.9301 -12.0147 2.2562 0.5113 0 9
-15.9927 -12.0232 2.0916 0.9174 0 9
-15.8959 -12.1771 2.0932 0.9286 0 9
-31.0411 -24.2279 4.1163 0.8580 0 9
-30.7250 -24.4317 4.1035 0.6955 0 9
-16.5635 -14.4404 2.2971 0.5678 0 9
-17.3732 -15.4252 2.4286 0.6065 0 9
-16.8957 -15.2768 2.3811 0.7575 0 9
-22.8589 -21.0476 3.2482 0.4005 0 9
-24.0219 -22.9353 3.4719 0.2114 0 9
-22.1929 -21.9702 3.2645 0.4144 0 9
-21.7926 -21.9679 3.2347 0.3938 0 9
-23.4573 -24.5176 3.5471 0.2357 0 9
-20.0362 -21.3249 3.0588 0.1780 0 9
-19.9906 -21.6658 3.0816 0.4917 0 9
-20.0817 -22.1636 3.1265 0.7068 0 9
-19.9445 -22.4165 3.1365 0.7032 0 9
-20.5961 -23.5748 3.2724 0.9280 0 9
-20.2453 -24.4837 3.3211 0.7804 0 9
-18.9390 -23.7668 3.1768 0.4301 0 9
-18.6776 -23.8788 3.1691 0.7125 0 9
-17.6943 -23.4853 3.0738 0.8116 0 9
-17.3822 -23.5106 3.0564 0.6149 0 9
-17.1039 -23.5775 3.0449 0.6719 0 9
-16.7940 -23.5964 3.0276 0.6757 0 9
-16.9351 -24.2563 3.0925 0.4820 0 9
-16.6325 -24.2881 3.0772 0.4929 0 9
-16.6268 -24.7574 3.1175 0.6378 0 9
-16.4291 -24.9476 3.1226 0.7506 0 9
-16.1759 -25.0538 3.1175 0.5726 0 9
-16.7429 -26.9913 3.3203 0.3928 0 9
13.2245 6.8763 1.2195 0.9957 0 5
9.3456 7.2598 0.9683 0.2229 0 9
9.1859 7.2699 0.9585 0.8757 0 9
9.1070 7.3424 0.9571 0.9872 0 9
9.0852 7.4614 0.9619 0.7984 0 9
17.5761 21.9524 2.3009 0.9265 0 5
0.3200 6.2844 0.5148 0.5040 0 9
0.2604 6.2218 0.5095 0.9213 0 9
0.2034 6.2020 0.5077 0.9137 0 9
0.1468 6.1819 0.5059 0.8944 0 9
0.0912 6.2110 0.5082 0.8904 0 9
0.0352 6.2392 0.5105 0.8966 0 9
-0.0216 6.3457 0.5192 0.4086 0 9
-6.2046 4.4057 0.6226 0.9356 0 5
-6.2575 4.3586 0.6239 0.3337 0 5
-12.0313 5.0913 1.0689 0.3087 0 9
-11.9635 4.9354 1.0589 0.8753 0 9
-11.9861 4.8183 1.0570 0.9665 0 9
-12.0601 4.7218 1.0597 0.6661 0 9
-21.1025 3.9096 1.7559 0.5304 0 9
-21.0388 3.7012 1.7478 0.9478 0 9
-21.1575 3.5251 1.7549 0.4658 0 9
-31.3456 4.3519 2.5892 0.3871 0 9
-30.9018 4.0057 2.5495 0.5783 0 9
-30.9719 3.7302 2.5524 0.5870 0 9
-31.7508 3.5329 2.6138 0.2310 0 9
-31.3634 3.2028 2.5794 0.4531 0 9
-31.4777 2.9270 2.5866 0.3501 0 9
-30.2127 2.5339 2.4806 0.9304 0 9
-30.5616 2.2849 2.5075 0.7519 0 9
-32.0221 2.1030 2.6256 0.5191 0 9
-32.8279 1.8578 2.6902 0.3584 0 9
-32.8694 1.5619 2.6924 0.2938 0 9
-31.0337 0.9123 2.5402 0.2226 0 9
-38.1154 0.7754 3.1192 0.5572 0 9
-30.7955 0.3478 2.5198 0.8725 0 9
-38.8286 -0.2640 3.1770 0.4731 0 9
-38.6654 -0.6127 3.1639 0.5844 0 9
-31.6636 -0.7884 2.5915 0.2111 0 9
-38.0536 -1.2921 3.1153 0.7366 0 9
-37.7988 -1.6259 3.0955 0.3936 0 9
-38.4815 -2.0042 3.1527 0.6552 0 9
-39.6502 -2.4249 3.2502 0.4299 0 9
-39.7195 -2.7901 3.2578 0.7336 0 9
-39.6632 -3.1469 3.2554 0.7991 0 9
-38.6799 -3.7743 3.1797 0.6333 0 9
-33.8869 -20.7588 3.2514 0.3428 0 9
-33.8047 -21.1314 3.2618 0.9707 0 9
-33.2788 -21.6498 3.2483 0.9200 0 9
-32.9564 -21.8669 3.2360 0.6223 0 9
-32.7759 -22.1768 3.2378 0.8388 0 9
-32.6574 -22.5300 3.2461 0.7539 0 9
-16.1046 -11.9930 1.6429 0.5414 0 9
-15.9390 -12.0954 1.6371 0.9446 0 9
-15.9372 -12.3228 1.6483 0.4083 0 9
-23.8825 -25.1878 2.8399 0.4933 0 9
-22.8945 -24.5875 2.7488 0.5986 0 9
-22.0562 -24.1211 2.6742 0.5384 0 9
-23.8200 -26.5281 2.9171 0.5510 0 9
-20.7014 -23.4788 2.5611 0.9681 0 9
-20.5696 -23.7592 2.5712 0.9101 0 9
-21.1046 -24.8276 2.6661 0.4778 0 9
-20.9477 -25.0996 2.6748 0.4762 0 9
-20.7207 -25.2892 2.6750 0.5751 0 9
-20.4084 -25.3729 2.6642 0.4908 0 9
-20.3357 -25.7562 2.6850 0.6944 0 9
-20.1872 -26.0493 2.6964 0.6797 0 9
-19.9215 -26.1925 2.6924 0.3304 0 9
-18.1299 -24.2898 2.4799 0.9880 0 9
-17.9107 -24.4547 2.4801 0.4472 0 9
-5.3340 -10.5190 0.9650 0.5081 0 9
-5.2101 -10.5093 0.9597 0.8755 0 9
-5.1272 -10.5816 0.9620 0.9397 0 9
-5.0789 -10.7282 0.9712 0.4810 0 9
-8.3373 -38.0002 3.1831 0.6680 0 5
-1.2008 -9.5173 0.7849 0.7965 0 5
3.7753 -9.6739 0.8496 0.6273 0 9
3.8249 -9.5451 0.8413 0.9972 0 9
3.9096 -9.5064 0.8410 0.9975 0 9
4.0046 -9.4924 0.8429 0.9207 0 9
4.1060 -9.4919 0.8462 0.9186 0 9
4.2333 -9.5483 0.8546 0.4620 0 9
13.2384 -8.9130 1.3058 0.5458 0 9
13.1974 -8.7129 1.2939 0.9846 0 9
