ply
format ascii 1.0
element vertex 1415
property float32 x
property float32 y
property float32 z
property float32 CosAngle
property uint32 ObjIdx
property uint32 ObjTag
end_header
-7.9213 -4.2968 -2.7996 0.2967 0 7
-7.8821 -4.3683 -2.7996 0.2967 0 7
-7.8423 -4.4395 -2.7996 0.2967 0 7
-7.8018 -4.5103 -2.7996 0.2967 0 7
-7.7606 -4.5807 -2.7996 0.2967 0 7
-7.7188 -4.6508 -2.7996 0.2967 0 7
-7.6764 -4.7205 -2.7996 0.2967 0 6
-7.6334 -4.7898 -2.7996 0.2967 0 7
-7.5897 -4.8587 -2.7996 0.2967 0 7
-7.5454 -4.9272 -2.7996 0.2967 0 7
-7.5005 -4.9952 -2.7996 0.2967 0 7
-7.4550 -5.0629 -2.7996 0.2967 0 7
-7.4089 -5.1302 -2.7996 0.2967 0 7
-7.3621 -5.1971 -2.7996 0.2967 0 7
-7.3148 -5.2635 -2.7996 0.2967 0 7
-7.2669 -5.3295 -2.7996 0.2967 0 7
-7.2183 -5.3950 -2.7996 0.2967 0 7
-7.1692 -5.4601 -2.7996 0.2967 0 7
-7.1195 -5.5248 -2.7996 0.2967 0 7
-7.0692 -5.5890 -2.7996 0.2967 0 7
-7.0183 -5.6528 -2.7996 0.2967 0 7
-6.9669 -5.7161 -2.7996 0.2967 0 7
-6.9148 -5.7789 -2.7996 0.2967 0 7
-6.8623 -5.8412 -2.7996 0.2967 0 7
-6.8091 -5.9031 -2.7996 0.2967 0 7
-6.7554 -5.9645 -2.7996 0.2967 0 7
-6.7011 -6.0254 -2.7996 0.2967 0 7
-6.6463 -6.0858 -2.7996 0.2967 0 7
-6.5910 -6.1457 -2.7996 0.2967 0 7
-6.5351 -6.2051 -2.7996 0.2967 0 7
-6.4786 -6.2640 -2.7996 0.2967 0 7
-6.4217 -6.3224 -2.7996 0.2967 0 7
-6.3642 -6.3802 -2.7996 0.2967 0 7
-6.3062 -6.4376 -2.7996 0.2967 0 7
-6.2477 -6.4944 -2.7996 0.2967 0 7
-6.1886 -6.5507 -2.7996 0.2967 0 7
-6.1291 -6.6064 -2.7996 0.2967 0 7
-6.0690 -6.6616 -2.7996 0.2967 0 7
-6.0085 -6.7163 -2.7996 0.2967 0 7
-5.9474 -6.7704 -2.7996 0.2967 0 7
-5.8859 -6.8240 -2.7996 0.2967 0 7
-5.8239 -6.8769 -2.7996 0.2967 0 7
-5.7614 -6.9294 -2.7996 0.2967 0 7
-5.6985 -6.9812 -2.7996 0.2967 0 7
-5.6351 -7.0325 -2.7996 0.2967 0 7
-5.5712 -7.0833 -2.7996 0.2967 0 7
-5.5068 -7.1334 -2.7996 0.2967 0 7
-5.4420 -7.1829 -2.7996 0.2967 0 7
-5.3768 -7.2319 -2.7996 0.2967 0 7
-5.3111 -7.2803 -2.7996 0.2967 0 7
-5.2450 -7.3280 -2.7996 0.2967 0 7
-5.1785 -7.3752 -2.7996 0.2967 0 7
-5.1115 -7.4218 -2.7996 0.2967 0 7
-5.0441 -7.4678 -2.7996 0.2967 0 7
-4.9763 -7.5131 -2.7996 0.2967 0 7
-4.9081 -7.5578 -2.7996 0.2967 0 7
-4.8395 -7.6019 -2.7996 0.2967 0 7
-4.7705 -7.6454 -2.7996 0.2967 0 7
-4.7011 -7.6883 -2.7996 0.2967 0 7
-4.6313 -7.7305 -2.7996 0.2967 0 7
-4.5612 -7.7721 -2.7996 0.2967 0 7
-4.4906 -7.8131 -2.7996 0.2967 0 7
-4.4197 -7.8534 -2.7996 0.2967 0 7
-4.3485 -7.8931 -2.7996 0.2967 0 7
-4.2769 -7.9321 -2.7996 0.2967 0 7
-4.2049 -7.9705 -2.7996 0.2967 0 6
-4.1326 -8.0083 -2.7996 0.2967 0 6
-4.0599 -8.0453 -2.7996 0.2967 0 6
-3.9869 -8.0818 -2.7996 0.2967 0 7
-3.9136 -8.1175 -2.7996 0.2967 0 7
-3.8400 -8.1526 -2.7996 0.2967 0 7
-3.7660 -8.1870 -2.7996 0.2967 0 7
-3.6918 -8.2208 -2.7996 0.2967 0 7
-3.6172 -8.2539 -2.7996 0.2967 0 7
-3.5424 -8.2863 -2.7996 0.2967 0 7
-3.4672 -8.3180 -2.7996 0.2967 0 7
-3.3918 -8.3490 -2.7996 0.2967 0 7
-3.3161 -8.3794 -2.7996 0.2967 0 7
-3.2401 -8.4091 -2.7996 0.2967 0 7
-3.1639 -8.4380 -2.7996 0.2967 0 7
-3.0874 -8.4663 -2.7996 0.2967 0 7
-3.0106 -8.4939 -2.7996 0.2967 0 7
-2.9336 -8.5208 -2.7996 0.2967 0 7
-2.8564 -8.5470 -2.7996 0.2967 0 7
-2.7789 -8.5725 -2.7996 0.2967 0 7
-2.7012 -8.5973 -2.7996 0.2967 0 7
-2.6232 -8.6214 -2.7996 0.2967 0 7
-2.5451 -8.6448 -2.7996 0.2967 0 7
-2.4668 -8.6675 -2.7996 0.2967 0 7
-2.3882 -8.6895 -2.7996 0.2967 0 7
-2.3095 -8.7107 -2.7996 0.2967 0 7
-2.2305 -8.7313 -2.7996 0.2967 0 7
-2.1514 -8.7511 -2.7996 0.2967 0 7
-2.0721 -8.7702 -2.7996 0.2967 0 7
-1.9926 -8.7886 -2.7996 0.2967 0 7
-1.9130 -8.8063 -2.7996 0.2967 0 7
-1.8332 -8.8232 -2.7996 0.2967 0 7
-1.7533 -8.8395 -2.7996 0.2967 0 7
-1.6732 -8.8550 -2.7996 0.2967 0 7
-1.5930 -8.8698 -2.7996 0.2967 0 7
-1.5127 -8.8838 -2.7996 0.2967 0 7
-1.4322 -8.8972 -2.7996 0.2967 0 7
-1.3516 -8.9098 -2.7996 0.2967 0 7
-1.2709 -8.9216 -2.7996 0.2967 0 7
-1.1901 -8.9328 -2.7996 0.2967 0 7
-1.1092 -8.9432 -2.7996 0.2967 0 7
-1.0282 -8.9528 -2.7996 0.2967 0 7
-0.9471 -8.9618 -2.7996 0.2967 0 7
-0.8660 -8.9700 -2.7996 0.2967 0 7
-0.7847 -8.9775 -2.7996 0.2967 0 7
-0.7035 -8.9842 -2.7996 0.2967 0 7
-0.6221 -8.9902 -2.7996 0.2967 0 7
-0.5407 -8.9955 -2.7996 0.2967 0 7
-0.4593 -9.0000 -2.7996 0.2967 0 7
-0.3778 -9.0038 -2.7996 0.2967 0 7
-0.2963 -9.0068 -2.7996 0.2967 0 7
-0.2148 -9.0091 -2.7996 0.2967 0 7
-0.1332 -9.0107 -2.7996 0.2967 0 7
-0.0516 -9.0115 -2.7996 0.2967 0 7
0.0299 -9.0116 -2.7996 0.2967 0 7
0.1115 -9.0110 -2.7996 0.2967 0 7
0.1930 -9.0096 -2.7996 0.2967 0 7
0.2746 -9.0075 -2.7996 0.2967 0 7
0.3561 -9.0046 -2.7996 0.2967 0 7
0.4376 -9.0011 -2.7996 0.2967 0 7
0.5190 -8.9967 -2.7996 0.2967 0 7
0.6005 -8.9917 -2.7996 0.2967 0 7
0.6818 -8.9859 -2.7996 0.2967 0 7
0.7631 -8.9793 -2.7996 0.2967 0 7
0.8444 -8.9720 -2.7996 0.2967 0 7
0.9255 -8.9640 -2.7996 0.2967 0 7
1.0066 -8.9553 -2.7996 0.2967 0 7
1.0876 -8.9458 -2.7996 0.2967 0 7
1.1686 -8.9356 -2.7996 0.2967 0 7
1.2494 -8.9247 -2.7996 0.2967 0 7
1.3301 -8.9130 -2.7996 0.2967 0 7
1.4107 -8.9006 -2.7996 0.2967 0 7
1.4912 -8.8874 -2.7996 0.2967 0 7
1.5716 -8.8736 -2.7996 0.2967 0 7
1.6519 -8.8590 -2.7996 0.2967 0 7
1.7320 -8.8437 -2.7996 0.2967 0 7
1.8120 -8.8276 -2.7996 0.2967 0 7
1.8918 -8.8109 -2.7996 0.2967 0 7
1.9715 -8.7934 -2.7996 0.2967 0 7
2.0510 -8.7752 -2.7996 0.2967 0 7
2.1303 -8.7563 -2.7996 0.2967 0 7
2.2095 -8.7366 -2.7996 0.2967 0 7
2.2885 -8.7163 -2.7996 0.2967 0 7
2.3673 -8.6952 -2.7996 0.2967 0 7
2.4459 -8.6734 -2.7996 0.2967 0 7
2.5243 -8.6509 -2.7996 0.2967 0 7
2.6025 -8.6277 -2.7996 0.2967 0 7
2.6805 -8.6038 -2.7996 0.2967 0 7
2.7582 -8.5792 -2.7996 0.2967 0 7
2.8358 -8.5539 -2.7996 0.2967 0 7
2.9131 -8.5279 -2.7996 0.2967 0 7
2.9901 -8.5012 -2.7996 0.2967 0 7
3.0670 -8.4737 -2.7996 0.2967 0 7
3.1435 -8.4456 -2.7996 0.2967 0 7
3.2198 -8.4168 -2.7996 0.2967 0 7
3.2959 -8.3873 -2.7996 0.2967 0 7
3.3717 -8.3572 -2.7996 0.2967 0 7
3.4472 -8.3263 -2.7996 0.2967 0 7
3.5224 -8.2948 -2.7996 0.2967 0 7
3.5973 -8.2626 -2.7996 0.2967 0 7
3.6720 -8.2296 -2.7996 0.2967 0 7
3.7463 -8.1961 -2.7996 0.2967 0 7
3.8203 -8.1618 -2.7996 0.2967 0 7
3.8941 -8.1269 -2.7996 0.2967 0 7
3.9675 -8.0913 -2.7996 0.2967 0 7
4.0405 -8.0551 -2.7996 0.2967 0 7
4.1133 -8.0182 -2.7996 0.2967 0 7
4.1857 -7.9806 -2.7996 0.2967 0 7
4.2577 -7.9424 -2.7996 0.2967 0 7
4.3294 -7.9036 -2.7996 0.2967 0 7
4.4008 -7.8641 -2.7996 0.2967 0 7
4.4718 -7.8239 -2.7996 0.2967 0 7
4.5424 -7.7831 -2.7996 0.2967 0 7
4.6127 -7.7417 -2.7996 0.2967 0 7
4.6826 -7.6996 -2.7996 0.2967 0 7
4.7521 -7.6569 -2.7996 0.2967 0 7
4.8212 -7.6136 -2.7996 0.2967 0 7
4.8899 -7.5696 -2.7996 0.2967 0 7
4.9582 -7.5251 -2.7996 0.2967 0 7
5.0261 -7.4799 -2.7996 0.2967 0 7
5.0936 -7.4341 -2.7996 0.2967 0 7
5.1607 -7.3877 -2.7996 0.2967 0 6
5.2274 -7.3407 -2.7996 0.2967 0 6
5.2936 -7.2931 -2.7996 0.2967 0 6
5.3594 -7.2448 -2.7996 0.2967 0 7
5.4247 -7.1960 -2.7996 0.2967 0 7
5.4896 -7.1466 -2.7996 0.2967 0 7
5.5541 -7.0967 -2.7996 0.2967 0 7
5.6181 -7.0461 -2.7996 0.2967 0 7
5.6816 -6.9950 -2.7996 0.2967 0 7
5.7447 -6.9432 -2.7996 0.2967 0 7
5.8073 -6.8910 -2.7996 0.2967 0 7
5.8695 -6.8381 -2.7996 0.2967 0 7
5.9311 -6.7847 -2.7996 0.2967 0 7
5.9923 -6.7307 -2.7996 0.2967 0 7
6.0530 -6.6762 -2.7996 0.2967 0 7
6.1131 -6.6212 -2.7996 0.2967 0 7
6.1728 -6.5656 -2.7996 0.2967 0 7
6.2320 -6.5094 -2.7996 0.2967 0 7
6.2907 -6.4528 -2.7996 0.2967 0 7
6.3488 -6.3956 -2.7996 0.2967 0 7
6.4064 -6.3378 -2.7996 0.2967 0 7
6.4635 -6.2796 -2.7996 0.2967 0 7
6.5201 -6.2208 -2.7996 0.2967 0 7
6.5761 -6.1616 -2.7996 0.2967 0 7
6.6316 -6.1018 -2.7996 0.2967 0 7
6.6866 -6.0415 -2.7996 0.2967 0 7
6.7410 -5.9807 -2.7996 0.2967 0 7
6.7949 -5.9195 -2.7996 0.2967 0 7
6.8482 -5.8577 -2.7996 0.2967 0 7
6.9009 -5.7955 -2.7996 0.2967 0 7
6.9531 -5.7328 -2.7996 0.2967 0 7
7.0047 -5.6697 -2.7996 0.2967 0 7
7.0557 -5.6060 -2.7996 0.2967 0 7
7.1062 -5.5419 -2.7996 0.2967 0 7
7.1560 -5.4774 -2.7996 0.2967 0 7
7.2053 -5.4124 -2.7996 0.2967 0 7
7.2540 -5.3469 -2.7996 0.2967 0 7
7.3021 -5.2811 -2.7996 0.2967 0 7
7.3496 -5.2148 -2.7996 0.2967 0 7
7.3965 -5.1480 -2.7996 0.2967 0 7
7.4428 -5.0809 -2.7996 0.2967 0 7
7.4885 -5.0133 -2.7996 0.2967 0 7
7.5335 -4.9453 -2.7996 0.2967 0 7
7.5780 -4.8769 -2.7996 0.2967 0 7
7.6218 -4.8081 -2.7996 0.2967 0 7
7.6650 -4.7390 -2.7996 0.2967 0 7
7.7076 -4.6694 -2.7996 0.2967 0 7
7.7496 -4.5994 -2.7996 0.2967 0 7
7.7909 -4.5291 -2.7996 0.2967 0 7
7.8316 -4.4584 -2.7996 0.2967 0 7
7.8716 -4.3873 -2.7996 0.2967 0 7
7.9110 -4.3159 -2.7996 0.2967 0 7
7.9497 -4.2441 -2.7996 0.2967 0 7
7.9878 -4.1720 -2.7996 0.2967 0 7
8.0252 -4.0995 -2.7996 0.2967 0 7
8.0620 -4.0267 -2.7996 0.2967 0 7
8.0981 -3.9536 -2.7996 0.2967 0 7
8.1336 -3.8801 -2.7996 0.2967 0 7
8.1684 -3.8063 -2.7996 0.2967 0 7
8.2025 -3.7323 -2.7996 0.2967 0 7
8.2359 -3.6579 -2.7996 0.2967 0 7
8.2687 -3.5832 -2.7996 0.2967 0 7
8.3008 -3.5082 -2.7996 0.2967 0 7
8.3322 -3.4329 -2.7996 0.2967 0 7
8.3629 -3.3573 -2.7996 0.2967 0 7
8.3930 -3.2815 -2.7996 0.2967 0 7
8.4223 -3.2054 -2.7996 0.2967 0 7
8.4510 -3.1290 -2.7996 0.2967 0 7
8.4790 -3.0524 -2.7996 0.2967 0 7
8.5063 -2.9756 -2.7996 0.2967 0 7
8.5328 -2.8984 -2.7996 0.2967 0 7
8.5587 -2.8211 -2.7996 0.2967 0 7
8.5839 -2.7435 -2.7996 0.2967 0 7
8.6084 -2.6657 -2.7996 0.2967 0 7
8.6322 -2.5877 -2.7996 0.2967 0 7
8.6552 -2.5095 -2.7996 0.2967 0 7
8.6776 -2.4310 -2.7996 0.2967 0 7
8.6992 -2.3524 -2.7996 0.2967 0 7
8.7202 -2.2735 -2.7996 0.2967 0 7
8.7404 -2.1945 -2.7996 0.2967 0 7
8.7599 -2.1153 -2.7996 0.2967 0 7
8.7787 -2.0359 -2.7996 0.2967 0 7
8.7968 -1.9564 -2.7996 0.2967 0 7
8.8141 -1.8767 -2.7996 0.2967 0 7
8.8307 -1.7968 -2.7996 0.2967 0 7
8.8466 -1.7168 -2.7996 0.2967 0 7
8.8618 -1.6367 -2.7996 0.2967 0 7
8.8763 -1.5564 -2.7996 0.2967 0 7
8.8900 -1.4760 -2.7996 0.2967 0 7
8.9030 -1.3955 -2.7996 0.2967 0 7
8.9152 -1.3149 -2.7996 0.2967 0 7
8.9268 -1.2341 -2.7996 0.2967 0 7
8.9376 -1.1533 -2.7996 0.2967 0 7
8.9477 -1.0723 -2.7996 0.2967 0 7
8.9570 -0.9913 -2.7996 0.2967 0 7
8.9656 -0.9102 -2.7996 0.2967 0 7
8.9735 -0.8290 -2.7996 0.2967 0 7
8.9806 -0.7477 -2.7996 0.2967 0 7
8.9870 -0.6664 -2.7996 0.2967 0 7
8.9927 -0.5851 -2.7996 0.2967 0 7
8.9976 -0.5036 -2.7996 0.2967 0 7
9.0018 -0.4222 -2.7996 0.2967 0 7
9.0052 -0.3407 -2.7996 0.2967 0 7
9.0080 -0.2591 -2.7996 0.2967 0 7
9.0099 -0.1776 -2.7996 0.2967 0 6
9.0112 -0.0961 -2.7996 0.2967 0 7
9.0117 -0.0145 -2.7996 0.2967 0 7
9.0114 0.0671 -2.7996 0.2967 0 6
9.0105 0.1486 -2.7996 0.2967 0 7
9.0087 0.2302 -2.7996 0.2967 0 7
9.0063 0.3117 -2.7996 0.2967 0 7
9.0031 0.3932 -2.7996 0.2967 0 7
8.9992 0.4747 -2.7996 0.2967 0 7
8.9945 0.5561 -2.7996 0.2967 0 7
8.9891 0.6375 -2.7996 0.2967 0 7
8.9830 0.7189 -2.7996 0.2967 0 7
8.9761 0.8001 -2.7996 0.2967 0 7
8.9685 0.8813 -2.7996 0.2967 0 7
8.9601 0.9625 -2.7996 0.2967 0 7
8.9511 1.0435 -2.7996 0.2967 0 7
8.9412 1.1245 -2.7996 0.2967 0 7
8.9307 1.2054 -2.7996 0.2967 0 7
8.9194 1.2862 -2.7996 0.2967 0 7
8.9074 1.3669 -2.7996 0.2967 0 7
8.8947 1.4474 -2.7996 0.2967 0 7
8.8812 1.5279 -2.7996 0.2967 0 7
8.8670 1.6082 -2.7996 0.2967 0 7
8.8521 1.6884 -2.7996 0.2967 0 7
8.8365 1.7684 -2.7996 0.2967 0 7
8.8201 1.8484 -2.7996 0.2967 0 7
8.8030 1.9281 -2.7996 0.2967 0 7
8.7852 2.0077 -2.7996 0.2967 0 7
8.7667 2.0871 -2.7996 0.2967 0 7
8.7474 2.1664 -2.7996 0.2967 0 7
8.7274 2.2455 -2.7996 0.2967 0 7
8.7068 2.3244 -2.7996 0.2967 0 7
8.6854 2.4031 -2.7996 0.2967 0 7
8.6632 2.4816 -2.7996 0.2967 0 7
8.6404 2.5599 -2.7996 0.2967 0 7
8.6169 2.6380 -2.7996 0.2967 0 7
8.5927 2.7159 -2.7996 0.2967 0 7
8.5677 2.7936 -2.7996 0.2967 0 7
8.5421 2.8710 -2.7996 0.2967 0 7
8.5158 2.9482 -2.7996 0.2967 0 7
8.4887 3.0252 -2.7996 0.2967 0 7
8.4610 3.1019 -2.7996 0.2967 0 7
8.4326 3.1783 -2.7996 0.2967 0 7
8.4035 3.2545 -2.7996 0.2967 0 7
8.3737 3.3305 -2.7996 0.2967 0 7
8.3432 3.4061 -2.7996 0.2967 0 7
8.3120 3.4815 -2.7996 0.2967 0 7
8.2802 3.5566 -2.7996 0.2967 0 7
8.2476 3.6314 -2.7996 0.2967 0 7
8.2144 3.7059 -2.7996 0.2967 0 7
8.1805 3.7801 -2.7996 0.2967 0 7
8.1460 3.8540 -2.7996 0.2967 0 7
8.1108 3.9275 -2.7996 0.2967 0 7
8.0749 4.0008 -2.7996 0.2967 0 7
8.0384 4.0737 -2.7996 0.2967 0 7
8.0012 4.1463 -2.7996 0.2967 0 7
7.9633 4.2185 -2.7996 0.2967 0 7
7.9248 4.2905 -2.7996 0.2967 0 7
7.8856 4.3620 -2.7996 0.2967 0 7
7.8458 4.4332 -2.7996 0.2967 0 7
7.8054 4.5040 -2.7996 0.2967 0 7
7.7643 4.5745 -2.7996 0.2967 0 7
7.7226 4.6446 -2.7996 0.2967 0 7
7.6802 4.7143 -2.7996 0.2967 0 7
7.6372 4.7836 -2.7996 0.2967 0 7
7.5936 4.8525 -2.7996 0.2967 0 7
7.5494 4.9211 -2.7996 0.2967 0 7
7.5045 4.9892 -2.7996 0.2967 0 7
7.4591 5.0569 -2.7996 0.2967 0 7
7.4130 5.1242 -2.7996 0.2967 0 7
7.3663 5.1911 -2.7996 0.2967 0 7
7.3190 5.2576 -2.7996 0.2967 0 7
7.2711 5.3236 -2.7996 0.2967 0 7
7.2227 5.3892 -2.7996 0.2967 0 7
7.1736 5.4544 -2.7996 0.2967 0 7
7.1239 5.5190 -2.7996 0.2967 0 7
7.0737 5.5833 -2.7996 0.2967 0 7
7.0229 5.6471 -2.7996 0.2967 0 7
6.9715 5.7104 -2.7996 0.2967 0 7
6.9195 5.7733 -2.7996 0.2967 0 7
6.8669 5.8357 -2.7996 0.2967 0 7
6.8138 5.8976 -2.7996 0.2967 0 7
6.7602 5.9590 -2.7996 0.2967 0 7
6.7060 6.0200 -2.7996 0.2967 0 7
6.6512 6.0804 -2.7996 0.2967 0 7
6.5959 6.1404 -2.7996 0.2967 0 7
6.5401 6.1998 -2.7996 0.2967 0 7
6.4837 6.2588 -2.7996 0.2967 0 7
6.4267 6.3172 -2.7996 0.2967 0 7
6.3693 6.3751 -2.7996 0.2967 0 7
6.3113 6.4325 -2.7996 0.2967 0 7
6.2529 6.4894 -2.7996 0.2967 0 7
6.1939 6.5457 -2.7996 0.2967 0 7
6.1344 6.6015 -2.7996 0.2967 0 7
6.0744 6.6567 -2.7996 0.2967 0 7
6.0139 6.7115 -2.7996 0.2967 0 6
5.9529 6.7656 -2.7996 0.2967 0 6
5.8914 6.8192 -2.7996 0.2967 0 7
5.8294 6.8723 -2.7996 0.2967 0 7
5.7670 6.9247 -2.7996 0.2967 0 7
5.7041 6.9766 -2.7996 0.2967 0 7
5.6407 7.0280 -2.7996 0.2967 0 7
5.5769 7.0788 -2.7996 0.2967 0 7
5.5126 7.1289 -2.7996 0.2967 0 7
5.4478 7.1785 -2.7996 0.2967 0 7
5.3826 7.2276 -2.7996 0.2967 0 7
5.3170 7.2760 -2.7996 0.2967 0 7
5.2509 7.3238 -2.7996 0.2967 0 7
5.1844 7.3710 -2.7996 0.2967 0 7
5.1175 7.4177 -2.7996 0.2967 0 7
5.0501 7.4637 -2.7996 0.2967 0 7
4.9824 7.5091 -2.7996 0.2967 0 7
4.9142 7.5539 -2.7996 0.2967 0 7
4.8456 7.5980 -2.7996 0.2967 0 7
4.7766 7.6416 -2.7996 0.2967 0 7
4.7073 7.6845 -2.7996 0.2967 0 7
4.6375 7.7268 -2.7996 0.2967 0 7
4.5674 7.7685 -2.7996 0.2967 0 7
4.4969 7.8095 -2.7996 0.2967 0 7
4.4260 7.8499 -2.7996 0.2967 0 7
4.3548 7.8896 -2.7996 0.2967 0 7
4.2832 7.9287 -2.7996 0.2967 0 7
4.2113 7.9671 -2.7996 0.2967 0 7
4.1390 8.0049 -2.7996 0.2967 0 7
4.0664 8.0421 -2.7996 0.2967 0 7
3.9934 8.0785 -2.7996 0.2967 0 7
3.9201 8.1144 -2.7996 0.2967 0 7
3.8465 8.1495 -2.7996 0.2967 0 7
3.7726 8.1840 -2.7996 0.2967 0 7
3.6984 8.2178 -2.7996 0.2967 0 7
3.6238 8.2509 -2.7996 0.2967 0 7
3.5490 8.2834 -2.7996 0.2967 0 7
3.4739 8.3152 -2.7996 0.2967 0 7
3.3985 8.3463 -2.7996 0.2967 0 7
3.3228 8.3767 -2.7996 0.2967 0 7
3.2469 8.4064 -2.7996 0.2967 0 7
3.1706 8.4355 -2.7996 0.2967 0 7
3.0942 8.4638 -2.7996 0.2967 0 7
3.0174 8.4915 -2.7996 0.2967 0 7
2.9404 8.5184 -2.7996 0.2967 0 7
2.8629 8.5437 -2.7993 0.3115 0 8
2.7849 8.5677 -2.7988 0.3116 0 8
2.7068 8.5911 -2.7983 0.3116 0 8
2.6285 8.6137 -2.7978 0.3117 0 8
2.5500 8.6357 -2.7973 0.3118 0 8
2.4713 8.6570 -2.7968 0.3118 0 8
2.3924 8.6776 -2.7964 0.3119 0 8
2.3134 8.6975 -2.7959 0.3119 0 8
2.2343 8.7168 -2.7955 0.3120 0 8
2.1550 8.7353 -2.7951 0.3120 0 8
2.0755 8.7532 -2.7947 0.3120 0 8
1.9959 8.7704 -2.7943 0.3121 0 8
1.9162 8.7869 -2.7939 0.3121 0 8
1.8363 8.8027 -2.7935 0.3122 0 8
1.7564 8.8178 -2.7932 0.3122 0 8
1.6763 8.8323 -2.7928 0.3123 0 8
1.5961 8.8460 -2.7925 0.3123 0 8
1.5158 8.8591 -2.7922 0.3123 0 8
1.4343 8.8651 -2.7899 0.9666 0 8
1.3513 8.8597 -2.7842 0.9686 0 8
1.2686 8.8543 -2.7788 0.9705 0 8
8.3437 -0.0000 -2.7996 0.3181 0 6
8.3433 0.0755 -2.7996 0.3181 0 6
8.3423 0.1510 -2.7996 0.3181 0 7
8.3406 0.2265 -2.7996 0.3181 0 7
8.3382 0.3020 -2.7996 0.3181 0 7
8.3351 0.3775 -2.7996 0.3181 0 7
8.3314 0.4529 -2.7996 0.3181 0 7
8.3269 0.5283 -2.7996 0.3181 0 7
8.3218 0.6036 -2.7996 0.3181 0 7
8.3160 0.6789 -2.7996 0.3181 0 7
8.3095 0.7542 -2.7996 0.3181 0 7
8.3024 0.8294 -2.7996 0.3181 0 7
8.2945 0.9045 -2.7996 0.3181 0 7
8.2860 0.9795 -2.7996 0.3181 0 7
8.2768 1.0545 -2.7996 0.3181 0 7
8.2669 1.1293 -2.7996 0.3181 0 7
8.2563 1.2041 -2.7996 0.3181 0 7
8.2451 1.2788 -2.7996 0.3181 0 7
8.2332 1.3534 -2.7996 0.3181 0 7
8.2206 1.4278 -2.7996 0.3181 0 7
8.2073 1.5022 -2.7996 0.3181 0 7
8.1934 1.5764 -2.7996 0.3181 0 7
8.1788 1.6505 -2.7996 0.3181 0 7
8.1635 1.7245 -2.7996 0.3181 0 7
8.1476 1.7983 -2.7996 0.3181 0 7
8.1310 1.8719 -2.7996 0.3181 0 7
8.1137 1.9455 -2.7996 0.3181 0 7
8.0958 2.0188 -2.7996 0.3181 0 7
8.0772 2.0920 -2.7996 0.3181 0 7
8.0579 2.1650 -2.7996 0.3181 0 7
8.0380 2.2379 -2.7996 0.3181 0 7
8.0174 2.3105 -2.7996 0.3181 0 7
7.9961 2.3830 -2.7996 0.3181 0 7
7.9742 2.4553 -2.7996 0.3181 0 7
7.9517 2.5274 -2.7996 0.3181 0 7
7.9285 2.5992 -2.7996 0.3181 0 7
7.9046 2.6709 -2.7996 0.3181 0 7
7.8801 2.7423 -2.7996 0.3181 0 7
7.8550 2.8135 -2.7996 0.3181 0 7
7.8292 2.8845 -2.7996 0.3181 0 7
7.8028 2.9553 -2.7996 0.3181 0 7
7.7757 3.0258 -2.7996 0.3181 0 7
7.7480 3.0960 -2.7996 0.3181 0 7
7.7197 3.1660 -2.7996 0.3181 0 7
7.6907 3.2358 -2.7996 0.3181 0 7
7.6611 3.3052 -2.7996 0.3181 0 7
7.6309 3.3744 -2.7996 0.3181 0 7
7.6000 3.4434 -2.7996 0.3181 0 7
7.5685 3.5120 -2.7996 0.3181 0 7
7.5364 3.5804 -2.7996 0.3181 0 7
7.5037 3.6484 -2.7996 0.3181 0 7
7.4704 3.7162 -2.7996 0.3181 0 7
7.4364 3.7837 -2.7996 0.3181 0 7
7.4019 3.8508 -2.7996 0.3181 0 7
7.3667 3.9177 -2.7996 0.3181 0 7
7.3310 3.9842 -2.7996 0.3181 0 7
7.2946 4.0504 -2.7996 0.3181 0 7
7.2576 4.1162 -2.7996 0.3181 0 7
7.2201 4.1817 -2.7996 0.3181 0 7
7.1819 4.2469 -2.7996 0.3181 0 7
7.1432 4.3118 -2.7996 0.3181 0 7
7.1039 4.3762 -2.7996 0.3181 0 7
7.0640 4.4404 -2.7996 0.3181 0 7
7.0235 4.5041 -2.7996 0.3181 0 7
6.9825 4.5675 -2.7996 0.3181 0 7
6.9408 4.6305 -2.7996 0.3181 0 7
6.8986 4.6931 -2.7996 0.3181 0 7
6.8559 4.7554 -2.7996 0.3181 0 7
6.8126 4.8172 -2.7996 0.3181 0 7
6.7687 4.8787 -2.7996 0.3181 0 7
6.7242 4.9398 -2.7996 0.3181 0 7
6.6792 5.0004 -2.7996 0.3181 0 7
6.6337 5.0607 -2.7996 0.3181 0 7
6.5876 5.1205 -2.7996 0.3181 0 7
6.5410 5.1800 -2.7996 0.3181 0 7
6.4939 5.2389 -2.7996 0.3181 0 7
6.4462 5.2975 -2.7996 0.3181 0 7
6.3980 5.3556 -2.7996 0.3181 0 7
6.3492 5.4133 -2.7996 0.3181 0 7
6.3000 5.4706 -2.7996 0.3181 0 7
6.2502 5.5274 -2.7996 0.3181 0 7
6.1999 5.5837 -2.7996 0.3181 0 7
6.1491 5.6396 -2.7996 0.3181 0 7
6.0978 5.6950 -2.7996 0.3181 0 7
6.0460 5.7500 -2.7996 0.3181 0 7
5.9937 5.8045 -2.7996 0.3181 0 7
5.9410 5.8585 -2.7996 0.3181 0 7
5.8877 5.9120 -2.7996 0.3181 0 7
5.8339 5.9651 -2.7996 0.3181 0 7
5.7797 6.0176 -2.7996 0.3181 0 7
5.7250 6.0697 -2.7996 0.3181 0 7
5.6698 6.1213 -2.7996 0.3181 0 7
5.6142 6.1723 -2.7996 0.3181 0 7
5.5581 6.2229 -2.7996 0.3181 0 7
5.5015 6.2729 -2.7996 0.3181 0 7
5.4445 6.3225 -2.7996 0.3181 0 7
5.3871 6.3715 -2.7996 0.3181 0 7
5.3292 6.4200 -2.7996 0.3181 0 7
5.2709 6.4680 -2.7996 0.3181 0 7
5.2121 6.5154 -2.7996 0.3181 0 7
5.1529 6.5623 -2.7996 0.3181 0 7
5.0933 6.6087 -2.7996 0.3181 0 7
5.0333 6.6545 -2.7996 0.3181 0 6
4.9729 6.6998 -2.7996 0.3181 0 6
4.9120 6.7445 -2.7996 0.3181 0 7
4.8508 6.7887 -2.7996 0.3181 0 7
4.7891 6.8324 -2.7996 0.3181 0 7
4.7271 6.8754 -2.7996 0.3181 0 7
4.6647 6.9179 -2.7996 0.3181 0 7
4.6019 6.9599 -2.7996 0.3181 0 7
4.5387 7.0012 -2.7996 0.3181 0 7
4.4751 7.0420 -2.7996 0.3181 0 7
4.4112 7.0822 -2.7996 0.3181 0 7
4.3469 7.1219 -2.7996 0.3181 0 7
4.2823 7.1609 -2.7996 0.3181 0 7
4.2173 7.1994 -2.7996 0.3181 0 7
4.1520 7.2373 -2.7996 0.3181 0 7
4.0863 7.2746 -2.7996 0.3181 0 7
4.0203 7.3112 -2.7996 0.3181 0 7
3.9539 7.3473 -2.7996 0.3181 0 7
3.8873 7.3828 -2.7996 0.3181 0 7
3.8203 7.4177 -2.7996 0.3181 0 7
3.7530 7.4520 -2.7996 0.3181 0 7
3.6854 7.4856 -2.7996 0.3181 0 7
3.6175 7.5187 -2.7996 0.3181 0 7
3.5493 7.5511 -2.7996 0.3181 0 7
3.4808 7.5829 -2.7996 0.3181 0 7
3.4120 7.6141 -2.7996 0.3181 0 7
3.3430 7.6447 -2.7996 0.3181 0 7
3.2736 7.6746 -2.7996 0.3181 0 7
3.2040 7.7039 -2.7996 0.3181 0 7
3.1342 7.7326 -2.7996 0.3181 0 7
3.0640 7.7607 -2.7996 0.3181 0 7
2.9937 7.7881 -2.7996 0.3181 0 7
2.9231 7.8149 -2.7996 0.3181 0 7
2.8522 7.8410 -2.7996 0.3181 0 7
2.7811 7.8665 -2.7996 0.3181 0 7
2.7098 7.8914 -2.7996 0.3181 0 7
2.6383 7.9156 -2.7996 0.3181 0 7
2.5665 7.9391 -2.7996 0.3181 0 7
2.4946 7.9620 -2.7996 0.3181 0 7
2.4224 7.9843 -2.7996 0.3181 0 7
2.3500 8.0059 -2.7996 0.3181 0 7
2.2775 8.0268 -2.7996 0.3181 0 7
2.2047 8.0471 -2.7996 0.3181 0 7
2.1318 8.0667 -2.7996 0.3181 0 7
2.0587 8.0857 -2.7996 0.3181 0 7
1.9854 8.1040 -2.7996 0.3181 0 7
1.9120 8.1216 -2.7996 0.3181 0 7
1.8384 8.1386 -2.7996 0.3181 0 7
1.7647 8.1549 -2.7996 0.3181 0 7
1.6908 8.1705 -2.7996 0.3181 0 7
1.6168 8.1855 -2.7996 0.3181 0 7
1.5426 8.1998 -2.7996 0.3181 0 7
1.4683 8.2135 -2.7996 0.3181 0 7
1.3939 8.2264 -2.7996 0.3181 0 7
1.3194 8.2387 -2.7996 0.3181 0 7
1.2448 8.2503 -2.7996 0.3181 0 7
1.1701 8.2612 -2.7996 0.3181 0 7
1.0952 8.2715 -2.7996 0.3181 0 7
1.0203 8.2810 -2.7996 0.3181 0 7
0.9453 8.2899 -2.7996 0.3181 0 7
0.8703 8.2982 -2.7996 0.3181 0 7
0.7951 8.3057 -2.7996 0.3181 0 7
0.7199 8.3126 -2.7996 0.3181 0 7
0.6446 8.3187 -2.7996 0.3181 0 7
0.5693 8.3242 -2.7996 0.3181 0 7
0.4939 8.3290 -2.7996 0.3181 0 7
0.4185 8.3332 -2.7996 0.3181 0 7
0.3431 8.3364 -2.7995 0.3340 0 8
0.2676 8.3388 -2.7994 0.3340 0 8
0.1921 8.3405 -2.7993 0.3341 0 8
0.1166 8.3416 -2.7992 0.3341 0 8
0.0411 8.3420 -2.7991 0.3341 0 8
-0.0344 8.3418 -2.7990 0.3341 0 8
-0.1099 8.3409 -2.7989 0.3341 0 8
-0.1854 8.3394 -2.7988 0.3341 0 8
-0.2608 8.3372 -2.7988 0.3341 0 8
-0.3363 8.3344 -2.7988 0.3341 0 8
-0.4117 8.3309 -2.7987 0.3341 0 8
-0.4871 8.3268 -2.7987 0.3341 0 8
-0.5624 8.3220 -2.7987 0.3341 0 8
-0.6377 8.3166 -2.7987 0.3341 0 8
-0.7130 8.3105 -2.7987 0.3341 0 8
-0.7882 8.3038 -2.7987 0.3341 0 8
-0.8633 8.2964 -2.7988 0.3341 0 8
-0.9384 8.2884 -2.7988 0.3341 0 8
-1.0134 8.2798 -2.7989 0.3341 0 8
-1.0883 8.2705 -2.7990 0.3341 0 8
-1.1632 8.2605 -2.7990 0.3341 0 8
-1.2379 8.2499 -2.7991 0.3341 0 8
-1.3126 8.2387 -2.7992 0.3341 0 8
-1.3872 8.2268 -2.7993 0.3341 0 8
-1.4617 8.2143 -2.7995 0.3340 0 8
-1.5360 8.2011 -2.7996 0.3181 0 7
-1.6102 8.1868 -2.7996 0.3181 0 7
-1.6842 8.1719 -2.7996 0.3181 0 7
-1.7581 8.1563 -2.7996 0.3181 0 7
-1.8319 8.1401 -2.7996 0.3181 0 7
-1.9055 8.1232 -2.7996 0.3181 0 7
-1.9789 8.1056 -2.7996 0.3181 0 7
-2.0522 8.0873 -2.7996 0.3181 0 7
-2.1253 8.0684 -2.7996 0.3181 0 7
-2.1983 8.0489 -2.7996 0.3181 0 7
-2.2710 8.0287 -2.7996 0.3181 0 7
-2.3436 8.0078 -2.7996 0.3181 0 7
-2.4160 7.9862 -2.7996 0.3181 0 7
-2.4882 7.9640 -2.7996 0.3181 0 7
-2.5601 7.9412 -2.7996 0.3181 0 7
-2.6319 7.9177 -2.7996 0.3181 0 7
-2.7035 7.8935 -2.7996 0.3181 0 7
-2.7748 7.8687 -2.7996 0.3181 0 7
-2.8459 7.8433 -2.7996 0.3181 0 7
-2.9168 7.8172 -2.7996 0.3181 0 7
-2.9874 7.7905 -2.7996 0.3181 0 7
-3.0578 7.7632 -2.7996 0.3181 0 7
-3.1280 7.7352 -2.7996 0.3181 0 7
-3.1978 7.7065 -2.7996 0.3181 0 7
-3.2675 7.6773 -2.7996 0.3181 0 7
-3.3368 7.6474 -2.7996 0.3181 0 7
-3.4059 7.6169 -2.7996 0.3181 0 7
-3.4747 7.5857 -2.7996 0.3181 0 7
-3.5432 7.5540 -2.7996 0.3181 0 7
-3.6114 7.5216 -2.7996 0.3181 0 7
-3.6794 7.4886 -2.7996 0.3181 0 7
-3.7470 7.4550 -2.7996 0.3181 0 7
-3.8143 7.4208 -2.7996 0.3181 0 7
-3.8813 7.3859 -2.7996 0.3181 0 7
-3.9480 7.3505 -2.7996 0.3181 0 7
-4.0144 7.3145 -2.7996 0.3181 0 7
-4.0804 7.2778 -2.7996 0.3181 0 7
-4.1461 7.2406 -2.7996 0.3181 0 7
-4.2115 7.2028 -2.7996 0.3181 0 7
-4.2765 7.1644 -2.7996 0.3181 0 7
-4.3412 7.1254 -2.7996 0.3181 0 7
-4.4055 7.0858 -2.7996 0.3181 0 7
-4.4695 7.0456 -2.7996 0.3181 0 7
-4.5331 7.0049 -2.7996 0.3181 0 7
-4.5963 6.9635 -2.7996 0.3181 0 7
-4.6591 6.9217 -2.7996 0.3181 0 7
-4.7216 6.8792 -2.7996 0.3181 0 7
-4.7836 6.8362 -2.7996 0.3181 0 7
-4.8453 6.7926 -2.7996 0.3181 0 7
-4.9066 6.7485 -2.7996 0.3181 0 7
-4.9675 6.7038 -2.7996 0.3181 0 7
-5.0280 6.6586 -2.7996 0.3181 0 7
-5.0880 6.6128 -2.7996 0.3181 0 7
-5.1477 6.5665 -2.7996 0.3181 0 7
-5.2069 6.5196 -2.7996 0.3181 0 7
-5.2657 6.4722 -2.7996 0.3181 0 7
-5.3240 6.4243 -2.7996 0.3181 0 7
-5.3820 6.3758 -2.7996 0.3181 0 7
-5.4395 6.3268 -2.7996 0.3181 0 7
-5.4965 6.2774 -2.7996 0.3181 0 7
-5.5531 6.2274 -2.7996 0.3181 0 7
-5.6092 6.1768 -2.7996 0.3181 0 7
-5.6649 6.1258 -2.7996 0.3181 0 7
-5.7201 6.0743 -2.7996 0.3181 0 7
-5.7749 6.0223 -2.7996 0.3181 0 7
-5.8291 5.9697 -2.7996 0.3181 0 6
-5.8829 5.9167 -2.7996 0.3181 0 6
-5.9363 5.8633 -2.7996 0.3181 0 6
-5.9891 5.8093 -2.7996 0.3181 0 7
-6.0414 5.7548 -2.7996 0.3181 0 7
-6.0933 5.6999 -2.7996 0.3181 0 7
-6.1446 5.6445 -2.7996 0.3181 0 7
-6.1954 5.5887 -2.7996 0.3181 0 7
-6.2458 5.5324 -2.7996 0.3181 0 7
-6.2956 5.4756 -2.7996 0.3181 0 7
-6.3449 5.4184 -2.7996 0.3181 0 7
-6.3937 5.3608 -2.7996 0.3181 0 7
-6.4419 5.3027 -2.7996 0.3181 0 7
-6.4897 5.2442 -2.7996 0.3181 0 7
-6.5369 5.1852 -2.7996 0.3181 0 7
-6.5835 5.1258 -2.7996 0.3181 0 7
-6.6296 5.0660 -2.7996 0.3181 0 7
-6.6752 5.0058 -2.7996 0.3181 0 7
-6.7203 4.9452 -2.7996 0.3181 0 7
-6.7648 4.8842 -2.7996 0.3181 0 7
-6.8087 4.8227 -2.7996 0.3181 0 7
-6.8521 4.7609 -2.7996 0.3181 0 7
-6.8949 4.6987 -2.7996 0.3181 0 7
-6.9371 4.6361 -2.7996 0.3181 0 7
-6.9788 4.5731 -2.7996 0.3181 0 7
-7.0199 4.5098 -2.7996 0.3181 0 7
-7.0604 4.4460 -2.7996 0.3181 0 7
-7.1004 4.3819 -2.7996 0.3181 0 7
-7.1397 4.3175 -2.7996 0.3181 0 7
-7.1785 4.2527 -2.7996 0.3181 0 7
-7.2167 4.1876 -2.7996 0.3181 0 7
-7.2543 4.1221 -2.7996 0.3181 0 7
-7.2913 4.0562 -2.7996 0.3181 0 7
-7.3278 3.9901 -2.7996 0.3181 0 7
-7.3636 3.9236 -2.7996 0.3181 0 7
-7.3988 3.8568 -2.7996 0.3181 0 7
-7.4334 3.7897 -2.7996 0.3181 0 7
-7.4674 3.7222 -2.7996 0.3181 0 7
-7.5008 3.6545 -2.7996 0.3181 0 7
-7.5335 3.5864 -2.7996 0.3181 0 7
-7.5657 3.5181 -2.7996 0.3181 0 7
-7.5972 3.4495 -2.7996 0.3181 0 7
-7.6281 3.3806 -2.7996 0.3181 0 7
-7.6584 3.3114 -2.7996 0.3181 0 7
-7.6881 3.2419 -2.7996 0.3181 0 7
-7.7171 3.1722 -2.7996 0.3181 0 7
-7.7455 3.1022 -2.7996 0.3181 0 7
-7.7733 3.0320 -2.7996 0.3181 0 7
-7.8004 2.9615 -2.7996 0.3181 0 7
-7.8269 2.8908 -2.7996 0.3181 0 7
-7.8527 2.8198 -2.7996 0.3181 0 7
-7.8779 2.7487 -2.7996 0.3181 0 7
-7.9025 2.6772 -2.7996 0.3181 0 7
-7.9264 2.6056 -2.7996 0.3181 0 7
-7.9497 2.5337 -2.7996 0.3181 0 7
-7.9723 2.4617 -2.7996 0.3181 0 7
-7.9942 2.3894 -2.7996 0.3181 0 7
-8.0155 2.3170 -2.7996 0.3181 0 7
-8.0362 2.2443 -2.7996 0.3181 0 7
-8.0561 2.1715 -2.7996 0.3181 0 7
-8.0755 2.0985 -2.7996 0.3181 0 7
-8.0941 2.0253 -2.7996 0.3181 0 7
-8.1121 1.9520 -2.7996 0.3181 0 7
-8.1295 1.8785 -2.7996 0.3181 0 7
-8.1461 1.8048 -2.7996 0.3181 0 7
-8.1621 1.7310 -2.7996 0.3181 0 7
-8.1775 1.6571 -2.7996 0.3181 0 7
-8.1921 1.5830 -2.7996 0.3181 0 7
-8.2061 1.5087 -2.7996 0.3181 0 7
-8.2194 1.4344 -2.7996 0.3181 0 7
-8.2321 1.3600 -2.7996 0.3181 0 7
-8.2441 1.2854 -2.7996 0.3181 0 7
-8.2554 1.2107 -2.7996 0.3181 0 7
-8.2660 1.1360 -2.7996 0.3181 0 7
-8.2759 1.0611 -2.7996 0.3181 0 7
-8.2852 0.9861 -2.7996 0.3181 0 7
-8.2938 0.9111 -2.7996 0.3181 0 7
-8.3017 0.8360 -2.7996 0.3181 0 7
-8.3089 0.7608 -2.7996 0.3181 0 7
-8.3155 0.6856 -2.7996 0.3181 0 7
-8.3213 0.6103 -2.7996 0.3181 0 7
-8.3265 0.5350 -2.7996 0.3181 0 7
-8.3310 0.4596 -2.7996 0.3181 0 7
-8.3348 0.3842 -2.7996 0.3181 0 7
-8.3380 0.3087 -2.7996 0.3181 0 7
-8.3404 0.2332 -2.7996 0.3181 0 7
-8.3422 0.1577 -2.7996 0.3181 0 7
-8.3433 0.0822 -2.7996 0.3181 0 7
-8.3437 0.0067 -2.7996 0.3181 0 7
-8.3434 -0.0688 -2.7996 0.3181 0 7
-8.3424 -0.1443 -2.7996 0.3181 0 7
-8.3408 -0.2199 -2.7996 0.3181 0 7
-8.3384 -0.2953 -2.7996 0.3181 0 7
-8.3354 -0.3708 -2.7996 0.3181 0 7
-8.3317 -0.4462 -2.7996 0.3181 0 7
-8.3274 -0.5216 -2.7996 0.3181 0 7
-8.3223 -0.5970 -2.7996 0.3181 0 7
-8.3165 -0.6723 -2.7996 0.3181 0 7
-8.3101 -0.7475 -2.7996 0.3181 0 7
-8.3030 -0.8227 -2.7996 0.3181 0 7
-8.2952 -0.8978 -2.7996 0.3181 0 7
-8.2868 -0.9729 -2.7996 0.3181 0 7
-8.2776 -1.0478 -2.7996 0.3181 0 7
-8.2678 -1.1227 -2.7996 0.3181 0 6
-8.2573 -1.1975 -2.7996 0.3181 0 7
-8.2461 -1.2722 -2.7996 0.3181 0 7
-8.2343 -1.3468 -2.7996 0.3181 0 6
-8.2217 -1.4212 -2.7996 0.3181 0 6
-8.2085 -1.4956 -2.7996 0.3181 0 7
-8.1947 -1.5698 -2.7996 0.3181 0 7
-8.1801 -1.6439 -2.7996 0.3181 0 7
-8.1649 -1.7179 -2.7996 0.3181 0 7
-8.1490 -1.7917 -2.7996 0.3181 0 7
-8.1325 -1.8654 -2.7996 0.3181 0 7
-8.1153 -1.9390 -2.7996 0.3181 0 7
-8.0974 -2.0123 -2.7996 0.3181 0 7
-8.0788 -2.0855 -2.7996 0.3181 0 7
-8.0596 -2.1586 -2.7996 0.3181 0 7
-8.0398 -2.2315 -2.7996 0.3181 0 7
-8.0192 -2.3041 -2.7996 0.3181 0 7
-7.9980 -2.3766 -2.7996 0.3181 0 7
-7.9762 -2.4489 -2.7996 0.3181 0 7
-7.9537 -2.5210 -2.7996 0.3181 0 7
-7.9306 -2.5929 -2.7996 0.3181 0 7
-7.9068 -2.6646 -2.7996 0.3181 0 7
-7.8823 -2.7360 -2.7996 0.3181 0 7
-7.8572 -2.8072 -2.7996 0.3181 0 7
-7.8315 -2.8782 -2.7996 0.3181 0 7
-7.8051 -2.9490 -2.7996 0.3181 0 7
-7.7781 -3.0195 -2.7996 0.3181 0 7
-7.7505 -3.0898 -2.7996 0.3181 0 7
-7.7222 -3.1598 -2.7996 0.3181 0 7
-7.6933 -3.2296 -2.7996 0.3181 0 7
-7.6637 -3.2991 -2.7996 0.3181 0 7
-7.6336 -3.3683 -2.7996 0.3181 0 7
-7.6028 -3.4373 -2.7996 0.3181 0 7
-7.5713 -3.5060 -2.7996 0.3181 0 7
-7.5393 -3.5743 -2.7996 0.3181 0 7
-7.5066 -3.6424 -2.7996 0.3181 0 7
-7.4734 -3.7102 -2.7996 0.3181 0 7
-7.4395 -3.7777 -2.7996 0.3181 0 7
-7.4050 -3.8449 -2.7996 0.3181 0 7
-7.3699 -3.9118 -2.7996 0.3181 0 7
-7.3342 -3.9783 -2.7996 0.3181 0 7
-7.2979 -4.0445 -2.7996 0.3181 0 7
-7.2610 -4.1104 -2.7996 0.3181 0 7
-7.2234 -4.1760 -2.7996 0.3181 0 7
-7.1854 -4.2412 -2.7996 0.3181 0 7
-7.1467 -4.3060 -2.7996 0.3181 0 7
-7.1074 -4.3706 -2.7996 0.3181 0 7
-7.0676 -4.4347 -2.7996 0.3181 0 7
-7.0271 -4.4985 -2.7996 0.3181 0 7
-6.9861 -4.5619 -2.7996 0.3181 0 7
-6.9445 -4.6250 -2.7996 0.3181 0 6
-6.9024 -4.6876 -2.7996 0.3181 0 6
-6.8597 -4.7499 -2.7996 0.3181 0 7
-6.8164 -4.8118 -2.7996 0.3181 0 7
-6.7726 -4.8733 -2.7996 0.3181 0 7
-6.7282 -4.9344 -2.7996 0.3181 0 7
-6.6833 -4.9951 -2.7996 0.3181 0 7
-6.6378 -5.0554 -2.7996 0.3181 0 7
-6.5917 -5.1153 -2.7996 0.3181 0 7
-6.5452 -5.1747 -2.7996 0.3181 0 7
-6.4981 -5.2337 -2.7996 0.3181 0 7
-6.4504 -5.2923 -2.7996 0.3181 0 7
-6.4023 -5.3505 -2.7996 0.3181 0 7
-6.3536 -5.4082 -2.7996 0.3181 0 7
-6.3044 -5.4655 -2.7996 0.3181 0 7
-6.2546 -5.5224 -2.7996 0.3181 0 7
-6.2044 -5.5787 -2.7996 0.3181 0 7
-6.1537 -5.6347 -2.7996 0.3181 0 7
-6.1024 -5.6901 -2.7996 0.3181 0 7
-6.0507 -5.7451 -2.7996 0.3181 0 7
-5.9984 -5.7997 -2.7996 0.3181 0 7
-5.9457 -5.8537 -2.7996 0.3181 0 7
-5.8924 -5.9073 -2.7996 0.3181 0 7
-5.8387 -5.9604 -2.7996 0.3181 0 7
-5.7845 -6.0130 -2.7996 0.3181 0 7
-5.7299 -6.0651 -2.7996 0.3181 0 7
-5.6747 -6.1167 -2.7996 0.3181 0 7
-5.6192 -6.1678 -2.7996 0.3181 0 7
-5.5631 -6.2184 -2.7996 0.3181 0 7
-5.5066 -6.2685 -2.7996 0.3181 0 7
-5.4496 -6.3181 -2.7996 0.3181 0 7
-5.3922 -6.3672 -2.7996 0.3181 0 7
-5.3344 -6.4157 -2.7996 0.3181 0 7
-5.2761 -6.4637 -2.7996 0.3181 0 7
-5.2174 -6.5112 -2.7996 0.3181 0 7
-5.1582 -6.5582 -2.7996 0.3181 0 7
-5.0986 -6.6046 -2.7996 0.3181 0 7
-5.0386 -6.6505 -2.7996 0.3181 0 7
-4.9782 -6.6958 -2.7996 0.3181 0 7
-4.9174 -6.7406 -2.7996 0.3181 0 7
-4.8562 -6.7848 -2.7996 0.3181 0 7
-4.7946 -6.8285 -2.7996 0.3181 0 7
-4.7326 -6.8716 -2.7996 0.3181 0 7
-4.6702 -6.9142 -2.7996 0.3181 0 7
-4.6074 -6.9562 -2.7996 0.3181 0 7
-4.5443 -6.9976 -2.7996 0.3181 0 7
-4.4808 -7.0384 -2.7996 0.3181 0 7
-4.4169 -7.0787 -2.7996 0.3181 0 7
-4.3526 -7.1184 -2.7996 0.3181 0 7
-4.2880 -7.1575 -2.7996 0.3181 0 7
-4.2231 -7.1960 -2.7996 0.3181 0 7
-4.1578 -7.2339 -2.7996 0.3181 0 7
-4.0921 -7.2713 -2.7996 0.3181 0 7
-4.0261 -7.3080 -2.7996 0.3181 0 7
-3.9598 -7.3442 -2.7996 0.3181 0 7
-3.8932 -7.3797 -2.7996 0.3181 0 7
-3.8262 -7.4146 -2.7996 0.3181 0 7
-3.7590 -7.4490 -2.7996 0.3181 0 7
-3.6914 -7.4827 -2.7996 0.3181 0 7
-3.6235 -7.5158 -2.7996 0.3181 0 7
-3.5553 -7.5483 -2.7996 0.3181 0 7
-3.4869 -7.5802 -2.7996 0.3181 0 7
-3.4181 -7.6114 -2.7996 0.3181 0 7
-3.3491 -7.6420 -2.7996 0.3181 0 7
-3.2798 -7.6720 -2.7996 0.3181 0 7
-3.2102 -7.7014 -2.7996 0.3181 0 7
-3.1404 -7.7301 -2.7996 0.3181 0 7
-3.0703 -7.7582 -2.7996 0.3181 0 7
-2.9999 -7.7857 -2.7996 0.3181 0 7
-2.9293 -7.8125 -2.7996 0.3181 0 7
-2.8585 -7.8387 -2.7996 0.3181 0 7
-2.7874 -7.8643 -2.7996 0.3181 0 6
-2.7161 -7.8892 -2.7996 0.3181 0 6
-2.6446 -7.9135 -2.7996 0.3181 0 6
-2.5728 -7.9371 -2.7996 0.3181 0 6
-2.5009 -7.9600 -2.7996 0.3181 0 6
-2.4288 -7.9824 -2.7996 0.3181 0 7
-2.3564 -8.0040 -2.7996 0.3181 0 7
-2.2839 -8.0250 -2.7996 0.3181 0 7
-2.2112 -8.0454 -2.7996 0.3181 0 7
-2.1383 -8.0650 -2.7996 0.3181 0 7
-2.0652 -8.0841 -2.7996 0.3181 0 7
-1.9919 -8.1024 -2.7996 0.3181 0 7
-1.9185 -8.1201 -2.7996 0.3181 0 7
-1.8449 -8.1372 -2.7996 0.3181 0 7
-1.7712 -8.1535 -2.7996 0.3181 0 7
-1.6973 -8.1692 -2.7996 0.3181 0 7
-1.6233 -8.1842 -2.7996 0.3181 0 7
-1.5492 -8.1986 -2.7996 0.3181 0 7
-1.4749 -8.2123 -2.7996 0.3181 0 7
-1.4005 -8.2253 -2.7996 0.3181 0 7
-1.3260 -8.2376 -2.7996 0.3181 0 7
-1.2514 -8.2493 -2.7996 0.3181 0 7
-1.1767 -8.2603 -2.7996 0.3181 0 7
-1.1019 -8.2706 -2.7996 0.3181 0 7
-1.0270 -8.2802 -2.7996 0.3181 0 7
-0.9520 -8.2892 -2.7996 0.3181 0 7
-0.8769 -8.2975 -2.7996 0.3181 0 7
-0.8018 -8.3051 -2.7996 0.3181 0 7
-0.7266 -8.3120 -2.7996 0.3181 0 7
-0.6513 -8.3182 -2.7996 0.3181 0 7
-0.5760 -8.3238 -2.7996 0.3181 0 7
-0.5006 -8.3286 -2.7996 0.3181 0 7
-0.4252 -8.3328 -2.7996 0.3181 0 7
-0.3498 -8.3363 -2.7996 0.3181 0 7
-0.2743 -8.3392 -2.7996 0.3181 0 7
-0.1988 -8.3413 -2.7996 0.3181 0 7
-0.1233 -8.3428 -2.7996 0.3181 0 7
-0.0478 -8.3435 -2.7996 0.3181 0 7
0.0277 -8.3436 -2.7996 0.3181 0 7
0.1032 -8.3430 -2.7996 0.3181 0 7
0.1787 -8.3418 -2.7996 0.3181 0 7
0.2542 -8.3398 -2.7996 0.3181 0 7
0.3297 -8.3372 -2.7996 0.3181 0 7
0.4052 -8.3338 -2.7996 0.3181 0 7
0.4806 -8.3298 -2.7996 0.3181 0 7
0.5559 -8.3251 -2.7996 0.3181 0 7
0.6313 -8.3198 -2.7996 0.3181 0 7
0.7065 -8.3137 -2.7996 0.3181 0 7
0.7818 -8.3070 -2.7996 0.3181 0 7
0.8569 -8.2996 -2.7996 0.3181 0 7
0.9320 -8.2915 -2.7996 0.3181 0 7
1.0070 -8.2827 -2.7996 0.3181 0 7
1.0819 -8.2732 -2.7996 0.3181 0 7
1.1568 -8.2631 -2.7996 0.3181 0 7
1.2315 -8.2523 -2.7996 0.3181 0 7
1.3062 -8.2408 -2.7996 0.3181 0 7
1.3807 -8.2286 -2.7996 0.3181 0 7
1.4551 -8.2158 -2.7996 0.3181 0 7
1.5294 -8.2023 -2.7996 0.3181 0 7
1.6036 -8.1881 -2.7996 0.3181 0 7
1.6777 -8.1733 -2.7996 0.3181 0 7
1.7516 -8.1578 -2.7996 0.3181 0 7
1.8253 -8.1416 -2.7996 0.3181 0 7
1.8989 -8.1247 -2.7996 0.3181 0 7
1.9724 -8.1072 -2.7996 0.3181 0 7
2.0457 -8.0890 -2.7996 0.3181 0 7
2.1188 -8.0702 -2.7996 0.3181 0 7
2.1918 -8.0507 -2.7996 0.3181 0 7
2.2646 -8.0305 -2.7996 0.3181 0 7
2.3372 -8.0097 -2.7996 0.3181 0 7
2.4096 -7.9882 -2.7996 0.3181 0 7
2.4818 -7.9660 -2.7996 0.3181 0 7
2.5538 -7.9433 -2.7996 0.3181 0 7
2.6256 -7.9198 -2.7996 0.3181 0 7
2.6971 -7.8957 -2.7996 0.3181 0 7
2.7685 -7.8710 -2.7996 0.3181 0 7
2.8396 -7.8456 -2.7996 0.3181 0 7
2.9105 -7.8196 -2.7996 0.3181 0 7
2.9812 -7.7929 -2.7996 0.3181 0 7
3.0516 -7.7656 -2.7996 0.3181 0 7
3.1217 -7.7377 -2.7996 0.3181 0 7
3.1916 -7.7091 -2.7996 0.3181 0 7
3.2613 -7.6799 -2.7996 0.3181 0 7
3.3307 -7.6501 -2.7996 0.3181 0 7
3.3998 -7.6196 -2.7996 0.3181 0 7
3.4686 -7.5885 -2.7996 0.3181 0 7
3.5371 -7.5568 -2.7996 0.3181 0 7
3.6054 -7.5245 -2.7996 0.3181 0 6
3.6734 -7.4916 -2.7996 0.3181 0 6
3.7410 -7.4580 -2.7996 0.3181 0 6
3.8084 -7.4238 -2.7996 0.3181 0 6
3.8754 -7.3891 -2.7996 0.3181 0 6
3.9421 -7.3537 -2.7996 0.3181 0 7
4.0085 -7.3177 -2.7996 0.3181 0 7
4.0746 -7.2811 -2.7996 0.3181 0 7
4.1403 -7.2439 -2.7996 0.3181 0 7
4.2057 -7.2062 -2.7996 0.3181 0 7
4.2708 -7.1678 -2.7996 0.3181 0 7
4.3355 -7.1289 -2.7996 0.3181 0 7
4.3998 -7.0893 -2.7996 0.3181 0 7
4.4638 -7.0492 -2.7996 0.3181 0 7
4.5274 -7.0085 -2.7996 0.3181 0 7
4.5907 -6.9673 -2.7996 0.3181 0 7
4.6536 -6.9254 -2.7996 0.3181 0 7
4.7160 -6.8830 -2.7996 0.3181 0 7
4.7782 -6.8400 -2.7996 0.3181 0 7
4.8399 -6.7965 -2.7996 0.3181 0 7
4.9012 -6.7524 -2.7996 0.3181 0 7
4.9621 -6.7078 -2.7996 0.3181 0 7
5.0226 -6.6626 -2.7996 0.3181 0 7
5.0827 -6.6169 -2.7996 0.3181 0 7
5.1424 -6.5706 -2.7996 0.3181 0 7
5.2017 -6.5238 -2.7996 0.3181 0 7
5.2605 -6.4764 -2.7996 0.3181 0 7
5.3189 -6.4286 -2.7996 0.3181 0 7
5.3769 -6.3802 -2.7996 0.3181 0 7
5.4344 -6.3312 -2.7996 0.3181 0 7
5.4915 -6.2818 -2.7996 0.3181 0 7
5.5481 -6.2318 -2.7996 0.3181 0 7
5.6043 -6.1814 -2.7996 0.3181 0 7
5.6600 -6.1304 -2.7996 0.3181 0 7
5.7152 -6.0789 -2.7996 0.3181 0 7
5.7700 -6.0269 -2.7996 0.3181 0 7
5.8243 -5.9744 -2.7996 0.3181 0 7
5.8782 -5.9215 -2.7996 0.3181 0 7
5.9315 -5.8680 -2.7996 0.3181 0 7
5.9844 -5.8141 -2.7996 0.3181 0 7
6.0368 -5.7597 -2.7996 0.3181 0 7
6.0887 -5.7048 -2.7996 0.3181 0 7
6.1401 -5.6495 -2.7996 0.3181 0 7
6.1909 -5.5937 -2.7996 0.3181 0 7
6.2413 -5.5374 -2.7996 0.3181 0 7
6.2912 -5.4807 -2.7996 0.3181 0 7
6.3405 -5.4235 -2.7996 0.3181 0 7
6.3894 -5.3659 -2.7996 0.3181 0 7
6.4377 -5.3079 -2.7996 0.3181 0 7
6.4854 -5.2494 -2.7996 0.3181 0 7
6.5327 -5.1905 -2.7996 0.3181 0 7
6.5794 -5.1311 -2.7996 0.3181 0 7
6.6256 -5.0714 -2.7996 0.3181 0 7
6.6712 -5.0112 -2.7996 0.3181 0 7
6.7163 -4.9506 -2.7996 0.3181 0 7
6.7608 -4.8896 -2.7996 0.3181 0 7
6.8048 -4.8282 -2.7996 0.3181 0 7
6.8482 -4.7664 -2.7996 0.3181 0 7
6.8911 -4.7042 -2.7996 0.3181 0 7
6.9334 -4.6417 -2.7996 0.3181 0 7
6.9751 -4.5787 -2.7996 0.3181 0 7
7.0163 -4.5154 -2.7996 0.3181 0 7
7.0569 -4.4517 -2.7996 0.3181 0 7
7.0969 -4.3877 -2.7996 0.3181 0 7
7.1363 -4.3233 -2.7996 0.3181 0 7
7.1751 -4.2585 -2.7996 0.3181 0 7
7.2134 -4.1934 -2.7996 0.3181 0 7
7.2510 -4.1279 -2.7996 0.3181 0 7
7.2881 -4.0621 -2.7996 0.3181 0 7
7.3246 -3.9960 -2.7996 0.3181 0 7
7.3604 -3.9295 -2.7996 0.3181 0 7
7.3957 -3.8627 -2.7996 0.3181 0 7
7.4304 -3.7956 -2.7996 0.3181 0 7
7.4644 -3.7282 -2.7996 0.3181 0 7
7.4978 -3.6605 -2.7996 0.3181 0 7
7.5307 -3.5925 -2.7996 0.3181 0 7
7.5629 -3.5242 -2.7996 0.3181 0 7
7.5945 -3.4556 -2.7996 0.3181 0 7
7.6254 -3.3867 -2.7996 0.3181 0 7
7.6558 -3.3176 -2.7996 0.3181 0 7
7.6855 -3.2481 -2.7996 0.3181 0 7
7.7146 -3.1784 -2.7996 0.3181 0 7
7.7430 -3.1085 -2.7996 0.3181 0 7
7.7708 -3.0383 -2.7996 0.3181 0 7
7.7980 -2.9678 -2.7996 0.3181 0 7
7.8246 -2.8971 -2.7996 0.3181 0 7
7.8505 -2.8262 -2.7996 0.3181 0 7
7.8757 -2.7550 -2.7996 0.3181 0 7
7.9003 -2.6836 -2.7996 0.3181 0 7
7.9243 -2.6120 -2.7996 0.3181 0 7
7.9476 -2.5401 -2.7996 0.3181 0 7
7.9703 -2.4681 -2.7996 0.3181 0 7
7.9923 -2.3959 -2.7996 0.3181 0 7
8.0137 -2.3234 -2.7996 0.3181 0 7
8.0344 -2.2508 -2.7996 0.3181 0 7
8.0544 -2.1780 -2.7996 0.3181 0 7
8.0738 -2.1050 -2.7996 0.3181 0 7
8.0925 -2.0318 -2.7996 0.3181 0 7
8.1106 -1.9585 -2.7996 0.3181 0 7
8.1280 -1.8850 -2.7996 0.3181 0 7
8.1447 -1.8114 -2.7996 0.3181 0 7
8.1607 -1.7376 -2.7996 0.3181 0 7
8.1761 -1.6636 -2.7996 0.3181 0 7
8.1909 -1.5896 -2.7996 0.3181 0 7
8.2049 -1.5154 -2.7996 0.3181 0 7
8.2183 -1.4411 -2.7996 0.3181 0 7
8.2310 -1.3666 -2.7996 0.3181 0 7
8.2430 -1.2920 -2.7996 0.3181 0 7
8.2544 -1.2174 -2.7996 0.3181 0 7
8.2651 -1.1426 -2.7996 0.3181 0 7
8.2751 -1.0678 -2.7996 0.3181 0 7
8.2844 -0.9928 -2.7996 0.3181 0 7
8.2930 -0.9178 -2.7996 0.3181 0 7
8.3010 -0.8427 -2.7996 0.3181 0 7
8.3083 -0.7675 -2.7996 0.3181 0 7
8.3149 -0.6923 -2.7996 0.3181 0 7
8.3208 -0.6170 -2.7996 0.3181 0 7
8.3261 -0.5417 -2.7996 0.3181 0 7
8.3306 -0.4663 -2.7996 0.3181 0 7
8.3345 -0.3909 -2.7996 0.3181 0 7
8.3377 -0.3154 -2.7996 0.3181 0 7
8.3402 -0.2399 -2.7996 0.3181 0 6
8.3421 -0.1644 -2.7996 0.3181 0 6
8.3432 -0.0889 -2.7996 0.3181 0 7
8.3437 -0.0134 -2.7996 0.3181 0 6
8.3434 0.0621 -2.7996 0.3181 0 6
8.3425 0.1376 -2.7996 0.3181 0 7
8.3410 0.2131 -2.7996 0.3181 0 7
8.3387 0.2886 -2.7996 0.3181 0 7
8.3357 0.3641 -2.7996 0.3181 0 7
8.3321 0.4395 -2.7996 0.3181 0 7
8.3278 0.5149 -2.7996 0.3181 0 7
8.3228 0.5903 -2.7996 0.3181 0 7
8.3171 0.6656 -2.7996 0.3181 0 7
8.3107 0.7408 -2.7996 0.3181 0 7
8.3037 0.8160 -2.7996 0.3181 0 7
8.2959 0.8911 -2.7996 0.3181 0 7
8.2875 0.9662 -2.7996 0.3181 0 7
8.2785 1.0412 -2.7996 0.3181 0 7
8.2687 1.1161 -2.7996 0.3181 0 7
8.2583 1.1909 -2.7996 0.3181 0 7
8.2471 1.2655 -2.7996 0.3181 0 7
8.2353 1.3401 -2.7996 0.3181 0 7
8.2229 1.4146 -2.7996 0.3181 0 7
8.2097 1.4890 -2.7996 0.3181 0 7
8.1959 1.5632 -2.7996 0.3181 0 7
8.1814 1.6373 -2.7996 0.3181 0 7
8.1663 1.7113 -2.7996 0.3181 0 7
8.1505 1.7852 -2.7996 0.3181 0 7
8.1340 1.8589 -2.7996 0.3181 0 7
8.1168 1.9324 -2.7996 0.3181 0 7
8.0990 2.0058 -2.7996 0.3181 0 7
8.0805 2.0790 -2.7996 0.3181 0 7
8.0614 2.1521 -2.7996 0.3181 0 7
8.0415 2.2250 -2.7996 0.3181 0 7
8.0211 2.2977 -2.7996 0.3181 0 7
7.9999 2.3702 -2.7996 0.3181 0 7
7.9782 2.4425 -2.7996 0.3181 0 7
7.9557 2.5146 -2.7996 0.3181 0 7
7.9326 2.5865 -2.7996 0.3181 0 7
7.9089 2.6582 -2.7996 0.3181 0 7
7.8845 2.7297 -2.7996 0.3181 0 7
7.8595 2.8009 -2.7996 0.3181 0 7
7.8338 2.8719 -2.7996 0.3181 0 7
7.8075 2.9427 -2.7996 0.3181 0 7
7.7806 3.0133 -2.7996 0.3181 0 7
7.7530 3.0836 -2.7996 0.3181 0 7
7.7247 3.1536 -2.7996 0.3181 0 7
7.6959 3.2234 -2.7996 0.3181 0 7
7.6664 3.2929 -2.7996 0.3181 0 7
7.6363 3.3622 -2.7996 0.3181 0 7
7.6055 3.4312 -2.7996 0.3181 0 7
7.5741 3.4999 -2.7996 0.3181 0 7
7.5422 3.5683 -2.7996 0.3181 0 7
7.5096 3.6364 -2.7996 0.3181 0 7
7.4763 3.7042 -2.7996 0.3181 0 7
7.4425 3.7717 -2.7996 0.3181 0 7
7.4081 3.8389 -2.7996 0.3181 0 7
7.3730 3.9058 -2.7996 0.3181 0 7
7.3374 3.9724 -2.7996 0.3181 0 7
7.3011 4.0386 -2.7996 0.3181 0 7
7.2642 4.1046 -2.7996 0.3181 0 7
7.2268 4.1702 -2.7996 0.3181 0 7
7.1888 4.2354 -2.7996 0.3181 0 7
7.1501 4.3003 -2.7996 0.3181 0 7
7.1109 4.3648 -2.7996 0.3181 0 7
7.0711 4.4290 -2.7996 0.3181 0 7
7.0307 4.4928 -2.7996 0.3181 0 7
6.9898 4.5563 -2.7996 0.3181 0 7
6.9483 4.6194 -2.7996 0.3181 0 7
6.9062 4.6821 -2.7996 0.3181 0 7
6.8635 4.7444 -2.7996 0.3181 0 7
6.8203 4.8063 -2.7996 0.3181 0 7
6.7765 4.8678 -2.7996 0.3181 0 7
6.7322 4.9290 -2.7996 0.3181 0 7
6.6873 4.9897 -2.7996 0.3181 0 7
6.6418 5.0501 -2.7996 0.3181 0 7
6.5958 5.1100 -2.7996 0.3181 0 7
6.5493 5.1694 -2.7996 0.3181 0 7
6.5023 5.2285 -2.7996 0.3181 0 7
6.4547 5.2871 -2.7996 0.3181 0 7
6.4066 5.3453 -2.7996 0.3181 0 7
6.3579 5.4031 -2.7996 0.3181 0 7
6.3088 5.4604 -2.7996 0.3181 0 7
6.2591 5.5173 -2.7996 0.3181 0 7
6.2089 5.5738 -2.7996 0.3181 0 7
6.1582 5.6297 -2.7996 0.3181 0 7
6.1070 5.6852 -2.7996 0.3181 0 7
6.0553 5.7403 -2.7996 0.3181 0 7
6.0031 5.7948 -2.7996 0.3181 0 7
5.9504 5.8489 -2.7996 0.3181 0 7
5.8972 5.9025 -2.7996 0.3181 0 7
5.8435 5.9557 -2.7996 0.3181 0 7
5.7894 6.0083 -2.7996 0.3181 0 7
5.7347 6.0605 -2.7996 0.3181 0 7
5.6797 6.1121 -2.7996 0.3181 0 7
5.6241 6.1633 -2.7996 0.3181 0 7
5.5681 6.2140 -2.7996 0.3181 0 7
5.5116 6.2641 -2.7996 0.3181 0 7
5.4547 6.3137 -2.7996 0.3181 0 7
5.3973 6.3628 -2.7996 0.3181 0 7
5.3395 6.4114 -2.7996 0.3181 0 7
5.2813 6.4595 -2.7996 0.3181 0 7
5.2226 6.5070 -2.7996 0.3181 0 7
5.1635 6.5540 -2.7996 0.3181 0 7
5.1039 6.6005 -2.7996 0.3181 0 7
5.0440 6.6464 -2.7996 0.3181 0 6
4.9836 6.6918 -2.7996 0.3181 0 6
4.9228 6.7367 -2.7996 0.3181 0 6
4.8617 6.7809 -2.7996 0.3181 0 7
4.8001 6.8247 -2.7996 0.3181 0 7
4.7381 6.8678 -2.7996 0.3181 0 7
4.6758 6.9104 -2.7996 0.3181 0 7
4.6130 6.9525 -2.7996 0.3181 0 7
4.5499 6.9939 -2.7996 0.3181 0 7
4.4864 7.0348 -2.7996 0.3181 0 7
4.4226 7.0751 -2.7996 0.3181 0 7
4.3583 7.1149 -2.7996 0.3181 0 7
4.2938 7.1540 -2.7996 0.3181 0 7
4.2288 7.1926 -2.7996 0.3181 0 7
4.1636 7.2306 -2.7996 0.3181 0 7
4.0980 7.2680 -2.7996 0.3181 0 7
4.0320 7.3048 -2.7996 0.3181 0 7
3.9657 7.3410 -2.7996 0.3181 0 7
3.8991 7.3766 -2.7996 0.3181 0 7
3.8322 7.4115 -2.7996 0.3181 0 7
3.7649 7.4459 -2.7996 0.3181 0 7
3.6974 7.4797 -2.7996 0.3181 0 7
3.6295 7.5129 -2.7996 0.3181 0 7
3.5614 7.5454 -2.7996 0.3181 0 7
3.4930 7.5773 -2.7996 0.3181 0 7
3.4242 7.6086 -2.7996 0.3181 0 7
3.3552 7.6393 -2.7996 0.3181 0 7
3.2859 7.6694 -2.7996 0.3181 0 7
3.2164 7.6988 -2.7996 0.3181 0 7
3.1466 7.7276 -2.7996 0.3181 0 7
3.0765 7.7558 -2.7996 0.3181 0 7
3.0062 7.7833 -2.7996 0.3181 0 7
2.9356 7.8102 -2.7996 0.3181 0 7
2.8648 7.8364 -2.7996 0.3181 0 7
2.7937 7.8621 -2.7996 0.3181 0 7
2.7225 7.8870 -2.7996 0.3181 0 7
2.6510 7.9113 -2.7996 0.3181 0 7
2.5793 7.9350 -2.7996 0.3181 0 7
2.5073 7.9580 -2.7996 0.3181 0 7
2.4352 7.9804 -2.7996 0.3181 0 7
2.3629 8.0021 -2.7996 0.3181 0 7
2.2903 8.0232 -2.7996 0.3181 0 7
2.2176 8.0436 -2.7996 0.3181 0 7
2.1447 8.0633 -2.7996 0.3181 0 7
2.0717 8.0824 -2.7996 0.3181 0 7
1.9984 8.1008 -2.7996 0.3181 0 7
1.9250 8.1186 -2.7996 0.3181 0 7
1.8515 8.1357 -2.7996 0.3181 0 7
1.7778 8.1521 -2.7996 0.3181 0 7
1.7039 8.1678 -2.7996 0.3181 0 7
1.6299 8.1829 -2.7996 0.3181 0 7
1.5558 8.1973 -2.7996 0.3181 0 7
1.4815 8.2111 -2.7996 0.3181 0 7
1.4071 8.2242 -2.7996 0.3181 0 7
1.3326 8.2366 -2.7996 0.3181 0 7
1.2580 8.2483 -2.7996 0.3181 0 7
1.1833 8.2593 -2.7996 0.3181 0 7
7.7597 -0.0000 -2.7996 0.3394 0 6
7.7594 0.0702 -2.7996 0.3394 0 7
7.7584 0.1404 -2.7996 0.3394 0 7
7.7569 0.2107 -2.7996 0.3394 0 7
7.7546 0.2809 -2.7996 0.3394 0 7
7.7518 0.3510 -2.7996 0.3394 0 7
7.7483 0.4212 -2.7996 0.3394 0 7
7.7441 0.4913 -2.7996 0.3394 0 7
7.7394 0.5614 -2.7996 0.3394 0 7
7.7340 0.6314 -2.7996 0.3394 0 7
7.7280 0.7014 -2.7996 0.3394 0 7
7.7213 0.7713 -2.7996 0.3394 0 7
7.7140 0.8412 -2.7996 0.3394 0 7
7.7061 0.9109 -2.7996 0.3394 0 7
7.6975 0.9807 -2.7996 0.3394 0 7
7.6883 1.0503 -2.7996 0.3394 0 7
7.6785 1.1198 -2.7996 0.3394 0 7
7.6680 1.1893 -2.7996 0.3394 0 7
7.6570 1.2586 -2.7996 0.3394 0 7
7.6453 1.3279 -2.7996 0.3394 0 7
7.6329 1.3970 -2.7996 0.3394 0 7
7.6200 1.4661 -2.7996 0.3394 0 7
7.6064 1.5350 -2.7996 0.3394 0 7
7.5922 1.6038 -2.7996 0.3394 0 7
7.5773 1.6724 -2.7996 0.3394 0 7
7.5619 1.7409 -2.7996 0.3394 0 7
7.5458 1.8093 -2.7996 0.3394 0 7
7.5291 1.8775 -2.7996 0.3394 0 7
7.5118 1.9456 -2.7996 0.3394 0 7
7.4939 2.0135 -2.7996 0.3394 0 7
7.4754 2.0812 -2.7996 0.3394 0 7
7.4563 2.1488 -2.7996 0.3394 0 7
7.4365 2.2162 -2.7996 0.3394 0 7
7.4161 2.2834 -2.7996 0.3394 0 7
7.3952 2.3505 -2.7996 0.3394 0 7
7.3736 2.4173 -2.7996 0.3394 0 7
7.3514 2.4840 -2.7996 0.3394 0 7
7.3286 2.5504 -2.7996 0.3394 0 7
7.3052 2.6166 -2.7996 0.3394 0 7
7.2813 2.6826 -2.7996 0.3394 0 7
7.2567 2.7484 -2.7996 0.3394 0 7
7.2315 2.8140 -2.7996 0.3394 0 7
7.2057 2.8793 -2.7996 0.3394 0 7
7.1794 2.9444 -2.7996 0.3394 0 7
7.1524 3.0093 -2.7996 0.3394 0 7
7.1249 3.0739 -2.7996 0.3394 0 7
7.0968 3.1383 -2.7996 0.3394 0 7
7.0681 3.2024 -2.7996 0.3394 0 7
7.0388 3.2662 -2.7996 0.3394 0 7
7.0090 3.3298 -2.7996 0.3394 0 7
6.9785 3.3931 -2.7996 0.3394 0 7
6.9475 3.4561 -2.7996 0.3394 0 7
6.9160 3.5189 -2.7996 0.3394 0 7
6.8838 3.5813 -2.7996 0.3394 0 7
6.8511 3.6435 -2.7996 0.3394 0 7
6.8179 3.7053 -2.7996 0.3394 0 7
6.7841 3.7669 -2.7996 0.3394 0 7
6.7497 3.8281 -2.7996 0.3394 0 7
6.7148 3.8891 -2.7996 0.3394 0 7
6.6793 3.9497 -2.7996 0.3394 0 7
6.6433 4.0100 -2.7996 0.3394 0 7
6.6067 4.0700 -2.7996 0.3394 0 7
6.5696 4.1296 -2.7996 0.3394 0 7
6.5320 4.1889 -2.7996 0.3394 0 7
6.4938 4.2478 -2.7996 0.3394 0 7
6.4551 4.3064 -2.7996 0.3394 0 7
6.4158 4.3647 -2.7996 0.3394 0 7
6.3760 4.4226 -2.7996 0.3394 0 7
6.3358 4.4801 -2.7996 0.3394 0 7
6.2949 4.5373 -2.7996 0.3394 0 7
6.2536 4.5941 -2.7996 0.3394 0 7
6.2118 4.6505 -2.7996 0.3394 0 7
6.1694 4.7065 -2.7996 0.3394 0 7
6.1266 4.7621 -2.7996 0.3394 0 7
6.0832 4.8174 -2.7996 0.3394 0 7
6.0394 4.8723 -2.7996 0.3394 0 7
5.9950 4.9267 -2.7996 0.3394 0 7
5.9502 4.9808 -2.7996 0.3394 0 7
5.9049 5.0345 -2.7996 0.3394 0 7
5.8591 5.0877 -2.7996 0.3394 0 7
5.8128 5.1405 -2.7996 0.3394 0 7
5.7660 5.1929 -2.7996 0.3394 0 7
5.7188 5.2449 -2.7996 0.3394 0 7
5.6711 5.2964 -2.7996 0.3394 0 7
5.6229 5.3475 -2.7996 0.3394 0 7
5.5743 5.3982 -2.7996 0.3394 0 7
5.5252 5.4485 -2.7996 0.3394 0 7
5.4756 5.4982 -2.7996 0.3394 0 7
5.4256 5.5476 -2.7996 0.3394 0 7
5.3752 5.5965 -2.7996 0.3394 0 7
5.3243 5.6449 -2.7996 0.3394 0 7
5.2730 5.6928 -2.7996 0.3394 0 7
5.2213 5.7403 -2.7996 0.3394 0 7
5.1691 5.7874 -2.7996 0.3394 0 7
5.1165 5.8339 -2.7996 0.3394 0 7
5.0635 5.8800 -2.7996 0.3394 0 7
5.0101 5.9256 -2.7996 0.3394 0 7
4.9562 5.9707 -2.7996 0.3394 0 7
4.9020 6.0153 -2.7996 0.3394 0 7
4.8473 6.0594 -2.7996 0.3394 0 7
4.7923 6.1030 -2.7996 0.3394 0 7
4.7369 6.1462 -2.7996 0.3394 0 7
4.6810 6.1888 -2.7996 0.3394 0 7
4.6248 6.2309 -2.7996 0.3394 0 7
4.5682 6.2725 -2.7996 0.3394 0 7
4.5113 6.3136 -2.7996 0.3394 0 7
4.4539 6.3542 -2.7996 0.3394 0 7
4.3962 6.3942 -2.7996 0.3394 0 7
4.3382 6.4338 -2.7996 0.3394 0 7
4.2798 6.4728 -2.7996 0.3394 0 7
4.2210 6.5112 -2.7996 0.3394 0 7
