ply
format ascii 1.0
element vertex 1351
property float32 x
property float32 y
property float32 z
property float32 CosAngle
property uint32 ObjIdx
property uint32 ObjTag
end_header
30.6437 18.8705 -1.9267 0.7173 0 19
28.8177 22.8117 -1.9677 0.7143 0 9
28.3351 22.8497 -1.9488 0.7205 0 9
25.9738 22.1355 -1.8270 0.6877 0 19
26.0214 22.5856 -1.8447 0.6811 0 19
27.5183 24.3250 -1.9663 0.1940 0 9
26.7595 24.5309 -1.9435 0.1545 0 9
26.8484 25.0634 -1.9663 0.6374 0 9
25.0202 25.1116 -1.8978 0.2736 0 10
24.6190 25.1601 -1.8846 0.3445 0 10
24.2679 25.2544 -1.8751 0.2539 0 10
23.9829 25.4143 -1.8708 0.2227 0 10
23.8423 25.7277 -1.8779 0.6179 0 10
23.8683 26.2277 -1.8986 0.5923 0 10
23.9224 26.7699 -1.9220 0.5833 0 10
23.9779 27.3256 -1.9463 0.5783 0 10
24.0332 27.8938 -1.9712 0.5708 0 10
24.0954 28.4832 -1.9973 0.5559 0 10
24.1417 29.0672 -2.0229 0.4824 0 10
24.2646 29.7590 -2.0557 0.4866 0 10
2.2394 6.3266 -0.3593 0.2324 0 12
2.2679 6.5963 -0.3734 0.2236 0 12
6.6825 30.8198 -1.6883 0.5955 0 19
3.8295 18.4670 -1.0097 0.3524 0 9
3.6239 18.3069 -0.9991 0.9880 0 9
3.4534 18.3141 -0.9978 0.9894 0 9
3.2833 18.3213 -0.9965 0.9906 0 9
3.1374 18.4676 -1.0029 0.6064 0 9
3.0059 18.7176 -1.0149 0.5992 0 9
5.6386 37.2624 -2.0176 0.9961 0 9
5.2980 37.2894 -2.0164 0.9967 0 9
4.9578 37.3163 -2.0154 0.9972 0 9
4.6179 37.3433 -2.0145 0.9976 0 9
4.2783 37.3702 -2.0138 0.9980 0 9
3.9389 37.3971 -2.0132 0.9982 0 9
-34.4101 8.6425 -1.8994 0.9901 0 5
-23.1786 -19.6829 -1.6280 0.8840 0 19
-23.0813 -19.9626 -1.6338 0.4477 0 19
-8.0635 -24.7613 -1.3942 0.7693 0 9
-7.7813 -24.6501 -1.3839 0.7751 0 9
-7.5774 -24.7834 -1.3875 0.9286 0 9
-7.3795 -24.9410 -1.3925 0.9252 0 9
23.0648 -25.5249 -1.8418 0.9931 0 19
26.3504 -28.6360 -2.0834 0.8088 0 19
26.7219 -28.5173 -2.0923 0.3238 0 19
26.5683 -23.6526 -1.9044 0.6439 0 19
26.7251 -23.3622 -1.9004 0.8796 0 19
27.0358 -23.2056 -1.9075 0.6269 0 19
27.1632 -19.7167 -1.7970 0.8653 0 19
27.2137 -19.3798 -1.7886 0.8698 0 19
27.5918 -19.2752 -1.8019 0.4826 0 19
23.6096 -15.8653 -1.5229 0.8750 0 9
23.6697 -15.5967 -1.5176 0.8490 0 9
23.9445 -15.4689 -1.5262 0.8443 0 9
27.6109 -17.4854 -1.7497 0.4027 0 19
27.9839 -12.1862 -1.6341 0.8271 0 19
27.9013 -11.8511 -1.6229 0.8046 0 19
28.0551 -11.6179 -1.6257 0.2779 0 19
28.8553 -7.0242 -1.5899 0.4538 0 19
28.5634 -6.6800 -1.5705 0.3855 0 19
28.7622 -6.4526 -1.5781 0.9964 0 19
28.8468 -6.1980 -1.5796 0.6042 0 19
25.2140 -0.7736 -1.3505 0.9225 0 9
25.1260 -0.5434 -1.3455 0.9259 0 9
25.2208 -0.3171 -1.3503 0.7855 0 9
29.0312 -0.1024 -1.5543 0.9686 0 19
29.2092 0.1613 -1.5638 0.2003 0 19
29.2229 0.4259 -1.5647 0.9497 0 19
24.0882 1.6614 -1.2927 0.9751 0 5
29.8648 5.3557 -1.6244 0.7930 0 19
29.8020 5.6232 -1.6237 0.8182 0 19
29.6278 5.8684 -1.6170 0.8822 0 19
29.7293 6.1686 -1.6255 0.4126 0 19
30.1586 6.5429 -1.6522 0.8732 0 19
30.5230 11.7498 -1.7510 0.7910 0 19
30.2267 11.9509 -1.7401 0.6303 0 19
30.1006 12.2171 -1.7392 0.8371 0 19
30.5748 12.7330 -1.7732 0.8895 0 19
25.1729 12.4077 -1.5025 0.9720 0 19
25.4420 13.4106 -1.5397 0.5559 0 19
25.3119 13.6361 -1.5393 0.6467 0 19
25.3365 13.9465 -1.5484 0.6429 0 19
25.4871 14.6366 -1.5735 0.5856 0 19
25.4215 14.9064 -1.5777 0.6312 0 19
25.4468 15.2323 -1.5878 0.6272 0 19
30.6238 18.7097 -1.9213 0.7193 0 19
28.5121 22.8270 -1.9554 0.7181 0 9
28.0852 22.9054 -1.9403 0.1671 0 9
26.0042 21.6029 -1.8099 0.9177 0 5
26.0497 22.0421 -1.8269 0.7216 0 19
26.0027 22.4092 -1.8377 0.6837 0 19
27.4009 24.0497 -1.9519 0.9455 0 9
26.7957 24.8379 -1.9561 0.6401 0 9
26.8578 25.3512 -1.9773 0.6332 0 9
25.2119 25.1261 -1.9056 0.3075 0 10
24.7730 25.1397 -1.8896 0.3180 0 10
24.3991 25.2125 -1.8784 0.3456 0 10
24.1145 25.3738 -1.8741 0.2237 0 10
23.8572 25.5624 -1.8720 0.4821 0 10
23.8554 26.0286 -1.8902 0.6023 0 10
23.8950 26.5502 -1.9123 0.5949 0 10
23.9556 27.1069 -1.9367 0.5836 0 10
24.0136 27.6732 -1.9616 0.5738 0 10
24.0698 28.2503 -1.9870 0.5675 0 10
24.1238 28.8382 -2.0129 0.5777 0 10
24.2163 29.4869 -2.0428 0.4800 0 10
2.2565 6.4888 -0.3678 0.2270 0 12
2.2864 6.7717 -0.3826 0.2182 0 12
3.9313 18.6275 -1.0192 0.3492 0 9
3.6904 18.3041 -0.9997 0.9875 0 9
3.5197 18.3113 -0.9983 0.9889 0 9
3.3495 18.3185 -0.9970 0.9902 0 9
3.1878 18.3718 -0.9983 0.6092 0 9
3.0575 18.6195 -1.0102 0.6020 0 9
5.7714 37.2518 -2.0181 0.9958 0 9
29.0105 -0.0000 -2.2092 0.5049 0 19
29.1344 0.2636 -2.2188 0.3963 0 19
33.1809 0.6006 -2.5272 0.0722 0 8
33.1722 0.9007 -2.5271 0.0722 0 8
33.1608 1.2008 -2.5269 0.0722 0 8
33.1464 1.5007 -2.5268 0.0722 0 8
33.1292 1.8004 -2.5266 0.0722 0 8
33.1092 2.0999 -2.5264 0.0722 0 8
24.0171 1.7416 -1.8338 0.9837 0 5
33.0606 2.6983 -2.5260 0.0722 0 8
33.0321 2.9971 -2.5258 0.0722 0 8
33.0007 3.2956 -2.5256 0.0723 0 8
32.9664 3.5937 -2.5254 0.0723 0 8
32.9294 3.8915 -2.5251 0.0723 0 8
32.8895 4.1889 -2.5249 0.0723 0 8
32.8468 4.4858 -2.5246 0.0723 0 8
32.8012 4.7823 -2.5243 0.0723 0 8
32.7527 5.0783 -2.5240 0.0723 0 8
32.7016 5.3738 -2.5237 0.0723 0 8
32.6476 5.6688 -2.5234 0.0723 0 8
32.5909 5.9632 -2.5231 0.0723 0 8
30.0419 5.7782 -2.3297 0.5075 0 19
29.6812 5.9879 -2.3059 0.3431 0 19
32.4041 6.8429 -2.5221 0.0724 0 8
32.3362 7.1348 -2.5217 0.0724 0 8
32.2656 7.4260 -2.5214 0.0724 0 8
32.1923 7.7165 -2.5210 0.0724 0 8
32.1162 8.0062 -2.5206 0.0724 0 8
32.0374 8.2952 -2.5202 0.0724 0 8
31.9559 8.5834 -2.5198 0.0724 0 8
31.8716 8.8707 -2.5194 0.0724 0 8
31.7847 9.1571 -2.5189 0.0724 0 8
31.6950 9.4427 -2.5185 0.0725 0 8
31.6027 9.7274 -2.5181 0.0725 0 8
31.5077 10.0112 -2.5176 0.0725 0 8
31.4100 10.2939 -2.5171 0.0725 0 8
31.3096 10.5757 -2.5167 0.0725 0 8
31.2066 10.8565 -2.5162 0.0725 0 8
31.1010 11.1362 -2.5157 0.0725 0 8
30.9927 11.4149 -2.5152 0.0726 0 8
30.8819 11.6925 -2.5147 0.0726 0 8
30.6947 11.9403 -2.5081 0.6247 0 19
30.6524 12.2443 -2.5136 0.0726 0 8
30.5356 12.5192 -2.5132 0.0759 0 8
30.4211 12.7950 -2.5132 0.0759 0 8
30.3041 13.0697 -2.5132 0.0759 0 8
30.1846 13.3434 -2.5132 0.0759 0 8
30.0626 13.6160 -2.5132 0.0759 0 8
29.9382 13.8875 -2.5132 0.0759 0 8
29.8113 14.1578 -2.5132 0.0759 0 8
29.6820 14.4269 -2.5132 0.0759 0 8
25.2789 12.5709 -2.1500 0.6785 0 19
29.4160 14.9617 -2.5132 0.0759 0 8
29.2795 15.2273 -2.5132 0.0759 0 8
25.2249 13.4100 -2.1755 0.5580 0 19
25.1642 13.6712 -2.1809 0.8213 0 19
25.1975 13.9860 -2.1946 0.8161 0 19
25.7295 14.5874 -2.2524 0.5803 0 19
25.2836 14.6385 -2.2249 0.8511 0 19
25.3109 14.9617 -2.2391 0.8003 0 19
25.3460 15.2936 -2.2543 0.7948 0 19
28.1015 17.3050 -2.5132 0.0759 0 8
27.9438 17.5586 -2.5132 0.0759 0 8
27.7837 17.8107 -2.5132 0.0759 0 8
27.6214 18.0613 -2.5132 0.0759 0 8
27.4569 18.3105 -2.5132 0.0759 0 8
27.2901 18.5582 -2.5132 0.0759 0 8
27.1210 18.8044 -2.5132 0.0759 0 8
26.9498 19.0490 -2.5132 0.0759 0 8
26.7763 19.2921 -2.5132 0.0759 0 8
26.6006 19.5336 -2.5132 0.0759 0 8
26.4228 19.7735 -2.5132 0.0759 0 8
26.2428 20.0118 -2.5132 0.0759 0 8
26.0607 20.2484 -2.5132 0.0759 0 8
25.8764 20.4834 -2.5132 0.0759 0 8
25.6900 20.7167 -2.5132 0.0759 0 8
25.5015 20.9483 -2.5132 0.0759 0 8
25.3109 21.1782 -2.5132 0.0759 0 8
25.2423 21.5121 -2.5256 0.6964 0 8
25.2788 21.9411 -2.5491 0.6900 0 8
25.3160 22.3782 -2.5731 0.6836 0 8
25.3538 22.8236 -2.5978 0.6770 0 8
25.3923 23.2776 -2.6233 0.6705 0 8
25.4315 23.7407 -2.6494 0.6639 0 8
25.3202 24.0692 -2.6604 0.0870 0 8
25.1348 24.3297 -2.6639 0.0869 0 8
24.9295 24.5718 -2.6656 0.0759 0 7
24.7061 24.7963 -2.6656 0.0759 0 7
24.4808 25.0189 -2.6656 0.0759 0 7
24.2534 25.2394 -2.6656 0.0759 0 7
24.0240 25.4578 -2.6656 0.0759 0 7
23.7927 25.6741 -2.6656 0.0759 0 7
23.5594 25.8884 -2.6656 0.0759 0 7
23.3242 26.1005 -2.6656 0.0759 0 7
23.0871 26.3104 -2.6656 0.0759 0 7
22.8481 26.5183 -2.6656 0.0759 0 7
22.6072 26.7239 -2.6656 0.0759 0 7
22.3644 26.9274 -2.6656 0.0759 0 7
22.1199 27.1286 -2.6656 0.0759 0 7
21.8735 27.3277 -2.6656 0.0759 0 7
21.6254 27.5245 -2.6656 0.0759 0 7
21.3754 27.7190 -2.6656 0.0759 0 7
21.1237 27.9113 -2.6656 0.0759 0 7
20.8703 28.1013 -2.6656 0.0759 0 7
20.6152 28.2890 -2.6656 0.0759 0 7
20.3584 28.4744 -2.6656 0.0759 0 7
20.0999 28.6574 -2.6656 0.0759 0 7
19.8398 28.8381 -2.6656 0.0759 0 7
19.5780 29.0164 -2.6656 0.0759 0 7
19.3146 29.1924 -2.6656 0.0759 0 7
19.0497 29.3660 -2.6656 0.0759 0 7
18.7832 29.5372 -2.6656 0.0759 0 7
18.5152 29.7059 -2.6656 0.0759 0 7
18.2456 29.8722 -2.6656 0.0759 0 7
17.9746 30.0361 -2.6656 0.0759 0 7
17.7021 30.1975 -2.6656 0.0759 0 7
17.4281 30.3564 -2.6656 0.0759 0 7
17.1527 30.5129 -2.6656 0.0759 0 7
16.8759 30.6668 -2.6656 0.0759 0 7
16.5977 30.8183 -2.6656 0.0759 0 7
16.3182 30.9672 -2.6656 0.0759 0 7
16.0373 31.1136 -2.6656 0.0759 0 7
15.7552 31.2574 -2.6656 0.0759 0 7
15.4717 31.3987 -2.6656 0.0759 0 7
15.1870 31.5374 -2.6656 0.0759 0 7
14.9010 31.6735 -2.6656 0.0759 0 7
14.6138 31.8071 -2.6656 0.0759 0 7
14.3254 31.9380 -2.6656 0.0759 0 7
14.0358 32.0663 -2.6656 0.0759 0 7
13.7451 32.1920 -2.6656 0.0759 0 7
13.4532 32.3151 -2.6656 0.0759 0 7
13.1603 32.4355 -2.6656 0.0759 0 7
12.8663 32.5532 -2.6656 0.0759 0 7
12.5712 32.6683 -2.6656 0.0759 0 7
2.3943 6.3939 -0.5199 0.9654 0 12
2.3310 6.4006 -0.5187 0.9676 0 12
2.2679 6.4073 -0.5176 0.9697 0 12
2.2052 6.4139 -0.5165 0.9718 0 12
2.1427 6.4205 -0.5155 0.9738 0 12
2.0805 6.4271 -0.5144 0.9757 0 12
2.0184 6.4337 -0.5135 0.9775 0 12
1.9567 6.4402 -0.5126 0.9792 0 12
9.8721 33.5826 -2.6656 0.0759 0 6
9.5678 33.6706 -2.6656 0.0759 0 7
9.2627 33.7558 -2.6656 0.0759 0 7
8.9569 33.8382 -2.6656 0.0759 0 7
8.6504 33.9179 -2.6656 0.0759 0 7
8.3431 33.9948 -2.6656 0.0759 0 7
8.0352 34.0689 -2.6656 0.0759 0 7
7.7185 34.1045 -2.6628 0.0738 0 8
6.9933 32.2529 -2.5132 0.0759 0 8
3.8311 18.4745 -1.4368 0.3518 0 9
3.6212 18.2934 -1.4201 0.9873 0 9
3.4508 18.3006 -1.4182 0.9887 0 9
3.2809 18.3078 -1.4164 0.9899 0 9
3.1303 18.4262 -1.4233 0.6068 0 9
2.9990 18.6752 -1.4404 0.5997 0 9
4.9377 32.6309 -2.5132 0.0759 0 8
4.6423 32.6742 -2.5132 0.0759 0 8
4.3464 32.7149 -2.5132 0.0759 0 8
4.0502 32.7529 -2.5132 0.0759 0 8
3.7537 32.7882 -2.5132 0.0759 0 8
3.4569 32.8208 -2.5132 0.0759 0 8
3.1598 32.8508 -2.5132 0.0759 0 8
2.8624 32.8780 -2.5132 0.0759 0 8
2.5648 32.9026 -2.5132 0.0759 0 8
2.2669 32.9244 -2.5132 0.0759 0 8
1.9689 32.9436 -2.5132 0.0759 0 8
1.6708 32.9600 -2.5132 0.0759 0 8
1.3725 32.9738 -2.5132 0.0759 0 8
1.0741 32.9849 -2.5132 0.0759 0 22
0.7756 32.9933 -2.5132 0.0759 0 22
0.4769 32.9989 -2.5132 0.0759 0 22
0.1784 33.0019 -2.5132 0.0759 0 22
-0.1203 33.0022 -2.5132 0.0759 0 22
-0.4188 32.9997 -2.5132 0.0759 0 22
-0.7174 32.9946 -2.5132 0.0759 0 22
-1.0160 32.9867 -2.5132 0.0759 0 22
-1.3150 32.9762 -2.5132 0.0759 0 8
-1.6117 32.9630 -2.5132 0.0759 0 8
-1.9109 32.9470 -2.5132 0.0759 0 8
-2.2083 32.9284 -2.5132 0.0759 0 8
-2.5072 32.9070 -2.5132 0.0759 0 8
-2.8041 32.8830 -2.5132 0.0759 0 8
-3.1012 32.8563 -2.5132 0.0759 0 8
-3.3990 32.8269 -2.5132 0.0759 0 8
-3.6959 32.7948 -2.5132 0.0759 0 8
-3.9925 32.7600 -2.5132 0.0759 0 8
-4.2888 32.7225 -2.5132 0.0759 0 8
-4.5847 32.6824 -2.5132 0.0759 0 8
-4.8802 32.6395 -2.5132 0.0759 0 8
-5.1754 32.5941 -2.5132 0.0759 0 8
-5.4701 32.5459 -2.5132 0.0759 0 8
-5.7643 32.4951 -2.5132 0.0759 0 8
-6.0581 32.4416 -2.5132 0.0759 0 8
-6.3514 32.3854 -2.5132 0.0759 0 8
-6.6456 32.3265 -2.5132 0.0759 0 8
-6.9377 32.2651 -2.5132 0.0759 0 8
-7.2285 32.2011 -2.5132 0.0759 0 8
-7.5179 32.1345 -2.5132 0.0759 0 8
-7.8096 32.0650 -2.5132 0.0759 0 8
-8.0994 31.9931 -2.5132 0.0759 0 8
-8.3886 31.9185 -2.5132 0.0759 0 8
-8.6771 31.8412 -2.5132 0.0759 0 8
-8.9648 31.7614 -2.5132 0.0759 0 8
-9.2518 31.6790 -2.5132 0.0759 0 8
-9.5381 31.5940 -2.5132 0.0759 0 8
-9.8236 31.5064 -2.5132 0.0759 0 8
-10.1083 31.4162 -2.5132 0.0759 0 8
-10.3921 31.3235 -2.5132 0.0759 0 8
-10.6751 31.2282 -2.5132 0.0759 0 8
-10.9572 31.1303 -2.5132 0.0759 0 8
-11.2387 31.0298 -2.5132 0.0759 0 8
-11.5184 30.9270 -2.5132 0.0759 0 8
-11.7981 30.8214 -2.5132 0.0759 0 8
-12.0765 30.7134 -2.5132 0.0759 0 8
-12.3540 30.6029 -2.5132 0.0759 0 8
-12.6304 30.4898 -2.5132 0.0759 0 8
-12.9057 30.3743 -2.5132 0.0759 0 8
-13.1800 30.2563 -2.5132 0.0759 0 8
-13.4533 30.1358 -2.5132 0.0759 0 8
-13.7254 30.0128 -2.5132 0.0759 0 8
-13.9964 29.8874 -2.5132 0.0759 0 8
-14.2663 29.7595 -2.5132 0.0759 0 8
-14.5350 29.6292 -2.5132 0.0759 0 8
-14.8025 29.4965 -2.5132 0.0759 0 8
-15.0688 29.3614 -2.5132 0.0759 0 8
-15.3335 29.2239 -2.5132 0.0759 0 8
-15.5976 29.0839 -2.5132 0.0759 0 8
-15.8601 28.9415 -2.5132 0.0759 0 8
-16.1214 28.7968 -2.5132 0.0759 0 8
-16.3813 28.6498 -2.5132 0.0759 0 8
-16.6398 28.5004 -2.5132 0.0759 0 8
-16.8970 28.3487 -2.5132 0.0759 0 8
-17.1528 28.1946 -2.5132 0.0759 0 8
-17.4072 28.0383 -2.5132 0.0759 0 8
-17.6602 27.8796 -2.5132 0.0759 0 8
-17.9118 27.7187 -2.5132 0.0759 0 8
-18.1618 27.5555 -2.5132 0.0759 0 8
-18.4104 27.3900 -2.5132 0.0759 0 8
-18.6590 27.2219 -2.5132 0.0759 0 8
-18.9031 27.0524 -2.5132 0.0759 0 8
-19.1471 26.8802 -2.5132 0.0759 0 8
-19.3895 26.7059 -2.5132 0.0759 0 8
-19.6304 26.5293 -2.5132 0.0759 0 8
-19.8696 26.3506 -2.5132 0.0759 0 8
-20.1072 26.1697 -2.5132 0.0759 0 8
-20.3432 25.9867 -2.5132 0.0759 0 8
-20.5775 25.8016 -2.5132 0.0759 0 8
-20.8101 25.6143 -2.5132 0.0759 0 8
-21.0411 25.4250 -2.5132 0.0759 0 8
-21.2702 25.2336 -2.5132 0.0759 0 8
-21.4977 25.0401 -2.5132 0.0759 0 8
-21.7234 24.8445 -2.5132 0.0759 0 8
-21.9473 24.6470 -2.5132 0.0759 0 8
-22.1694 24.4474 -2.5132 0.0759 0 8
-22.3897 24.2458 -2.5132 0.0759 0 8
-22.6082 24.0422 -2.5132 0.0759 0 8
-22.8248 23.8366 -2.5132 0.0759 0 8
-23.0396 23.6291 -2.5132 0.0759 0 8
-23.2524 23.4197 -2.5132 0.0759 0 8
-23.4634 23.2083 -2.5132 0.0759 0 8
-23.6724 22.9951 -2.5132 0.0759 0 8
-23.8795 22.7799 -2.5132 0.0759 0 8
-24.0847 22.5629 -2.5132 0.0759 0 8
-24.2878 22.3441 -2.5132 0.0759 0 8
-24.4890 22.1234 -2.5132 0.0759 0 8
-24.6882 21.9009 -2.5132 0.0759 0 8
-24.8853 21.6766 -2.5132 0.0759 0 8
-25.0805 21.4506 -2.5132 0.0759 0 8
-25.2735 21.2228 -2.5132 0.0759 0 8
-25.4645 20.9932 -2.5132 0.0759 0 8
-25.6534 20.7619 -2.5132 0.0759 0 8
-25.8402 20.5290 -2.5132 0.0759 0 8
-26.0249 20.2943 -2.5132 0.0759 0 8
-26.2075 20.0580 -2.5132 0.0759 0 8
-26.3879 19.8200 -2.5132 0.0759 0 8
-26.5662 19.5805 -2.5132 0.0759 0 8
-26.7423 19.3393 -2.5132 0.0759 0 8
-26.9162 19.0965 -2.5132 0.0759 0 8
-27.0879 18.8522 -2.5132 0.0759 0 8
-27.2573 18.6063 -2.5132 0.0759 0 8
-27.4246 18.3589 -2.5132 0.0759 0 8
-27.5896 18.1100 -2.5132 0.0759 0 8
-27.7523 17.8596 -2.5132 0.0759 0 8
-27.9128 17.6078 -2.5132 0.0759 0 8
-28.0709 17.3545 -2.5132 0.0759 0 8
-28.2268 17.0998 -2.5132 0.0759 0 8
-28.3804 16.8437 -2.5132 0.0759 0 8
-28.5317 16.5862 -2.5132 0.0759 0 8
-28.6806 16.3273 -2.5132 0.0759 0 8
-28.8271 16.0672 -2.5132 0.0759 0 8
-28.9713 15.8057 -2.5132 0.0759 0 8
-29.1131 15.5429 -2.5132 0.0759 0 8
-29.2526 15.2788 -2.5132 0.0759 0 8
-29.3896 15.0135 -2.5132 0.0759 0 8
-29.5243 14.7470 -2.5132 0.0759 0 8
-23.6204 11.5322 -2.0017 0.8142 0 19
-23.7775 11.3437 -2.0062 0.5733 0 19
-29.9137 13.9402 -2.5132 0.0759 0 8
-30.0386 13.6689 -2.5132 0.0759 0 8
-30.1610 13.3966 -2.5132 0.0759 0 8
-30.2812 13.1231 -2.5132 0.0759 0 8
-30.3985 12.8486 -2.5132 0.0759 0 8
-30.5135 12.5730 -2.5132 0.0759 0 8
-30.6261 12.2964 -2.5132 0.0759 0 8
-30.7361 12.0188 -2.5132 0.0759 0 8
-30.8436 11.7402 -2.5132 0.0759 0 8
-30.9485 11.4606 -2.5132 0.0759 0 8
-31.0510 11.1801 -2.5132 0.0759 0 8
-31.1508 10.8987 -2.5132 0.0759 0 8
-31.2482 10.6164 -2.5132 0.0759 0 8
-31.3430 10.3332 -2.5132 0.0759 0 8
-31.4352 10.0492 -2.5132 0.0759 0 8
-31.5248 9.7643 -2.5132 0.0759 0 8
-31.6119 9.4787 -2.5132 0.0759 0 8
-31.6964 9.1923 -2.5132 0.0759 0 8
-31.7782 8.9051 -2.5132 0.0759 0 8
-31.8575 8.6172 -2.5132 0.0759 0 8
-31.9342 8.3286 -2.5132 0.0759 0 8
-32.0082 8.0393 -2.5132 0.0759 0 8
-32.0797 7.7493 -2.5132 0.0759 0 8
-32.1485 7.4587 -2.5132 0.0759 0 8
-32.2146 7.1675 -2.5132 0.0759 0 8
-33.1991 7.0719 -2.5849 0.1203 0 8
-34.2439 6.9712 -2.6613 0.0776 0 8
-34.3619 6.6720 -2.6656 0.0759 0 7
-34.4208 6.3608 -2.6656 0.0759 0 7
-34.4770 6.0490 -2.6656 0.0759 0 7
-34.5303 5.7368 -2.6656 0.0759 0 7
-34.5808 5.4242 -2.6656 0.0759 0 7
-34.6285 5.1110 -2.6656 0.0759 0 7
-34.6733 4.7975 -2.6656 0.0759 0 6
-34.7153 4.4836 -2.6656 0.0759 0 7
-34.7544 4.1693 -2.6656 0.0759 0 7
-34.7907 3.8546 -2.6656 0.0759 0 7
-34.8242 3.5397 -2.6656 0.0759 0 7
-34.8548 3.2244 -2.6656 0.0759 0 7
-34.8825 2.9089 -2.6656 0.0759 0 7
-34.9074 2.5932 -2.6656 0.0759 0 7
-34.9294 2.2772 -2.6656 0.0759 0 7
-34.9486 1.9611 -2.6656 0.0759 0 7
-34.9649 1.6447 -2.6656 0.0759 0 7
-34.9784 1.3283 -2.6656 0.0759 0 7
-34.9890 1.0117 -2.6656 0.0759 0 7
-34.9967 0.6951 -2.6656 0.0759 0 7
-35.0016 0.3784 -2.6656 0.0759 0 7
-35.0036 0.0617 -2.6656 0.0759 0 7
-35.0027 -0.2550 -2.6656 0.0759 0 7
-34.9989 -0.5717 -2.6656 0.0759 0 7
-34.9923 -0.8884 -2.6656 0.0759 0 7
-34.9829 -1.2050 -2.6656 0.0759 0 7
-34.9705 -1.5215 -2.6656 0.0759 0 7
-34.9553 -1.8378 -2.6656 0.0759 0 7
-34.9372 -2.1541 -2.6656 0.0759 0 6
-34.9163 -2.4701 -2.6656 0.0759 0 7
-34.8926 -2.7859 -2.6656 0.0759 0 7
-34.8659 -3.1015 -2.6656 0.0759 0 7
-34.8364 -3.4169 -2.6656 0.0759 0 7
-34.8041 -3.7320 -2.6656 0.0759 0 7
-34.7689 -4.0467 -2.6656 0.0759 0 7
-34.7309 -4.3612 -2.6656 0.0759 0 7
-34.6900 -4.6752 -2.6656 0.0759 0 7
-34.6463 -4.9889 -2.6656 0.0759 0 7
-34.5997 -5.3022 -2.6656 0.0759 0 7
-34.5503 -5.6151 -2.6656 0.0759 0 7
-34.4981 -5.9275 -2.6656 0.0759 0 7
-34.4430 -6.2394 -2.6656 0.0759 0 7
-34.3852 -6.5508 -2.6656 0.0759 0 7
-34.3245 -6.8616 -2.6656 0.0759 0 7
-34.2610 -7.1719 -2.6656 0.0759 0 7
-34.1947 -7.4817 -2.6656 0.0759 0 7
-34.1256 -7.7908 -2.6656 0.0759 0 7
-34.0537 -8.0992 -2.6656 0.0759 0 7
-33.9790 -8.4070 -2.6656 0.0759 0 7
-33.9016 -8.7141 -2.6656 0.0759 0 7
-33.8213 -9.0205 -2.6656 0.0759 0 7
-33.7383 -9.3262 -2.6656 0.0759 0 7
-33.6526 -9.6311 -2.6656 0.0759 0 7
-33.5640 -9.9352 -2.6656 0.0759 0 7
-33.4728 -10.2385 -2.6656 0.0759 0 7
-33.3788 -10.5409 -2.6656 0.0759 0 7
-33.2820 -10.8425 -2.6656 0.0759 0 7
-33.1825 -11.1432 -2.6656 0.0759 0 7
-33.0804 -11.4430 -2.6656 0.0759 0 7
-32.9305 -11.7259 -2.6620 0.0831 0 8
-32.7163 -11.9842 -2.6533 0.4393 0 8
-32.0251 -12.0608 -2.6060 0.4473 0 8
-31.3581 -12.1347 -2.5606 0.4553 0 8
-30.7194 -12.2083 -2.5173 0.3769 0 8
-30.5577 -12.4654 -2.5132 0.0759 0 8
-30.4436 -12.7413 -2.5132 0.0759 0 8
-30.3271 -13.0163 -2.5132 0.0759 0 8
-30.2081 -13.2902 -2.5132 0.0759 0 8
-30.0866 -13.5630 -2.5132 0.0759 0 8
-29.9626 -13.8346 -2.5132 0.0759 0 8
-28.3240 -13.3903 -2.3858 0.5213 0 5
-28.2963 -13.6918 -2.3939 0.8494 0 5
-29.5761 -14.6428 -2.5132 0.0759 0 8
-29.4424 -14.9098 -2.5132 0.0759 0 8
-29.3063 -15.1756 -2.5132 0.0759 0 8
-29.1677 -15.4402 -2.5132 0.0759 0 8
-29.0268 -15.7034 -2.5132 0.0759 0 8
-28.8836 -15.9654 -2.5132 0.0759 0 8
-28.7379 -16.2261 -2.5132 0.0759 0 8
-28.5899 -16.4855 -2.5132 0.0759 0 8
-28.4396 -16.7435 -2.5132 0.0759 0 8
-28.2869 -17.0002 -2.5132 0.0759 0 8
-28.1320 -17.2554 -2.5132 0.0759 0 8
-27.9747 -17.5093 -2.5132 0.0759 0 8
-27.8151 -17.7617 -2.5132 0.0759 0 8
-27.6532 -18.0126 -2.5132 0.0759 0 8
-27.4891 -18.2621 -2.5132 0.0759 0 8
-27.3228 -18.5101 -2.5132 0.0759 0 8
-27.1542 -18.7565 -2.5132 0.0759 0 8
-26.9833 -19.0015 -2.5132 0.0759 0 8
-26.8103 -19.2449 -2.5132 0.0759 0 8
-26.6350 -19.4867 -2.5132 0.0759 0 8
-26.4576 -19.7269 -2.5132 0.0759 0 8
-26.2781 -19.9655 -2.5132 0.0759 0 8
-26.0963 -20.2024 -2.5132 0.0759 0 8
-25.9125 -20.4377 -2.5132 0.0759 0 8
-25.7265 -20.6714 -2.5132 0.0759 0 8
-25.5384 -20.9033 -2.5132 0.0759 0 8
-25.3482 -21.1335 -2.5132 0.0759 0 8
-25.1559 -21.3620 -2.5132 0.0759 0 8
-24.9616 -21.5888 -2.5132 0.0759 0 8
-24.7652 -21.8137 -2.5132 0.0759 0 8
-24.5669 -22.0369 -2.5132 0.0759 0 8
-24.3664 -22.2583 -2.5132 0.0759 0 8
-24.1640 -22.4779 -2.5132 0.0759 0 8
-23.9597 -22.6956 -2.5132 0.0759 0 8
-23.7533 -22.9115 -2.5132 0.0759 0 8
-23.5450 -23.1255 -2.5132 0.0759 0 8
-23.3348 -23.3376 -2.5132 0.0759 0 8
-23.1227 -23.5478 -2.5132 0.0759 0 8
-22.9087 -23.7560 -2.5132 0.0759 0 8
-22.6928 -23.9623 -2.5132 0.0759 0 8
-22.4750 -24.1667 -2.5132 0.0759 0 8
-22.2554 -24.3692 -2.5132 0.0759 0 8
-22.0340 -24.5695 -2.5132 0.0759 0 8
-21.8108 -24.7678 -2.5132 0.0759 0 8
-21.5858 -24.9641 -2.5132 0.0759 0 8
-21.3591 -25.1584 -2.5132 0.0759 0 8
-21.1306 -25.3507 -2.5132 0.0759 0 8
-20.9003 -25.5408 -2.5132 0.0759 0 8
-20.6683 -25.7289 -2.5132 0.0759 0 8
-20.4347 -25.9148 -2.5132 0.0759 0 8
-20.1994 -26.0987 -2.5132 0.0759 0 8
-19.9624 -26.2804 -2.5132 0.0759 0 8
-19.7238 -26.4599 -2.5132 0.0759 0 8
-19.4836 -26.6373 -2.5132 0.0759 0 8
-19.2417 -26.8125 -2.5132 0.0759 0 8
-18.9983 -26.9856 -2.5132 0.0759 0 8
-18.7534 -27.1564 -2.5132 0.0759 0 8
-18.5069 -27.3249 -2.5132 0.0759 0 8
-18.2589 -27.4913 -2.5132 0.0759 0 8
-18.0094 -27.6554 -2.5132 0.0759 0 8
-17.7584 -27.8171 -2.5132 0.0759 0 8
-17.5060 -27.9767 -2.5132 0.0759 0 8
-17.2521 -28.1340 -2.5132 0.0759 0 8
-16.9968 -28.2890 -2.5132 0.0759 0 8
-16.7402 -28.4416 -2.5132 0.0759 0 8
-16.4821 -28.5919 -2.5132 0.0759 0 8
-16.2228 -28.7398 -2.5132 0.0759 0 8
-15.9620 -28.8855 -2.5132 0.0759 0 8
-15.7000 -29.0287 -2.5132 0.0759 0 8
-15.4367 -29.1696 -2.5132 0.0759 0 8
-15.1721 -29.3081 -2.5132 0.0759 0 8
-14.9063 -29.4441 -2.5132 0.0759 0 8
-14.6393 -29.5778 -2.5132 0.0759 0 8
-14.3711 -29.7091 -2.5132 0.0759 0 8
-14.1017 -29.8379 -2.5132 0.0759 0 8
-13.8311 -29.9642 -2.5132 0.0759 0 8
-13.5594 -30.0881 -2.5132 0.0759 0 8
-13.2866 -30.2096 -2.5132 0.0759 0 8
-13.0127 -30.3286 -2.5132 0.0759 0 8
-12.7378 -30.4452 -2.5132 0.0759 0 8
-12.4618 -30.5591 -2.5132 0.0759 0 8
-12.1848 -30.6706 -2.5132 0.0759 0 8
-11.9067 -30.7796 -2.5132 0.0759 0 8
-11.6277 -30.8861 -2.5132 0.0759 0 8
-8.7125 -23.7932 -1.9296 0.9768 0 9
-8.4814 -23.8278 -1.9261 0.9786 0 9
-8.2512 -23.8623 -1.9228 0.9803 0 9
-8.0218 -23.8967 -1.9196 0.9819 0 9
-7.7930 -23.9309 -1.9166 0.9834 0 9
-7.5650 -23.9651 -1.9138 0.9848 0 9
-7.3377 -23.9992 -1.9111 0.9862 0 9
-7.1109 -24.0332 -1.9086 0.9875 0 9
-6.8847 -24.0671 -1.9063 0.9887 0 9
-6.6591 -24.1009 -1.9041 0.9898 0 9
-6.4339 -24.1346 -1.9021 0.9909 0 9
-6.6432 -25.8576 -2.0331 0.1023 0 9
-7.9226 -32.0373 -2.5132 0.0759 0 8
-7.6324 -32.1077 -2.5132 0.0759 0 8
-7.3416 -32.1754 -2.5132 0.0759 0 8
-7.0501 -32.2405 -2.5132 0.0759 0 8
-6.7581 -32.3030 -2.5132 0.0759 0 8
-6.4655 -32.3628 -2.5132 0.0759 0 8
-6.1724 -32.4200 -2.5132 0.0759 0 8
-5.8788 -32.4745 -2.5132 0.0759 0 8
-5.5848 -32.5264 -2.5132 0.0759 0 8
-5.2902 -32.5756 -2.5132 0.0759 0 8
-4.9953 -32.6221 -2.5132 0.0759 0 8
-4.6999 -32.6660 -2.5132 0.0759 0 8
-4.4041 -32.7072 -2.5132 0.0759 0 8
-4.1079 -32.7457 -2.5132 0.0759 0 8
-3.8115 -32.7815 -2.5132 0.0759 0 8
-3.5147 -32.8147 -2.5132 0.0759 0 8
-3.2177 -32.8451 -2.5132 0.0759 0 8
-2.9203 -32.8729 -2.5132 0.0759 0 8
-2.6228 -32.8980 -2.5132 0.0759 0 8
-2.3250 -32.9204 -2.5132 0.0759 0 8
-2.0270 -32.9401 -2.5132 0.0759 0 8
-1.7289 -32.9570 -2.5132 0.0759 0 8
-1.4306 -32.9714 -2.5132 0.0759 0 8
-1.1322 -32.9829 -2.5132 0.0759 0 8
-0.8337 -32.9918 -2.5132 0.0759 0 8
-0.5352 -32.9980 -2.5132 0.0759 0 8
-0.2366 -33.0015 -2.5132 0.0759 0 8
0.0620 -33.0023 -2.5132 0.0759 0 8
0.3607 -33.0004 -2.5132 0.0759 0 8
0.6593 -32.9958 -2.5132 0.0759 0 8
1.0159 -34.9889 -2.6656 0.0759 0 7
0.9588 -25.1705 -1.9182 0.1456 0 5
1.1814 -25.0515 -1.9099 0.9879 0 5
1.9652 -34.9484 -2.6656 0.0759 0 7
2.2813 -34.9292 -2.6656 0.0759 0 7
2.5973 -34.9071 -2.6656 0.0759 0 7
2.9130 -34.8822 -2.6656 0.0759 0 6
3.2285 -34.8544 -2.6656 0.0759 0 7
3.5438 -34.8238 -2.6656 0.0759 0 7
3.8587 -34.7903 -2.6656 0.0759 0 7
4.1734 -34.7539 -2.6656 0.0759 0 7
4.4877 -34.7147 -2.6656 0.0759 0 7
4.8016 -34.6727 -2.6656 0.0759 0 7
5.1151 -34.6278 -2.6656 0.0759 0 7
5.4283 -34.5801 -2.6656 0.0759 0 7
5.7409 -34.5296 -2.6656 0.0759 0 7
6.0531 -34.4763 -2.6656 0.0759 0 7
6.3648 -34.4201 -2.6656 0.0759 0 7
6.6760 -34.3611 -2.6656 0.0759 0 7
6.9866 -34.2992 -2.6656 0.0759 0 7
7.2967 -34.2346 -2.6656 0.0759 0 7
7.6062 -34.1672 -2.6656 0.0759 0 7
7.9150 -34.0970 -2.6656 0.0759 0 7
8.2232 -34.0240 -2.6656 0.0759 0 7
8.5307 -33.9482 -2.6656 0.0759 0 7
8.8376 -33.8696 -2.6656 0.0759 0 7
9.1437 -33.7882 -2.6656 0.0759 0 7
9.4490 -33.7041 -2.6656 0.0759 0 7
9.7536 -33.6172 -2.6656 0.0759 0 7
10.0574 -33.5276 -2.6656 0.0759 0 7
10.3603 -33.4352 -2.6656 0.0759 0 7
10.6625 -33.3401 -2.6656 0.0759 0 7
10.9637 -33.2423 -2.6656 0.0759 0 7
11.2640 -33.1417 -2.6656 0.0759 0 7
11.5635 -33.0384 -2.6656 0.0759 0 7
11.8620 -32.9325 -2.6656 0.0759 0 7
12.1594 -32.8238 -2.6656 0.0759 0 7
12.4559 -32.7124 -2.6656 0.0759 0 7
12.7514 -32.5984 -2.6656 0.0759 0 7
13.0459 -32.4817 -2.6656 0.0759 0 7
13.3392 -32.3623 -2.6656 0.0759 0 7
13.6315 -32.2403 -2.6656 0.0759 0 7
13.9227 -32.1156 -2.6656 0.0759 0 7
14.2127 -31.9883 -2.6656 0.0759 0 7
14.5016 -31.8584 -2.6656 0.0759 0 7
14.7892 -31.7259 -2.6656 0.0759 0 7
15.0757 -31.5907 -2.6656 0.0759 0 7
15.3609 -31.4531 -2.6656 0.0759 0 7
15.6449 -31.3128 -2.6656 0.0759 0 7
15.9276 -31.1699 -2.6656 0.0759 0 7
16.2090 -31.0245 -2.6656 0.0759 0 7
16.4890 -30.8766 -2.6656 0.0759 0 7
16.7678 -30.7261 -2.6656 0.0759 0 7
17.0451 -30.5731 -2.6656 0.0759 0 7
17.3210 -30.4177 -2.6656 0.0759 0 7
17.5955 -30.2597 -2.6656 0.0759 0 7
17.8686 -30.0993 -2.6656 0.0759 0 6
18.1402 -29.9363 -2.6656 0.0759 0 7
18.4104 -29.7710 -2.6656 0.0759 0 7
18.6790 -29.6032 -2.6656 0.0759 0 7
18.9461 -29.4329 -2.6656 0.0759 0 7
19.2116 -29.2603 -2.6656 0.0759 0 7
19.4756 -29.0853 -2.6656 0.0759 0 7
19.7380 -28.9078 -2.6656 0.0759 0 7
19.9969 -28.7255 -2.6654 0.0868 0 8
20.2290 -28.5052 -2.6618 0.0870 0 8
20.4589 -28.2835 -2.6583 0.0871 0 8
20.5232 -27.8383 -2.6338 0.6678 0 8
20.5715 -27.3816 -2.6081 0.6744 0 8
20.6188 -26.9336 -2.5831 0.6809 0 8
20.6651 -26.4941 -2.5588 0.6874 0 8
20.7106 -26.0626 -2.5351 0.6938 0 8
20.7650 -25.6510 -2.5132 0.0759 0 8
20.9962 -25.4620 -2.5132 0.0759 0 8
21.2257 -25.2710 -2.5132 0.0759 0 8
21.4535 -25.0779 -2.5132 0.0759 0 8
21.6796 -24.8828 -2.5132 0.0759 0 8
21.9038 -24.6856 -2.5132 0.0759 0 8
22.1263 -24.4864 -2.5132 0.0759 0 8
22.3469 -24.2852 -2.5132 0.0759 0 8
22.5658 -24.0820 -2.5132 0.0759 0 8
22.7827 -23.8768 -2.5132 0.0759 0 8
22.9979 -23.6697 -2.5132 0.0759 0 8
23.2111 -23.4606 -2.5132 0.0759 0 8
23.4224 -23.2497 -2.5132 0.0759 0 8
23.6318 -23.0367 -2.5132 0.0759 0 8
23.8393 -22.8220 -2.5132 0.0759 0 8
24.0448 -22.6053 -2.5132 0.0759 0 8
24.2484 -22.3868 -2.5132 0.0759 0 8
24.4500 -22.1665 -2.5132 0.0759 0 8
24.6495 -21.9444 -2.5132 0.0759 0 8
24.8471 -21.7205 -2.5132 0.0759 0 8
25.0426 -21.4948 -2.5132 0.0759 0 8
25.2361 -21.2673 -2.5132 0.0759 0 8
22.0636 -18.2549 -2.1807 0.8333 0 5
22.2498 -18.0723 -2.1829 0.5465 0 5
25.8040 -20.5745 -2.5132 0.0759 0 8
25.9891 -20.3401 -2.5132 0.0759 0 8
26.1721 -20.1042 -2.5132 0.0759 0 8
26.3530 -19.8665 -2.5132 0.0759 0 8
22.7651 -16.8409 -2.1564 0.8505 0 9
22.7913 -16.5433 -2.1447 0.8552 0 9
22.8172 -16.2489 -2.1332 0.8598 0 9
22.8428 -15.9576 -2.1220 0.8643 0 9
22.8682 -15.6694 -2.1111 0.8688 0 9
22.8933 -15.3840 -2.1005 0.8732 0 9
22.9182 -15.1015 -2.0901 0.8775 0 9
22.9246 -14.8100 -2.0784 0.8818 0 9
23.1538 -14.6629 -2.0871 0.4575 0 9
23.7018 -14.7111 -2.1244 0.4495 0 9
24.2697 -14.7611 -2.1632 0.4414 0 9
24.8589 -14.8130 -2.2037 0.4333 0 9
28.5339 -16.6548 -2.5160 0.0725 0 8
28.6890 -16.3992 -2.5165 0.0725 0 8
28.8418 -16.1420 -2.5170 0.0725 0 8
28.9921 -15.8833 -2.5175 0.0725 0 8
29.1400 -15.6233 -2.5179 0.0725 0 8
29.2854 -15.3617 -2.5184 0.0724 0 8
29.4284 -15.0988 -2.5188 0.0724 0 8
29.5689 -14.8344 -2.5193 0.0724 0 8
29.7070 -14.5687 -2.5197 0.0724 0 8
29.8425 -14.3017 -2.5201 0.0724 0 8
29.9755 -14.0333 -2.5205 0.0724 0 8
30.1060 -13.7637 -2.5209 0.0724 0 8
30.2339 -13.4928 -2.5213 0.0724 0 8
28.0163 -12.2003 -2.3270 0.1446 0 19
28.0803 -11.9271 -2.3233 0.4892 0 19
28.1829 -11.6708 -2.3230 0.7040 0 19
30.7196 -12.3969 -2.5227 0.0723 0 8
30.8346 -12.1200 -2.5230 0.0723 0 8
30.9470 -11.8420 -2.5234 0.0723 0 8
31.0567 -11.5630 -2.5237 0.0723 0 8
31.1638 -11.2828 -2.5240 0.0723 0 8
31.2683 -11.0016 -2.5243 0.0723 0 8
31.3700 -10.7195 -2.5245 0.0723 0 8
31.4691 -10.4363 -2.5248 0.0723 0 8
31.5655 -10.1522 -2.5251 0.0723 0 8
31.6592 -9.8671 -2.5253 0.0722 0 8
31.7502 -9.5812 -2.5256 0.0722 0 8
31.8385 -9.2943 -2.5258 0.0722 0 8
31.9241 -9.0066 -2.5260 0.0722 0 8
32.0068 -8.7181 -2.5262 0.0722 0 8
32.0867 -8.4288 -2.5264 0.0722 0 8
32.1640 -8.1387 -2.5266 0.0722 0 8
32.2386 -7.8479 -2.5268 0.0722 0 8
28.4246 -6.6476 -2.2230 0.4270 0 19
28.5038 -6.3946 -2.2246 0.4344 0 19
32.4457 -6.9712 -2.5272 0.0722 0 8
32.5092 -6.6777 -2.5274 0.0722 0 8
32.5698 -6.3836 -2.5275 0.0722 0 8
32.6277 -6.0889 -2.5276 0.0722 0 8
32.6828 -5.7936 -2.5277 0.0722 0 8
32.7350 -5.4979 -2.5278 0.0722 0 8
32.7845 -5.2016 -2.5279 0.0722 0 8
32.8311 -4.9049 -2.5279 0.0722 0 8
32.8749 -4.6077 -2.5280 0.0722 0 8
32.9158 -4.3101 -2.5280 0.0722 0 8
32.9537 -4.0122 -2.5281 0.0722 0 8
32.9890 -3.7139 -2.5281 0.0722 0 8
33.0214 -3.4152 -2.5281 0.0722 0 8
33.0510 -3.1163 -2.5281 0.0722 0 8
33.0778 -2.8171 -2.5281 0.0722 0 8
33.1017 -2.5177 -2.5281 0.0722 0 8
25.4245 -1.7025 -1.9405 0.0892 0 9
33.1410 -1.9182 -2.5280 0.0722 0 8
33.1563 -1.6182 -2.5280 0.0722 0 8
33.1688 -1.3181 -2.5279 0.0722 0 8
25.1768 -0.7724 -1.9182 0.9225 0 9
25.0891 -0.5426 -1.9111 0.9259 0 9
25.1848 -0.3167 -1.9180 0.7854 0 9
29.0184 -0.1023 -2.2099 0.4584 0 19
29.0479 0.1604 -2.2121 0.3975 0 19
26.7664 0.3901 -2.0386 0.9824 0 9
25.4630 0.6016 -1.9396 0.1033 0 9
33.1656 1.0839 -2.5270 0.0722 0 8
33.1523 1.3838 -2.5268 0.0722 0 8
33.1363 1.6837 -2.5267 0.0722 0 8
33.1174 1.9833 -2.5265 0.0722 0 8
24.0081 1.6559 -1.8326 0.9844 0 5
33.0710 2.5819 -2.5261 0.0722 0 8
33.0435 2.8807 -2.5259 0.0722 0 8
33.0132 3.1793 -2.5257 0.0723 0 8
32.9801 3.4776 -2.5255 0.0723 0 8
32.9441 3.7755 -2.5252 0.0723 0 8
32.9054 4.0731 -2.5250 0.0723 0 8
32.8638 4.3702 -2.5247 0.0723 0 8
32.8193 4.6669 -2.5244 0.0723 0 8
32.7719 4.9630 -2.5241 0.0723 0 8
32.7218 5.2588 -2.5238 0.0723 0 8
32.6690 5.5540 -2.5235 0.0723 0 8
32.6133 5.8486 -2.5232 0.0723 0 8
30.0607 5.6720 -2.3296 0.7224 0 19
29.7771 5.8980 -2.3117 0.4482 0 19
30.0885 6.2432 -2.3401 0.8518 0 19
32.3630 7.0211 -2.5219 0.0724 0 8
32.2935 7.3127 -2.5215 0.0724 0 8
32.2212 7.6034 -2.5211 0.0724 0 8
32.1462 7.8935 -2.5207 0.0724 0 8
32.0684 8.1827 -2.5204 0.0724 0 8
31.9880 8.4712 -2.5200 0.0724 0 8
31.9048 8.7589 -2.5195 0.0724 0 8
31.8189 9.0457 -2.5191 0.0724 0 8
31.7303 9.3316 -2.5187 0.0725 0 8
31.6390 9.6166 -2.5182 0.0725 0 8
31.5449 9.9007 -2.5178 0.0725 0 8
31.4483 10.1839 -2.5173 0.0725 0 8
31.3490 10.4660 -2.5168 0.0725 0 8
31.2470 10.7472 -2.5164 0.0725 0 8
31.1424 11.0274 -2.5159 0.0725 0 8
31.0352 11.3065 -2.5154 0.0726 0 8
30.9254 11.5845 -2.5149 0.0726 0 8
30.8129 11.8614 -2.5144 0.0726 0 8
30.6979 12.1372 -2.5138 0.0726 0 8
30.1716 12.2459 -2.4797 0.4383 0 19
30.4660 12.6877 -2.5132 0.0759 0 8
30.3500 12.9628 -2.5132 0.0759 0 8
30.2314 13.2369 -2.5132 0.0759 0 8
30.1104 13.5099 -2.5132 0.0759 0 8
29.9870 13.7818 -2.5132 0.0759 0 8
29.8610 14.0526 -2.5132 0.0759 0 8
29.7327 14.3222 -2.5132 0.0759 0 8
25.2600 12.4506 -2.1446 0.6802 0 19
29.4686 14.8579 -2.5132 0.0759 0 8
29.3330 15.1239 -2.5132 0.0759 0 8
25.4048 13.3909 -2.1870 0.5551 0 19
25.1513 13.5496 -2.1756 0.8232 0 19
25.1844 13.8629 -2.1892 0.8181 0 19
28.7665 16.1755 -2.5132 0.0759 0 8
25.4525 14.6167 -2.2352 0.5847 0 19
25.2974 14.8336 -2.2332 0.8023 0 19
25.3323 15.1637 -2.2483 0.7970 0 19
28.1623 17.2058 -2.5132 0.0759 0 8
28.0055 17.4599 -2.5132 0.0759 0 8
27.8463 17.7126 -2.5132 0.0759 0 8
27.6849 17.9639 -2.5132 0.0759 0 8
27.5213 18.2136 -2.5132 0.0759 0 8
27.3553 18.4619 -2.5132 0.0759 0 8
27.1872 18.7087 -2.5132 0.0759 0 8
27.0168 18.9539 -2.5132 0.0759 0 8
26.8441 19.1976 -2.5132 0.0759 0 8
26.6693 19.4397 -2.5132 0.0759 0 8
26.4923 19.6802 -2.5132 0.0759 0 8
26.3132 19.9191 -2.5132 0.0759 0 8
26.1319 20.1564 -2.5132 0.0759 0 8
25.9484 20.3920 -2.5132 0.0759 0 8
25.7629 20.6260 -2.5132 0.0759 0 8
25.5752 20.8583 -2.5132 0.0759 0 8
25.3854 21.0888 -2.5132 0.0759 0 8
25.2316 21.3499 -2.5170 0.5463 0 8
25.2645 21.7730 -2.5399 0.6925 0 8
25.3014 22.2070 -2.5637 0.6861 0 8
25.3389 22.6491 -2.5881 0.6796 0 8
25.3772 23.0997 -2.6133 0.6731 0 8
25.4161 23.5592 -2.6391 0.6665 0 8
25.3918 23.9674 -2.6590 0.0871 0 8
25.2073 24.2284 -2.6625 0.0869 0 8
25.0160 24.4837 -2.6656 0.0759 0 7
24.7934 24.7091 -2.6656 0.0759 0 7
24.5688 24.9324 -2.6656 0.0759 0 7
24.3422 25.1537 -2.6656 0.0759 0 7
24.1136 25.3729 -2.6656 0.0759 0 7
23.8830 25.5901 -2.6656 0.0759 0 7
23.6505 25.8051 -2.6656 0.0759 0 7
23.4161 26.0181 -2.6656 0.0759 0 7
23.1797 26.2289 -2.6656 0.0759 0 6
22.9414 26.4376 -2.6656 0.0759 0 7
22.7013 26.6441 -2.6656 0.0759 0 7
22.4592 26.8484 -2.6656 0.0759 0 7
22.2154 27.0505 -2.6656 0.0759 0 7
21.9697 27.2504 -2.6656 0.0759 0 7
21.7222 27.4481 -2.6656 0.0759 0 7
21.4730 27.6435 -2.6656 0.0759 0 7
21.2220 27.8367 -2.6656 0.0759 0 7
20.9692 28.0275 -2.6656 0.0759 0 7
20.7148 28.2161 -2.6656 0.0759 0 7
20.4586 28.4024 -2.6656 0.0759 0 7
20.2008 28.5864 -2.6656 0.0759 0 7
19.9413 28.7680 -2.6656 0.0759 0 7
19.6802 28.9473 -2.6656 0.0759 0 7
19.4174 29.1241 -2.6656 0.0759 0 7
19.1531 29.2987 -2.6656 0.0759 0 7
18.8872 29.4708 -2.6656 0.0759 0 7
18.6198 29.6404 -2.6656 0.0759 0 7
18.3508 29.8077 -2.6656 0.0759 0 7
18.0804 29.9725 -2.6656 0.0759 0 7
17.8084 30.1349 -2.6656 0.0759 0 7
17.5350 30.2948 -2.6656 0.0759 0 7
17.2602 30.4522 -2.6656 0.0759 0 7
16.9839 30.6072 -2.6656 0.0759 0 7
16.7063 30.7596 -2.6656 0.0759 0 6
16.4273 30.9095 -2.6656 0.0759 0 7
16.1469 31.0569 -2.6656 0.0759 0 7
15.8653 31.2017 -2.6656 0.0759 0 7
15.5823 31.3440 -2.6656 0.0759 0 7
15.2980 31.4837 -2.6656 0.0759 0 7
15.0125 31.6208 -2.6656 0.0759 0 7
14.7258 31.7554 -2.6656 0.0759 0 7
14.4379 31.8873 -2.6656 0.0759 0 7
14.1487 32.0167 -2.6656 0.0759 0 7
13.8585 32.1434 -2.6656 0.0759 0 7
13.5671 32.2674 -2.6656 0.0759 0 7
13.2745 32.3889 -2.6656 0.0759 0 6
12.9809 32.5077 -2.6656 0.0759 0 7
12.6863 32.6238 -2.6656 0.0759 0 7
12.3906 32.7372 -2.6656 0.0759 0 7
2.3556 6.3980 -0.5192 0.9667 0 12
2.2925 6.4047 -0.5180 0.9689 0 12
2.2296 6.4114 -0.5169 0.9710 0 12
2.1670 6.4180 -0.5159 0.9730 0 12
2.1047 6.4246 -0.5148 0.9749 0 12
2.0426 6.4311 -0.5139 0.9768 0 12
1.9807 6.4377 -0.5129 0.9786 0 12
1.9191 6.4442 -0.5120 0.9803 0 12
9.6864 33.6367 -2.6656 0.0759 0 7
9.3817 33.7229 -2.6656 0.0759 0 7
9.0762 33.8064 -2.6656 0.0759 0 7
8.7699 33.8872 -2.6656 0.0759 0 7
8.4629 33.9651 -2.6656 0.0759 0 7
8.1552 34.0403 -2.6656 0.0759 0 7
7.8449 34.1044 -2.6650 0.0737 0 8
7.1069 32.2281 -2.5132 0.0759 0 8
3.9330 18.6352 -1.4504 0.3485 0 9
3.6877 18.2906 -1.4209 0.9868 0 9
3.5171 18.2978 -1.4189 0.9882 0 9
3.3471 18.3050 -1.4171 0.9894 0 9
3.1807 18.3308 -1.4168 0.6096 0 9
3.0506 18.5775 -1.4337 0.6025 0 9
5.0527 32.6133 -2.5132 0.0759 0 8
24.3353 0.0000 -2.4055 0.9829 0 9
24.3703 0.2205 -2.4090 0.9814 0 9
24.4053 0.4417 -2.4128 0.9799 0 9
24.4405 0.6636 -2.4168 0.9783 0 9
25.4089 0.9201 -2.5132 0.0984 0 8
25.3995 1.1499 -2.5132 0.0984 0 8
25.3880 1.3797 -2.5132 0.0984 0 8
24.2367 1.5372 -2.4005 0.1711 0 5
23.9937 1.7399 -2.3779 0.9828 0 5
25.3412 2.0683 -2.5132 0.0984 0 8
25.3215 2.2975 -2.5132 0.0984 0 8
25.2997 2.5265 -2.5132 0.0984 0 8
25.2758 2.7553 -2.5132 0.0984 0 8
25.2498 2.9839 -2.5132 0.0984 0 8
25.2218 3.2123 -2.5132 0.0984 0 8
25.1917 3.4404 -2.5132 0.0984 0 8
25.1595 3.6682 -2.5132 0.0984 0 8
25.1253 3.8957 -2.5132 0.0984 0 8
25.0890 4.1229 -2.5132 0.0984 0 8
25.0507 4.3497 -2.5132 0.0984 0 8
25.0103 4.5762 -2.5132 0.0984 0 8
24.9679 4.8023 -2.5132 0.0984 0 8
24.9234 5.0280 -2.5132 0.0984 0 8
24.8769 5.2533 -2.5132 0.0984 0 8
24.8283 5.4782 -2.5132 0.0984 0 8
24.7777 5.7026 -2.5132 0.0984 0 8
24.7251 5.9266 -2.5132 0.0984 0 8
24.6705 6.1501 -2.5132 0.0984 0 8
24.6138 6.3731 -2.5132 0.0984 0 8
24.5552 6.5955 -2.5132 0.0984 0 8
24.4945 6.8174 -2.5132 0.0984 0 8
24.4318 7.0388 -2.5132 0.0984 0 8
24.3671 7.2596 -2.5132 0.0984 0 8
24.3004 7.4798 -2.5132 0.0984 0 8
24.2317 7.6993 -2.5132 0.0984 0 8
24.1611 7.9183 -2.5132 0.0984 0 8
24.0884 8.1366 -2.5132 0.0984 0 8
24.0138 8.3542 -2.5132 0.0984 0 8
24.0135 8.5984 -2.5212 0.9037 0 8
24.0357 8.8526 -2.5319 0.8999 0 8
24.0581 9.1089 -2.5428 0.8961 0 8
24.0806 9.3674 -2.5540 0.8921 0 8
24.1033 9.6282 -2.5656 0.8881 0 8
24.1262 9.8914 -2.5774 0.8840 0 8
24.1492 10.1571 -2.5896 0.8799 0 8
24.1724 10.4252 -2.6021 0.8756 0 8
24.1958 10.6960 -2.6149 0.8714 0 8
24.2194 10.9695 -2.6281 0.8670 0 8
24.2432 11.2457 -2.6416 0.8625 0 8
24.2672 11.5248 -2.6555 0.8580 0 8
24.1987 11.7618 -2.6595 0.1128 0 8
24.1084 11.9888 -2.6614 0.1127 0 8
24.0162 12.2152 -2.6633 0.1126 0 8
23.9222 12.4411 -2.6653 0.1125 0 8
23.8116 12.6586 -2.6656 0.0984 0 7
23.6961 12.8736 -2.6656 0.0984 0 7
23.5787 13.0875 -2.6656 0.0984 0 7
23.4593 13.3003 -2.6656 0.0984 0 7
23.3380 13.5120 -2.6656 0.0984 0 7
23.2148 13.7226 -2.6656 0.0984 0 7
23.0896 13.9321 -2.6656 0.0984 0 7
22.9626 14.1405 -2.6656 0.0984 0 7
22.8337 14.3477 -2.6656 0.0984 0 7
22.7030 14.5537 -2.6656 0.0984 0 7
22.5704 14.7585 -2.6656 0.0984 0 7
22.4359 14.9621 -2.6656 0.0984 0 7
22.2996 15.1645 -2.6656 0.0984 0 7
22.1615 15.3657 -2.6656 0.0984 0 6
22.0215 15.5656 -2.6656 0.0984 0 7
21.8798 15.7642 -2.6656 0.0984 0 7
21.7362 15.9615 -2.6656 0.0984 0 7
21.5909 16.1576 -2.6656 0.0984 0 7
21.4438 16.3523 -2.6656 0.0984 0 7
21.2950 16.5456 -2.6656 0.0984 0 7
21.1444 16.7376 -2.6656 0.0984 0 7
20.9921 16.9283 -2.6656 0.0984 0 7
20.8381 17.1175 -2.6656 0.0984 0 7
20.6823 17.3054 -2.6656 0.0984 0 7
20.5249 17.4918 -2.6656 0.0984 0 7
20.3658 17.6768 -2.6656 0.0984 0 7
20.2050 17.8603 -2.6656 0.0984 0 7
20.0426 18.0424 -2.6656 0.0984 0 7
19.8785 18.2231 -2.6656 0.0984 0 7
19.7128 18.4022 -2.6656 0.0984 0 7
19.5455 18.5798 -2.6656 0.0984 0 7
19.3766 18.7559 -2.6656 0.0984 0 7
19.2060 18.9305 -2.6656 0.0984 0 7
19.0340 19.1035 -2.6656 0.0984 0 6
18.8603 19.2749 -2.6656 0.0984 0 7
18.6852 19.4448 -2.6656 0.0984 0 7
18.5084 19.6130 -2.6656 0.0984 0 7
18.3302 19.7797 -2.6656 0.0984 0 7
18.1505 19.9448 -2.6656 0.0984 0 7
17.9693 20.1082 -2.6656 0.0984 0 7
17.7866 20.2700 -2.6656 0.0984 0 7
17.6025 20.4301 -2.6656 0.0984 0 7
17.4169 20.5885 -2.6656 0.0984 0 7
17.2299 20.7452 -2.6656 0.0984 0 7
17.0415 20.9003 -2.6656 0.0984 0 7
16.8517 21.0536 -2.6656 0.0984 0 7
16.6605 21.2053 -2.6656 0.0984 0 7
16.4679 21.3551 -2.6656 0.0984 0 7
16.2740 21.5033 -2.6656 0.0984 0 7
16.0788 21.6496 -2.6656 0.0984 0 7
15.8822 21.7943 -2.6656 0.0984 0 6
15.6844 21.9371 -2.6656 0.0984 0 6
15.4852 22.0781 -2.6656 0.0984 0 7
15.2848 22.2173 -2.6656 0.0984 0 7
15.0832 22.3547 -2.6656 0.0984 0 7
14.8803 22.4903 -2.6656 0.0984 0 7
14.6762 22.6240 -2.6656 0.0984 0 7
14.4709 22.7558 -2.6656 0.0984 0 7
14.2644 22.8859 -2.6656 0.0984 0 7
14.0567 23.0140 -2.6656 0.0984 0 7
13.8479 23.1402 -2.6656 0.0984 0 7
13.6379 23.2646 -2.6656 0.0984 0 7
13.4269 23.3871 -2.6656 0.0984 0 7
13.2147 23.5076 -2.6656 0.0984 0 7
13.0015 23.6262 -2.6656 0.0984 0 7
12.7871 23.7429 -2.6656 0.0984 0 7
12.5718 23.8576 -2.6656 0.0984 0 7
12.3554 23.9704 -2.6656 0.0984 0 7
12.1380 24.0812 -2.6656 0.0984 0 7
11.9196 24.1900 -2.6656 0.0984 0 7
11.7003 24.2969 -2.6656 0.0984 0 7
11.4799 24.4018 -2.6656 0.0984 0 7
11.2587 24.5046 -2.6656 0.0984 0 7
11.0365 24.6055 -2.6656 0.0984 0 7
10.8134 24.7044 -2.6656 0.0984 0 7
10.5894 24.8012 -2.6656 0.0984 0 7
10.3646 24.8960 -2.6656 0.0984 0 7
10.1389 24.9888 -2.6656 0.0984 0 7
9.9124 25.0795 -2.6656 0.0984 0 7
9.6850 25.1681 -2.6656 0.0984 0 7
2.3943 6.3939 -0.6749 0.9635 0 12
2.3310 6.4006 -0.6733 0.9657 0 12
2.2679 6.4073 -0.6718 0.9678 0 12
2.2052 6.4139 -0.6704 0.9699 0 12
2.1427 6.4205 -0.6691 0.9719 0 12
2.0805 6.4271 -0.6678 0.9738 0 12
2.0184 6.4337 -0.6665 0.9756 0 12
1.9567 6.4402 -0.6653 0.9773 0 12
7.6056 25.8726 -2.6656 0.0984 0 7
7.3712 25.9403 -2.6656 0.0984 0 7
7.1361 26.0060 -2.6656 0.0984 0 7
6.8907 26.0325 -2.6618 0.0956 0 8
4.6665 18.2972 -1.8665 0.1295 0 9
6.0602 24.6927 -2.5132 0.0984 0 8
4.7099 19.9703 -2.0282 0.0984 0 9
5.6123 24.7984 -2.5132 0.0984 0 8
5.3877 24.8481 -2.5132 0.0984 0 8
3.8326 18.4821 -1.8658 0.3510 0 9
3.6185 18.2799 -1.8420 0.9861 0 9
3.4483 18.2871 -1.8395 0.9875 0 9
3.2785 18.2943 -1.8371 0.9887 0 9
3.1233 18.3849 -1.8433 0.6070 0 9
2.9922 18.6328 -1.8654 0.5998 0 9
3.8041 25.1393 -2.5132 0.0984 0 8
3.5765 25.1727 -2.5132 0.0984 0 8
3.3486 25.2040 -2.5132 0.0984 0 8
3.1204 25.2333 -2.5132 0.0984 0 8
2.1469 18.7527 -1.8658 0.0858 0 9
2.6632 25.2856 -2.5132 0.0984 0 8
2.4343 25.3087 -2.5132 0.0984 0 8
2.2052 25.3297 -2.5132 0.0984 0 8
1.9759 25.3486 -2.5132 0.0984 0 8
1.7465 25.3655 -2.5132 0.0984 0 8
1.5169 25.3802 -2.5132 0.0984 0 8
1.2872 25.3929 -2.5132 0.0984 0 8
1.0574 25.4035 -2.5132 0.0984 0 8
0.8275 25.4120 -2.5132 0.0984 0 8
0.5975 25.4185 -2.5132 0.0984 0 8
0.3675 25.4229 -2.5132 0.0984 0 22
0.1374 25.4251 -2.5132 0.0984 0 22
-0.0926 25.4253 -2.5132 0.0984 0 22
-0.3227 25.4235 -2.5132 0.0984 0 22
-0.5527 25.4195 -2.5132 0.0984 0 22
-0.7827 25.4135 -2.5132 0.0984 0 22
-1.0126 25.4053 -2.5132 0.0984 0 22
-1.2425 25.3951 -2.5132 0.0984 0 22
-1.4722 25.3829 -2.5132 0.0984 0 22
-1.7018 25.3685 -2.5132 0.0984 0 22
-1.9313 25.3521 -2.5132 0.0984 0 8
-2.1606 25.3335 -2.5132 0.0984 0 8
-2.3897 25.3130 -2.5132 0.0984 0 8
-2.6187 25.2903 -2.5132 0.0984 0 8
-2.8474 25.2656 -2.5132 0.0984 0 8
-3.0759 25.2388 -2.5132 0.0984 0 8
-3.3041 25.2099 -2.5132 0.0984 0 8
-3.5321 25.1790 -2.5132 0.0984 0 8
-3.7598 25.1460 -2.5132 0.0984 0 8
-3.9872 25.1109 -2.5132 0.0984 0 8
-4.2142 25.0738 -2.5132 0.0984 0 8
-4.4409 25.0347 -2.5132 0.0984 0 8
-4.6673 24.9935 -2.5132 0.0984 0 8
-4.8932 24.9502 -2.5132 0.0984 0 8
-5.1188 24.9049 -2.5132 0.0984 0 8
-5.3439 24.8576 -2.5132 0.0984 0 8
-5.5686 24.8082 -2.5132 0.0984 0 8
-5.7929 24.7568 -2.5132 0.0984 0 8
-6.0166 24.7034 -2.5132 0.0984 0 8
-6.2399 24.6479 -2.5132 0.0984 0 8
-6.4627 24.5904 -2.5132 0.0984 0 8
-6.6849 24.5310 -2.5132 0.0984 0 8
-6.9066 24.4695 -2.5132 0.0984 0 8
-7.1277 24.4060 -2.5132 0.0984 0 8
-7.3483 24.3405 -2.5132 0.0984 0 8
-7.5682 24.2730 -2.5132 0.0984 0 8
-7.7875 24.2035 -2.5132 0.0984 0 8
-8.0062 24.1321 -2.5132 0.0984 0 8
-8.2243 24.0586 -2.5132 0.0984 0 8
-8.4416 23.9832 -2.5132 0.0984 0 8
-8.6583 23.9059 -2.5132 0.0984 0 8
-8.8742 23.8266 -2.5132 0.0984 0 8
-9.0895 23.7453 -2.5132 0.0984 0 8
-9.3039 23.6621 -2.5132 0.0984 0 8
-9.5177 23.5769 -2.5132 0.0984 0 8
-9.7306 23.4898 -2.5132 0.0984 0 8
-9.9428 23.4008 -2.5132 0.0984 0 8
-10.1541 23.3099 -2.5132 0.0984 0 8
-10.3646 23.2171 -2.5132 0.0984 0 8
-10.5743 23.1223 -2.5132 0.0984 0 8
-10.7830 23.0257 -2.5132 0.0984 0 8
-10.9909 22.9272 -2.5132 0.0984 0 8
-11.1979 22.8268 -2.5132 0.0984 0 8
-11.4040 22.7245 -2.5132 0.0984 0 8
-11.6092 22.6204 -2.5132 0.0984 0 8
-11.8134 22.5144 -2.5132 0.0984 0 8
-12.0166 22.4066 -2.5132 0.0984 0 8
-12.2189 22.2970 -2.5132 0.0984 0 8
-12.4201 22.1855 -2.5132 0.0984 0 8
-12.6204 22.0722 -2.5132 0.0984 0 8
-12.8196 21.9571 -2.5132 0.0984 0 8
-13.0177 21.8402 -2.5132 0.0984 0 8
-13.2148 21.7216 -2.5132 0.0984 0 8
-13.4108 21.6011 -2.5132 0.0984 0 8
-13.6057 21.4789 -2.5132 0.0984 0 8
-13.7995 21.3549 -2.5132 0.0984 0 8
-13.9922 21.2291 -2.5132 0.0984 0 8
-14.1837 21.1017 -2.5132 0.0984 0 8
-14.3740 20.9725 -2.5132 0.0984 0 8
-14.5632 20.8415 -2.5132 0.0984 0 8
-14.7512 20.7089 -2.5132 0.0984 0 8
-14.9380 20.5746 -2.5132 0.0984 0 8
-15.1235 20.4386 -2.5132 0.0984 0 8
-15.3079 20.3009 -2.5132 0.0984 0 8
-15.4909 20.1616 -2.5132 0.0984 0 8
-15.6727 20.0206 -2.5132 0.0984 0 8
-15.8532 19.8779 -2.5132 0.0984 0 8
-16.0324 19.7337 -2.5132 0.0984 0 8
-16.2103 19.5878 -2.5132 0.0984 0 8
-16.3869 19.4403 -2.5132 0.0984 0 8
-16.5621 19.2912 -2.5132 0.0984 0 8
-16.7360 19.1406 -2.5132 0.0984 0 8
-16.9085 18.9884 -2.5132 0.0984 0 8
-17.0796 18.8346 -2.5132 0.0984 0 8
-17.2494 18.6793 -2.5132 0.0984 0 8
-17.4177 18.5225 -2.5132 0.0984 0 8
-17.5846 18.3641 -2.5132 0.0984 0 8
-17.7500 18.2042 -2.5132 0.0984 0 8
-17.9140 18.0429 -2.5132 0.0984 0 8
-18.0765 17.8800 -2.5132 0.0984 0 8
-18.2376 17.7157 -2.5132 0.0984 0 8
-18.3971 17.5500 -2.5132 0.0984 0 8
-18.5552 17.3828 -2.5132 0.0984 0 8
-18.7117 17.2142 -2.5132 0.0984 0 8
-18.8667 17.0442 -2.5132 0.0984 0 8
-19.0201 16.8728 -2.5132 0.0984 0 8
-19.1720 16.7000 -2.5132 0.0984 0 8
-19.3224 16.5258 -2.5132 0.0984 0 8
-19.4711 16.3503 -2.5132 0.0984 0 8
-19.6182 16.1735 -2.5132 0.0984 0 8
-19.7638 15.9953 -2.5132 0.0984 0 8
-19.9077 15.8158 -2.5132 0.0984 0 8
-20.0500 15.6350 -2.5132 0.0984 0 8
-20.1906 15.4530 -2.5132 0.0984 0 8
-20.3296 15.2696 -2.5132 0.0984 0 8
-20.4670 15.0851 -2.5132 0.0984 0 8
-20.6026 14.8993 -2.5132 0.0984 0 8
-20.7366 14.7122 -2.5132 0.0984 0 8
-20.8689 14.5240 -2.5132 0.0984 0 8
-20.9994 14.3346 -2.5132 0.0984 0 8
-21.1283 14.1440 -2.5132 0.0984 0 8
-21.2554 13.9522 -2.5132 0.0984 0 8
-21.3808 13.7593 -2.5132 0.0984 0 8
-21.5044 13.5653 -2.5132 0.0984 0 8
-21.6263 13.3702 -2.5132 0.0984 0 8
-21.7464 13.1739 -2.5132 0.0984 0 8
-21.8647 12.9766 -2.5132 0.0984 0 8
-21.9812 12.7782 -2.5132 0.0984 0 8
-22.0959 12.5788 -2.5132 0.0984 0 8
-22.2088 12.3784 -2.5132 0.0984 0 8
-22.3199 12.1769 -2.5132 0.0984 0 8
-22.4292 11.9745 -2.5132 0.0984 0 8
-22.5366 11.7710 -2.5132 0.0984 0 8
-22.6422 11.5666 -2.5132 0.0984 0 8
-22.7459 11.3613 -2.5132 0.0984 0 8
-22.8478 11.1550 -2.5132 0.0984 0 8
-22.9478 10.9478 -2.5132 0.0984 0 8
-23.0459 10.7397 -2.5132 0.0984 0 8
-23.1422 10.5308 -2.5132 0.0984 0 8
-23.2365 10.3209 -2.5132 0.0984 0 8
-23.3289 10.1102 -2.5132 0.0984 0 8
-23.4195 9.8987 -2.5132 0.0984 0 8
-23.5081 9.6864 -2.5132 0.0984 0 8
-23.5948 9.4733 -2.5132 0.0984 0 8
-23.6795 9.2594 -2.5132 0.0984 0 8
-23.7623 9.0448 -2.5132 0.0984 0 8
-23.8432 8.8294 -2.5132 0.0984 0 8
-23.9221 8.6133 -2.5132 0.0984 0 8
-23.9991 8.3965 -2.5132 0.0984 0 8
-24.0741 8.1790 -2.5132 0.0984 0 8
-24.1471 7.9608 -2.5132 0.0984 0 8
-24.2181 7.7420 -2.5132 0.0984 0 8
-24.2872 7.5226 -2.5132 0.0984 0 8
-24.3543 7.3025 -2.5132 0.0984 0 8
-24.4193 7.0818 -2.5132 0.0984 0 8
-24.4824 6.8606 -2.5132 0.0984 0 8
-24.5435 6.6388 -2.5132 0.0984 0 8
-24.6026 6.4164 -2.5132 0.0984 0 8
-24.9472 6.2658 -2.5425 0.1625 0 8
-26.1460 6.3159 -2.6588 0.1007 0 8
-26.2415 6.0882 -2.6628 0.1005 0 8
-26.3236 5.8568 -2.6656 0.0984 0 7
-26.3755 5.6184 -2.6656 0.0984 0 7
-26.4253 5.3795 -2.6656 0.0984 0 7
-26.4729 5.1402 -2.6656 0.0984 0 7
-26.5183 4.9004 -2.6656 0.0984 0 7
-26.5616 4.6603 -2.6656 0.0984 0 7
-26.6026 4.4198 -2.6656 0.0984 0 7
-26.6415 4.1789 -2.6656 0.0984 0 7
-26.6783 3.9376 -2.6656 0.0984 0 6
-26.7128 3.6960 -2.6656 0.0984 0 7
-26.7452 3.4542 -2.6656 0.0984 0 7
-26.7753 3.2121 -2.6656 0.0984 0 7
-26.8033 2.9697 -2.6656 0.0984 0 6
-26.8291 2.7270 -2.6656 0.0984 0 6
-26.8526 2.4841 -2.6656 0.0984 0 6
-26.8740 2.2411 -2.6656 0.0984 0 7
-26.8932 1.9978 -2.6656 0.0984 0 7
-26.9102 1.7544 -2.6656 0.0984 0 7
-26.9249 1.5108 -2.6656 0.0984 0 7
-26.9375 1.2671 -2.6656 0.0984 0 7
-26.9479 1.0233 -2.6656 0.0984 0 7
-26.9560 0.7795 -2.6656 0.0984 0 7
-26.9620 0.5355 -2.6656 0.0984 0 7
-26.9657 0.2915 -2.6656 0.0984 0 7
-26.9672 0.0475 -2.6656 0.0984 0 7
-26.9666 -0.1965 -2.6656 0.0984 0 7
-26.9637 -0.4405 -2.6656 0.0984 0 7
-26.9586 -0.6844 -2.6656 0.0984 0 7
-26.9513 -0.9283 -2.6656 0.0984 0 7
-26.9418 -1.1722 -2.6656 0.0984 0 7
-26.9301 -1.4159 -2.6656 0.0984 0 7
-26.9162 -1.6595 -2.6656 0.0984 0 6
-26.9001 -1.9030 -2.6656 0.0984 0 7
-26.8817 -2.1463 -2.6656 0.0984 0 7
-26.8612 -2.3895 -2.6656 0.0984 0 7
-26.8385 -2.6324 -2.6656 0.0984 0 7
-26.8136 -2.8752 -2.6656 0.0984 0 7
-26.7865 -3.1177 -2.6656 0.0984 0 7
-26.7572 -3.3599 -2.6656 0.0984 0 7
-26.7257 -3.6019 -2.6656 0.0984 0 7
-26.6920 -3.8435 -2.6656 0.0984 0 7
-26.6561 -4.0849 -2.6656 0.0984 0 7
-26.6181 -4.3259 -2.6656 0.0984 0 7
-26.5778 -4.5666 -2.6656 0.0984 0 7
-26.5354 -4.8069 -2.6656 0.0984 0 7
-26.4908 -5.0468 -2.6656 0.0984 0 7
-26.4441 -5.2863 -2.6656 0.0984 0 7
-26.3952 -5.5254 -2.6656 0.0984 0 7
-26.3441 -5.7640 -2.6656 0.0984 0 7
-26.2909 -6.0021 -2.6656 0.0984 0 7
-26.2355 -6.2398 -2.6656 0.0984 0 7
-26.1779 -6.4769 -2.6656 0.0984 0 7
-26.1183 -6.7135 -2.6656 0.0984 0 6
-26.0564 -6.9495 -2.6656 0.0984 0 7
-25.9925 -7.1850 -2.6656 0.0984 0 7
-25.9264 -7.4199 -2.6656 0.0984 0 7
-25.8582 -7.6542 -2.6656 0.0984 0 7
-25.7879 -7.8879 -2.6656 0.0984 0 7
-25.7155 -8.1209 -2.6656 0.0984 0 7
-25.6409 -8.3532 -2.6656 0.0984 0 7
-25.5643 -8.5849 -2.6656 0.0984 0 7
