ply
format ascii 1.0
element vertex 1356
property float32 x
property float32 y
property float32 z
property float32 CosAngle
property uint32 ObjIdx
property uint32 ObjTag
end_header
19.5941 -18.1603 -2.6408 0.0955 0 14
19.7532 -17.9783 -2.6402 0.0955 0 14
19.9125 -17.7967 -2.6398 0.0984 0 8
20.0727 -17.6158 -2.6398 0.0984 0 8
20.2312 -17.4335 -2.6398 0.0984 0 8
20.3880 -17.2498 -2.6398 0.0984 0 8
20.5433 -17.0647 -2.6398 0.0984 0 8
20.6968 -16.8782 -2.6398 0.0984 0 8
20.8486 -16.6903 -2.6398 0.0984 0 8
20.9987 -16.5011 -2.6398 0.0984 0 8
21.1471 -16.3104 -2.6398 0.0984 0 8
21.2938 -16.1185 -2.6398 0.0984 0 8
21.4387 -15.9252 -2.6398 0.0984 0 8
21.5818 -15.7306 -2.6398 0.0984 0 8
21.7232 -15.5348 -2.6398 0.0984 0 8
21.8629 -15.3377 -2.6398 0.0984 0 8
22.0007 -15.1393 -2.6398 0.0984 0 8
22.1367 -14.9397 -2.6398 0.0984 0 8
22.2710 -14.7388 -2.6398 0.0984 0 8
22.4034 -14.5368 -2.6398 0.0984 0 8
22.5339 -14.3335 -2.6398 0.0984 0 8
22.6627 -14.1291 -2.6398 0.0984 0 8
22.7895 -13.9236 -2.6398 0.0984 0 8
22.9146 -13.7168 -2.6398 0.0984 0 8
23.0377 -13.5090 -2.6398 0.0984 0 8
23.1589 -13.3001 -2.6398 0.0984 0 8
23.2783 -13.0901 -2.6398 0.0984 0 8
23.3957 -12.8789 -2.6398 0.0984 0 8
23.5113 -12.6668 -2.6398 0.0984 0 8
23.6249 -12.4536 -2.6398 0.0984 0 8
23.7366 -12.2394 -2.6398 0.0984 0 8
23.8463 -12.0242 -2.6398 0.0984 0 8
23.9541 -11.8081 -2.6398 0.0984 0 8
24.0599 -11.5909 -2.6398 0.0984 0 8
24.1638 -11.3728 -2.6398 0.0984 0 8
24.2657 -11.1538 -2.6398 0.0984 0 8
24.4719 -10.9816 -2.6514 0.5420 0 8
24.9149 -10.9107 -2.6885 0.5345 0 8
25.3704 -10.8377 -2.7270 0.5269 0 8
25.8390 -10.7626 -2.7668 0.5194 0 8
26.1204 -10.6035 -2.7865 0.1069 0 8
26.2476 -10.3797 -2.7900 0.1067 0 8
26.3616 -10.1500 -2.7922 0.0984 0 7
26.4523 -9.9111 -2.7922 0.0984 0 7
26.5409 -9.6715 -2.7922 0.0984 0 7
26.6273 -9.4310 -2.7922 0.0984 0 7
26.7115 -9.1897 -2.7922 0.0984 0 7
26.7935 -8.9478 -2.7922 0.0984 0 7
26.8734 -8.7050 -2.7922 0.0984 0 7
26.9510 -8.4616 -2.7922 0.0984 0 7
27.0265 -8.2175 -2.7922 0.0984 0 7
27.0997 -7.9727 -2.7922 0.0984 0 7
27.1707 -7.7272 -2.7922 0.0984 0 7
27.2395 -7.4812 -2.7922 0.0984 0 7
27.3060 -7.2345 -2.7922 0.0984 0 7
27.3703 -6.9872 -2.7922 0.0984 0 7
27.4324 -6.7393 -2.7922 0.0984 0 7
27.4923 -6.4909 -2.7922 0.0984 0 7
27.5499 -6.2420 -2.7922 0.0984 0 7
27.6052 -5.9925 -2.7922 0.0984 0 7
27.6583 -5.7426 -2.7922 0.0984 0 7
27.7091 -5.4922 -2.7922 0.0984 0 7
27.7576 -5.2413 -2.7922 0.0984 0 7
27.8039 -4.9900 -2.7922 0.0984 0 7
27.8479 -4.7383 -2.7922 0.0984 0 7
27.8896 -4.4862 -2.7922 0.0984 0 7
27.9291 -4.2338 -2.7922 0.0984 0 7
27.9662 -3.9810 -2.7922 0.0984 0 7
28.0011 -3.7279 -2.7922 0.0984 0 7
28.0336 -3.4745 -2.7922 0.0984 0 7
28.0639 -3.2207 -2.7922 0.0984 0 7
28.0919 -2.9668 -2.7922 0.0984 0 7
28.1176 -2.7126 -2.7922 0.0984 0 7
28.1410 -2.4581 -2.7922 0.0984 0 7
28.1621 -2.2035 -2.7922 0.0984 0 7
28.1808 -1.9487 -2.7922 0.0984 0 7
28.1973 -1.6937 -2.7922 0.0984 0 7
28.2115 -1.4386 -2.7922 0.0984 0 7
28.2233 -1.1833 -2.7922 0.0984 0 7
28.2329 -0.9280 -2.7922 0.0984 0 7
28.2401 -0.6726 -2.7922 0.0984 0 7
28.2450 -0.4171 -2.7922 0.0984 0 7
28.2477 -0.1616 -2.7922 0.0984 0 7
28.2480 0.0939 -2.7922 0.0984 0 7
28.2460 0.3494 -2.7922 0.0984 0 7
28.2416 0.6049 -2.7922 0.0984 0 7
28.2350 0.8603 -2.7922 0.0984 0 7
28.2261 1.1157 -2.7922 0.0984 0 7
28.2148 1.3710 -2.7922 0.0984 0 7
28.2013 1.6261 -2.7922 0.0984 0 7
28.1854 1.8811 -2.7922 0.0984 0 7
28.1673 2.1360 -2.7922 0.0984 0 7
28.1468 2.3907 -2.7922 0.0984 0 7
28.1240 2.6452 -2.7922 0.0984 0 7
28.0989 2.8995 -2.7922 0.0984 0 7
28.0716 3.1535 -2.7922 0.0984 0 7
28.0419 3.4073 -2.7922 0.0984 0 7
28.0099 3.6608 -2.7922 0.0984 0 7
27.9756 3.9140 -2.7922 0.0984 0 7
27.9391 4.1669 -2.7922 0.0984 0 7
27.9003 4.4194 -2.7922 0.0984 0 7
27.8592 4.6716 -2.7922 0.0984 0 7
27.8158 4.9234 -2.7922 0.0984 0 7
27.7701 5.1748 -2.7922 0.0984 0 7
27.7221 5.4258 -2.7922 0.0984 0 7
27.6719 5.6763 -2.7922 0.0984 0 7
27.6195 5.9264 -2.7922 0.0984 0 7
27.5647 6.1760 -2.7922 0.0984 0 7
27.5077 6.4250 -2.7922 0.0984 0 7
27.4485 6.6736 -2.7922 0.0984 0 7
27.3870 6.9216 -2.7922 0.0984 0 7
27.3233 7.1690 -2.7922 0.0984 0 6
27.2573 7.4159 -2.7922 0.0984 0 7
27.1891 7.6621 -2.7922 0.0984 0 7
27.1187 7.9078 -2.7922 0.0984 0 7
27.0461 8.1527 -2.7922 0.0984 0 7
26.9712 8.3971 -2.7922 0.0984 0 7
26.8942 8.6407 -2.7922 0.0984 0 7
26.7892 8.8751 -2.7896 0.0943 0 8
25.2743 8.6277 -2.6398 0.0984 0 8
25.1953 8.8559 -2.6398 0.0984 0 8
25.1141 9.0834 -2.6398 0.0984 0 8
25.0309 9.3102 -2.6398 0.0984 0 8
24.9457 9.5363 -2.6398 0.0984 0 8
24.8584 9.7615 -2.6398 0.0984 0 8
24.7691 9.9860 -2.6398 0.0984 0 8
24.6778 10.2096 -2.6398 0.0984 0 8
24.5844 10.4324 -2.6398 0.0984 0 8
24.4891 10.6543 -2.6398 0.0984 0 8
24.3917 10.8754 -2.6398 0.0984 0 8
17.5492 8.0157 -1.9071 0.7718 0 5
24.1909 11.3149 -2.6398 0.0984 0 8
24.0876 11.5333 -2.6398 0.0984 0 8
23.9823 11.7506 -2.6398 0.0984 0 8
23.8750 11.9671 -2.6398 0.0984 0 8
23.7658 12.1825 -2.6398 0.0984 0 8
23.6547 12.3970 -2.6398 0.0984 0 8
23.5416 12.6104 -2.6398 0.0984 0 8
23.4265 12.8229 -2.6398 0.0984 0 8
23.3096 13.0343 -2.6398 0.0984 0 8
23.1907 13.2446 -2.6398 0.0984 0 8
23.0700 13.4539 -2.6398 0.0984 0 8
22.9474 13.6619 -2.6398 0.0984 0 8
22.8228 13.8689 -2.6398 0.0984 0 8
22.6965 14.0748 -2.6398 0.0984 0 8
22.5682 14.2795 -2.6398 0.0984 0 8
22.4381 14.4831 -2.6398 0.0984 0 8
22.3062 14.6854 -2.6398 0.0984 0 8
22.1725 14.8866 -2.6398 0.0984 0 8
22.0369 15.0865 -2.6398 0.0984 0 8
21.8995 15.2852 -2.6398 0.0984 0 8
21.7604 15.4827 -2.6398 0.0984 0 8
21.6195 15.6789 -2.6398 0.0984 0 8
21.4768 15.8738 -2.6398 0.0984 0 8
21.3323 16.0674 -2.6398 0.0984 0 8
21.1861 16.2597 -2.6398 0.0984 0 8
21.0381 16.4507 -2.6398 0.0984 0 8
20.8885 16.6403 -2.6398 0.0984 0 8
20.7371 16.8286 -2.6398 0.0984 0 8
20.5840 17.0155 -2.6398 0.0984 0 8
20.4293 17.2010 -2.6398 0.0984 0 8
18.4724 15.8410 -2.4054 0.4899 0 19
20.1148 17.5677 -2.6398 0.0984 0 8
19.9551 17.7489 -2.6398 0.0984 0 8
19.7937 17.9287 -2.6398 0.0984 0 8
17.0172 15.6963 -2.2884 0.5203 0 19
19.4661 18.2838 -2.6398 0.0984 0 8
16.9267 16.1893 -2.3152 0.4583 0 19
19.1322 18.6329 -2.6398 0.0984 0 8
15.0877 14.9623 -2.1004 0.9898 0 19
14.9756 15.1222 -2.1037 0.9188 0 19
18.6196 19.1452 -2.6398 0.0984 0 8
18.4457 19.3128 -2.6398 0.0984 0 8
18.2702 19.4789 -2.6398 0.0984 0 8
18.0933 19.6433 -2.6398 0.0984 0 8
13.2204 14.6161 -1.9481 0.7528 0 19
13.1913 14.8518 -1.9635 0.7469 0 19
13.0029 14.9092 -1.9555 0.7583 0 19
12.7652 14.9067 -1.9399 0.7337 0 19
12.5136 14.8833 -1.9221 0.6850 0 19
12.2558 14.8473 -1.9030 0.6271 0 19
11.9856 14.7904 -1.8818 0.6231 0 19
11.7534 14.7751 -1.8662 0.6077 0 19
11.7293 15.0217 -1.8839 0.7038 0 19
22.9546 -0.0000 -2.7922 0.1208 0 7
22.9537 0.2076 -2.7922 0.1208 0 7
22.9508 0.4152 -2.7922 0.1208 0 7
22.9461 0.6228 -2.7922 0.1208 0 7
22.9396 0.8303 -2.7922 0.1208 0 7
22.9311 1.0378 -2.7922 0.1208 0 7
22.9208 1.2452 -2.7922 0.1208 0 7
22.9086 1.4524 -2.7922 0.1208 0 7
22.8945 1.6596 -2.7922 0.1208 0 7
22.8786 1.8666 -2.7922 0.1208 0 7
22.8608 2.0735 -2.7922 0.1208 0 7
22.8411 2.2802 -2.7922 0.1208 0 7
22.8195 2.4867 -2.7922 0.1208 0 7
22.7961 2.6930 -2.7922 0.1208 0 7
22.7708 2.8991 -2.7922 0.1208 0 7
22.7436 3.1049 -2.7922 0.1208 0 7
22.7146 3.3105 -2.7922 0.1208 0 7
22.6837 3.5158 -2.7922 0.1208 0 7
22.6510 3.7209 -2.7922 0.1208 0 7
22.6164 3.9256 -2.7922 0.1208 0 7
22.5800 4.1300 -2.7922 0.1208 0 7
22.5417 4.3341 -2.7922 0.1208 0 7
22.5016 4.5378 -2.7922 0.1208 0 7
22.4596 4.7411 -2.7922 0.1208 0 7
22.4158 4.9441 -2.7922 0.1208 0 7
22.3702 5.1467 -2.7922 0.1208 0 7
22.3227 5.3488 -2.7922 0.1208 0 6
22.2734 5.5505 -2.7922 0.1208 0 7
22.2223 5.7517 -2.7922 0.1208 0 7
22.1694 5.9525 -2.7922 0.1208 0 7
22.1146 6.1528 -2.7922 0.1208 0 7
22.0581 6.3526 -2.7922 0.1208 0 7
21.9997 6.5518 -2.7922 0.1208 0 7
21.9395 6.7506 -2.7922 0.1208 0 7
21.8776 6.9488 -2.7922 0.1208 0 7
21.8138 7.1463 -2.7922 0.1208 0 7
21.7416 7.3411 -2.7914 0.1238 0 8
21.6482 7.5284 -2.7880 0.1239 0 8
21.5532 7.7146 -2.7847 0.1241 0 8
20.6669 7.6089 -2.6789 0.2249 0 8
11.4674 4.3401 -1.4915 0.2584 0 10
11.0867 4.3111 -1.4470 0.2596 0 10
10.7099 4.2765 -1.4028 0.7738 0 10
10.4432 4.2799 -1.3729 0.3067 0 10
10.0813 4.2385 -1.3303 0.2854 0 10
9.8984 4.2674 -1.3112 0.3030 0 10
9.8246 4.3413 -1.3066 0.2729 0 10
9.7863 4.4306 -1.3067 0.2397 0 10
9.7557 4.5236 -1.3081 0.2201 0 10
9.7204 4.6145 -1.3089 0.2008 0 10
9.6959 4.7108 -1.3113 0.4121 0 10
9.6888 4.8162 -1.3161 0.4259 0 10
9.6826 4.9228 -1.3213 0.4339 0 10
9.6780 5.0311 -1.3268 0.4666 0 10
9.6674 5.1372 -1.3317 0.7381 0 10
19.0711 10.3566 -2.6398 0.1208 0 8
18.9766 10.5287 -2.6398 0.1208 0 8
18.8806 10.6999 -2.6398 0.1208 0 8
18.7831 10.8702 -2.6398 0.1208 0 8
18.6840 11.0397 -2.6398 0.1208 0 8
18.5833 11.2082 -2.6398 0.1208 0 8
18.4812 11.3759 -2.6398 0.1208 0 8
18.3776 11.5426 -2.6398 0.1208 0 8
18.2724 11.7083 -2.6398 0.1208 0 8
18.1658 11.8731 -2.6398 0.1208 0 8
18.0576 12.0369 -2.6398 0.1208 0 8
17.9480 12.1998 -2.6398 0.1208 0 8
17.8369 12.3616 -2.6398 0.1208 0 8
17.7244 12.5225 -2.6398 0.1208 0 8
17.6104 12.6823 -2.6398 0.1208 0 8
17.4949 12.8410 -2.6398 0.1208 0 8
17.3781 12.9988 -2.6398 0.1208 0 8
17.2598 13.1554 -2.6398 0.1208 0 8
17.1401 13.3110 -2.6398 0.1208 0 8
17.0190 13.4655 -2.6398 0.1208 0 8
16.8965 13.6189 -2.6398 0.1208 0 8
16.7726 13.7712 -2.6398 0.1208 0 8
16.6474 13.9223 -2.6398 0.1208 0 8
16.5207 14.0723 -2.6398 0.1208 0 8
16.3928 14.2212 -2.6398 0.1208 0 8
16.2635 14.3689 -2.6398 0.1208 0 8
16.1328 14.5154 -2.6398 0.1208 0 8
16.0009 14.6607 -2.6398 0.1208 0 8
15.8676 14.8049 -2.6398 0.1208 0 8
15.7331 14.9478 -2.6398 0.1208 0 8
15.5972 15.0895 -2.6398 0.1208 0 8
15.3917 15.1625 -2.6282 0.7958 0 19
15.3217 15.3692 -2.6398 0.1208 0 8
15.1821 15.5071 -2.6398 0.1208 0 8
15.0412 15.6438 -2.6398 0.1208 0 8
14.8991 15.7792 -2.6398 0.1208 0 8
14.7557 15.9133 -2.6398 0.1208 0 8
14.6112 16.0461 -2.6398 0.1208 0 8
14.4654 16.1776 -2.6398 0.1208 0 8
13.1737 15.0040 -2.4288 0.7412 0 19
14.1704 16.4367 -2.6398 0.1208 0 8
14.0212 16.5642 -2.6398 0.1208 0 8
11.8877 14.3042 -2.2624 0.5862 0 19
13.7192 16.8151 -2.6398 0.1208 0 8
13.5666 16.9385 -2.6398 0.1208 0 8
11.7639 14.9632 -2.3153 0.6483 0 19
13.2579 17.1812 -2.6398 0.1208 0 8
11.7285 15.4868 -2.3631 0.6075 0 19
12.9450 17.4182 -2.6398 0.1208 0 8
12.7869 17.5345 -2.6398 0.1208 0 8
12.6278 17.6495 -2.6398 0.1208 0 8
12.4676 17.7630 -2.6398 0.1208 0 8
12.3064 17.8750 -2.6398 0.1208 0 8
12.1442 17.9856 -2.6398 0.1208 0 8
11.9811 18.0947 -2.6398 0.1208 0 8
11.8169 18.2024 -2.6398 0.1208 0 8
11.6518 18.3085 -2.6398 0.1208 0 8
11.4857 18.4132 -2.6398 0.1208 0 8
11.3186 18.5163 -2.6398 0.1208 0 8
11.1507 18.6179 -2.6398 0.1208 0 8
10.9818 18.7180 -2.6398 0.1208 0 8
10.8121 18.8166 -2.6398 0.1208 0 8
10.6415 18.9136 -2.6398 0.1208 0 8
10.4699 19.0091 -2.6398 0.1208 0 8
10.2976 19.1030 -2.6398 0.1208 0 8
10.1244 19.1954 -2.6398 0.1208 0 8
9.9503 19.2862 -2.6398 0.1208 0 8
9.7755 19.3754 -2.6398 0.1208 0 8
9.5998 19.4630 -2.6398 0.1208 0 8
9.4234 19.5491 -2.6398 0.1208 0 8
5.6924 12.0873 -1.6252 0.6683 0 19
5.5548 12.0774 -1.6171 0.9514 0 19
5.4582 12.1557 -1.6209 0.4594 0 19
8.7100 19.8771 -2.6398 0.1208 0 8
8.5299 19.9551 -2.6398 0.1208 0 8
8.3490 20.0314 -2.6398 0.1208 0 8
8.1675 20.1061 -2.6398 0.1208 0 8
7.9853 20.1792 -2.6398 0.1208 0 8
7.8025 20.2506 -2.6398 0.1208 0 8
7.6190 20.3204 -2.6398 0.1208 0 8
7.4349 20.3884 -2.6398 0.1208 0 8
4.8902 13.7966 -1.7805 0.9443 0 19
4.7505 13.7977 -1.7751 0.9472 0 19
4.6115 13.7983 -1.7697 0.9348 0 19
4.4715 13.7930 -1.7638 0.9379 0 19
4.3295 13.7786 -1.7568 0.9117 0 19
4.1879 13.7622 -1.7498 0.9154 0 19
4.0466 13.7430 -1.7427 0.8818 0 19
3.9036 13.7138 -1.7344 0.8793 0 19
3.7613 13.6827 -1.7261 0.8836 0 19
3.6203 13.6518 -1.7180 0.8877 0 19
3.4953 13.6787 -1.7174 0.3616 0 19
5.1824 21.0739 -2.6398 0.1208 0 8
4.9916 21.1199 -2.6398 0.1208 0 8
4.8003 21.1642 -2.6398 0.1208 0 8
4.6087 21.2067 -2.6398 0.1208 0 8
4.4167 21.2475 -2.6398 0.1208 0 8
4.2243 21.2866 -2.6398 0.1208 0 8
4.0316 21.3240 -2.6398 0.1208 0 8
3.8386 21.3596 -2.6398 0.1208 0 8
3.6452 21.3934 -2.6398 0.1208 0 8
3.4516 21.4255 -2.6398 0.1208 0 8
3.2576 21.4558 -2.6398 0.1208 0 8
3.0634 21.4844 -2.6398 0.1208 0 8
2.8690 21.5112 -2.6398 0.1208 0 8
2.6743 21.5363 -2.6398 0.1208 0 8
1.5487 13.4668 -1.6489 0.5062 0 19
1.4143 13.3624 -1.6345 0.8706 0 19
1.2934 13.3750 -1.6345 0.8465 0 19
1.1837 13.5153 -1.6503 0.4644 0 19
1.6979 21.6352 -2.6398 0.1208 0 8
1.5021 21.6497 -2.6398 0.1208 0 8
1.3062 21.6624 -2.6398 0.1208 0 8
1.1102 21.6733 -2.6398 0.1208 0 8
0.9141 21.6825 -2.6398 0.1208 0 8
0.7180 21.6899 -2.6398 0.1208 0 8
0.5217 21.6954 -2.6398 0.1208 0 8
0.3255 21.6993 -2.6398 0.1208 0 8
0.1292 21.7013 -2.6398 0.1208 0 8
-0.0671 21.7016 -2.6398 0.1208 0 8
-0.2634 21.7001 -2.6398 0.1208 0 8
-0.4597 21.6968 -2.6398 0.1208 0 8
-0.6559 21.6918 -2.6398 0.1208 0 8
-0.8521 21.6850 -2.6398 0.1208 0 8
-1.0482 21.6764 -2.6398 0.1208 0 8
-1.2442 21.6660 -2.6398 0.1208 0 8
-1.4402 21.6539 -2.6398 0.1208 0 8
-1.6360 21.6400 -2.6398 0.1208 0 8
-1.8316 21.6243 -2.6398 0.1208 0 8
-2.0271 21.6068 -2.6398 0.1208 0 8
-2.2225 21.5876 -2.6398 0.1208 0 8
-2.4177 21.5666 -2.6398 0.1208 0 8
-2.6127 21.5439 -2.6398 0.1208 0 8
-2.8074 21.5194 -2.6398 0.1208 0 8
-3.0019 21.4931 -2.6398 0.1208 0 8
-3.1962 21.4651 -2.6398 0.1208 0 8
-3.3903 21.4353 -2.6398 0.1208 0 8
-3.5840 21.4037 -2.6398 0.1208 0 8
-3.5969 20.3491 -2.5137 0.9957 0 5
-3.9706 21.3354 -2.6398 0.1208 0 8
-4.1634 21.2986 -2.6398 0.1208 0 8
-4.3559 21.2601 -2.6398 0.1208 0 8
-4.5480 21.2198 -2.6398 0.1208 0 8
-4.7398 21.1778 -2.6398 0.1208 0 8
-4.9312 21.1341 -2.6398 0.1208 0 8
-5.1221 21.0886 -2.6398 0.1208 0 8
-5.3127 21.0414 -2.6398 0.1208 0 8
-5.5028 20.9925 -2.6398 0.1208 0 8
-5.6924 20.9419 -2.6398 0.1208 0 8
-5.8816 20.8895 -2.6398 0.1208 0 8
-6.0703 20.8354 -2.6398 0.1208 0 8
-6.2585 20.7797 -2.6398 0.1208 0 8
-6.4462 20.7222 -2.6398 0.1208 0 8
-6.6334 20.6631 -2.6398 0.1208 0 8
-6.8200 20.6022 -2.6398 0.1208 0 8
-7.0061 20.5397 -2.6398 0.1208 0 8
-7.1916 20.4755 -2.6398 0.1208 0 8
-7.3765 20.4096 -2.6398 0.1208 0 8
-6.5420 17.6010 -2.2841 0.2153 0 1
-6.6804 17.4873 -2.2771 0.9671 0 1
-6.3439 16.1662 -2.1125 0.2328 0 1
-6.3328 15.7183 -2.0613 0.9629 0 1
-6.4897 15.6966 -2.0661 0.9606 0 1
-6.6473 15.6748 -2.0711 0.9583 0 1
-6.8057 15.6530 -2.0762 0.9559 0 1
-6.9650 15.6310 -2.0816 0.9535 0 1
-6.9991 15.3331 -2.0503 0.9439 0 1
-7.2860 15.5867 -2.0929 0.9483 0 1
-7.4251 15.5170 -2.0925 0.9456 0 1
-7.4838 15.2829 -2.0700 0.3105 0 1
-7.3013 14.5750 -1.9829 0.9400 0 1
-7.4561 14.5537 -1.9891 0.9371 0 1
-7.6118 14.5321 -1.9955 0.9341 0 1
-10.2429 19.1324 -2.6398 0.1208 0 8
-10.4155 19.0390 -2.6398 0.1208 0 8
-10.5873 18.9440 -2.6398 0.1208 0 8
-10.7582 18.8474 -2.6398 0.1208 0 8
-9.2244 15.8261 -2.2283 0.3779 0 1
-9.1662 15.4042 -2.1804 0.3862 0 1
-9.2697 15.2623 -2.1721 0.9110 0 1
-9.2516 14.9266 -2.1362 0.4026 0 1
-9.0634 14.3317 -2.0627 0.9037 0 1
-9.2310 14.3086 -2.0713 0.8999 0 1
-9.4000 14.2852 -2.0801 0.8961 0 1
-12.0927 18.0203 -2.6398 0.1208 0 8
-12.2552 17.9102 -2.6398 0.1208 0 8
-12.4167 17.7986 -2.6398 0.1208 0 8
-12.5772 17.6855 -2.6398 0.1208 0 8
-12.7367 17.5710 -2.6398 0.1208 0 8
-12.8951 17.4551 -2.6398 0.1208 0 8
-13.0525 17.3378 -2.6398 0.1208 0 8
-13.2087 17.2190 -2.6398 0.1208 0 8
-13.3640 17.0988 -2.6398 0.1208 0 8
-13.5181 16.9772 -2.6398 0.1208 0 8
-13.6711 16.8543 -2.6398 0.1208 0 8
-13.8230 16.7299 -2.6398 0.1208 0 8
-13.9737 16.6042 -2.6398 0.1208 0 8
-14.1234 16.4771 -2.6398 0.1208 0 8
-14.2718 16.3487 -2.6398 0.1208 0 8
-14.4191 16.2190 -2.6398 0.1208 0 8
-14.5652 16.0879 -2.6398 0.1208 0 8
-14.7101 15.9555 -2.6398 0.1208 0 8
-14.8539 15.8217 -2.6398 0.1208 0 8
-14.9964 15.6867 -2.6398 0.1208 0 8
-15.1376 15.5505 -2.6398 0.1208 0 8
-15.2777 15.4129 -2.6398 0.1208 0 8
-15.4165 15.2741 -2.6398 0.1208 0 8
-4.8736 4.7420 -0.8272 0.8639 0 5
-4.9097 4.6915 -0.8260 0.9551 0 5
-15.8252 14.8502 -2.6398 0.1208 0 8
-15.9589 14.7064 -2.6398 0.1208 0 8
-16.0913 14.5615 -2.6398 0.1208 0 8
-16.2223 14.4153 -2.6398 0.1208 0 8
-16.3520 14.2680 -2.6398 0.1208 0 8
-16.4804 14.1195 -2.6398 0.1208 0 8
-16.6075 13.9699 -2.6398 0.1208 0 8
-16.7331 13.8191 -2.6398 0.1208 0 8
-16.8575 13.6671 -2.6398 0.1208 0 8
-16.9804 13.5141 -2.6398 0.1208 0 8
-17.1019 13.3600 -2.6398 0.1208 0 8
-17.2221 13.2048 -2.6398 0.1208 0 8
-17.3408 13.0484 -2.6398 0.1208 0 8
-17.4581 12.8910 -2.6398 0.1208 0 8
-17.5740 12.7326 -2.6398 0.1208 0 8
-17.6885 12.5731 -2.6398 0.1208 0 8
-17.8015 12.4126 -2.6398 0.1208 0 8
-17.9130 12.2511 -2.6398 0.1208 0 8
-18.0231 12.0886 -2.6398 0.1208 0 8
-18.1317 11.9250 -2.6398 0.1208 0 8
-18.2388 11.7605 -2.6398 0.1208 0 8
-18.3445 11.5951 -2.6398 0.1208 0 8
-18.4486 11.4287 -2.6398 0.1208 0 8
-18.5512 11.2613 -2.6398 0.1208 0 8
-18.6523 11.0931 -2.6398 0.1208 0 8
-18.7519 10.9239 -2.6398 0.1208 0 8
-18.8499 10.7538 -2.6398 0.1208 0 8
-18.9464 10.5829 -2.6398 0.1208 0 8
-19.0414 10.4111 -2.6398 0.1208 0 8
-19.1348 10.2384 -2.6398 0.1208 0 8
-19.2266 10.0650 -2.6398 0.1208 0 8
-19.3169 9.8906 -2.6398 0.1208 0 8
-19.4055 9.7155 -2.6398 0.1208 0 8
-19.4926 9.5396 -2.6398 0.1208 0 8
-19.5781 9.3629 -2.6398 0.1208 0 8
-19.6620 9.1854 -2.6398 0.1208 0 8
-19.7443 9.0072 -2.6398 0.1208 0 8
-19.8249 8.8282 -2.6398 0.1208 0 8
-19.9040 8.6485 -2.6398 0.1208 0 8
-19.9814 8.4681 -2.6398 0.1208 0 8
-20.0572 8.2871 -2.6398 0.1208 0 8
-20.1313 8.1053 -2.6398 0.1208 0 8
-20.2038 7.9229 -2.6398 0.1208 0 8
-20.2746 7.7398 -2.6398 0.1208 0 8
-20.3438 7.5561 -2.6398 0.1208 0 8
-20.4113 7.3718 -2.6398 0.1208 0 8
-20.4772 7.1869 -2.6398 0.1208 0 8
-20.5413 7.0013 -2.6398 0.1208 0 8
-20.6038 6.8152 -2.6398 0.1208 0 8
-20.6646 6.6286 -2.6398 0.1208 0 8
-20.7237 6.4414 -2.6398 0.1208 0 8
-20.7812 6.2537 -2.6398 0.1208 0 8
-20.8369 6.0654 -2.6398 0.1208 0 8
-20.8909 5.8767 -2.6398 0.1208 0 8
-20.9432 5.6875 -2.6398 0.1208 0 8
-20.9938 5.4979 -2.6398 0.1208 0 8
-21.0426 5.3077 -2.6398 0.1208 0 8
-21.0898 5.1172 -2.6398 0.1208 0 8
-21.1352 4.9262 -2.6398 0.1208 0 8
-21.1789 4.7349 -2.6398 0.1208 0 8
-21.2209 4.5431 -2.6398 0.1208 0 8
-21.2611 4.3510 -2.6398 0.1208 0 8
-21.2996 4.1585 -2.6398 0.1208 0 8
-21.3363 3.9656 -2.6398 0.1208 0 8
-21.3713 3.7725 -2.6398 0.1208 0 8
-21.4046 3.5790 -2.6398 0.1208 0 8
-21.4361 3.3853 -2.6398 0.1208 0 8
-21.4658 3.1913 -2.6398 0.1208 0 8
-21.4938 2.9969 -2.6398 0.1208 0 8
-21.5200 2.8024 -2.6398 0.1208 0 8
-21.5445 2.6076 -2.6398 0.1208 0 8
-21.5672 2.4127 -2.6398 0.1208 0 8
-21.5881 2.2175 -2.6398 0.1208 0 8
-21.6073 2.0221 -2.6398 0.1208 0 8
-21.6247 1.8266 -2.6398 0.1208 0 8
-21.6404 1.6309 -2.6398 0.1208 0 8
-21.6542 1.4351 -2.6398 0.1208 0 8
-22.2761 1.2741 -2.7141 0.2184 0 8
-22.8754 1.1009 -2.7858 0.1240 0 8
-22.9121 0.8950 -2.7892 0.1238 0 8
-22.9443 0.6884 -2.7922 0.1208 0 7
-22.9496 0.4809 -2.7922 0.1208 0 7
-22.9530 0.2733 -2.7922 0.1208 0 7
-22.9545 0.0657 -2.7922 0.1208 0 7
-22.9542 -0.1420 -2.7922 0.1208 0 7
-22.9519 -0.3496 -2.7922 0.1208 0 7
-22.9478 -0.5572 -2.7922 0.1208 0 7
-22.9419 -0.7647 -2.7922 0.1208 0 7
-22.9340 -0.9722 -2.7922 0.1208 0 7
-22.9243 -1.1796 -2.7922 0.1208 0 7
-22.9127 -1.3869 -2.7922 0.1208 0 7
-22.8992 -1.5941 -2.7922 0.1208 0 7
-22.8838 -1.8012 -2.7922 0.1208 0 7
-22.8666 -2.0081 -2.7922 0.1208 0 7
-22.8475 -2.2148 -2.7922 0.1208 0 7
-22.8265 -2.4214 -2.7922 0.1208 0 7
-22.8037 -2.6278 -2.7922 0.1208 0 7
-22.7790 -2.8339 -2.7922 0.1208 0 7
-22.7524 -3.0399 -2.7922 0.1208 0 7
-22.7240 -3.2455 -2.7922 0.1208 0 7
-22.6937 -3.4509 -2.7922 0.1208 0 7
-22.6616 -3.6561 -2.7922 0.1208 0 7
-22.6276 -3.8609 -2.7922 0.1208 0 7
-22.5917 -4.0654 -2.7922 0.1208 0 7
-22.5540 -4.2696 -2.7922 0.1208 0 7
-22.5145 -4.4734 -2.7922 0.1208 0 7
-22.4731 -4.6769 -2.7922 0.1208 0 7
-22.4299 -4.8800 -2.7922 0.1208 0 7
-22.3848 -5.0827 -2.7922 0.1208 0 7
-22.3379 -5.2849 -2.7922 0.1208 0 7
-22.2892 -5.4868 -2.7922 0.1208 0 7
-22.2387 -5.6882 -2.7922 0.1208 0 7
-22.1863 -5.8891 -2.7922 0.1208 0 7
-22.1321 -6.0895 -2.7922 0.1208 0 7
-22.0761 -6.2895 -2.7922 0.1208 0 7
-22.0183 -6.4889 -2.7922 0.1208 0 7
-21.9588 -6.6878 -2.7922 0.1208 0 7
-21.8974 -6.8861 -2.7922 0.1208 0 7
-21.8342 -7.0839 -2.7922 0.1208 0 7
-21.7692 -7.2811 -2.7922 0.1208 0 7
-21.7025 -7.4777 -2.7922 0.1208 0 7
-21.6339 -7.6737 -2.7922 0.1208 0 7
-21.5636 -7.8691 -2.7922 0.1208 0 7
-21.4916 -8.0638 -2.7922 0.1208 0 6
-21.4178 -8.2579 -2.7922 0.1208 0 6
-21.3422 -8.4513 -2.7922 0.1208 0 7
-21.2649 -8.6440 -2.7922 0.1208 0 7
-21.1858 -8.8360 -2.7922 0.1208 0 7
-21.1050 -9.0272 -2.7922 0.1208 0 7
-21.0225 -9.2178 -2.7922 0.1208 0 7
-20.9383 -9.4076 -2.7922 0.1208 0 7
-20.8523 -9.5966 -2.7922 0.1208 0 7
-20.7647 -9.7848 -2.7922 0.1208 0 7
-20.6753 -9.9722 -2.7922 0.1208 0 7
-20.5843 -10.1588 -2.7922 0.1208 0 7
-20.4915 -10.3446 -2.7922 0.1208 0 7
-20.3971 -10.5295 -2.7922 0.1208 0 7
-20.3011 -10.7135 -2.7922 0.1208 0 7
-20.2033 -10.8967 -2.7922 0.1208 0 7
-20.1039 -11.0790 -2.7922 0.1208 0 7
-20.0029 -11.2604 -2.7922 0.1208 0 7
-19.9002 -11.4409 -2.7922 0.1208 0 6
-19.7959 -11.6204 -2.7922 0.1208 0 7
-19.6900 -11.7990 -2.7922 0.1208 0 7
-19.5825 -11.9766 -2.7922 0.1208 0 7
-19.4734 -12.1533 -2.7922 0.1208 0 7
-19.3626 -12.3289 -2.7922 0.1208 0 7
-19.2503 -12.5035 -2.7922 0.1208 0 7
-19.1364 -12.6772 -2.7922 0.1208 0 7
-19.0210 -12.8497 -2.7922 0.1208 0 7
-18.9040 -13.0213 -2.7922 0.1208 0 7
-18.7854 -13.1917 -2.7922 0.1208 0 7
-18.6653 -13.3611 -2.7922 0.1208 0 7
-18.5437 -13.5294 -2.7922 0.1208 0 7
-18.4206 -13.6965 -2.7922 0.1208 0 7
-18.2959 -13.8626 -2.7922 0.1208 0 7
-18.1698 -14.0275 -2.7922 0.1208 0 7
-18.0422 -14.1913 -2.7922 0.1208 0 7
-17.9131 -14.3540 -2.7922 0.1208 0 7
-17.7825 -14.5154 -2.7922 0.1208 0 7
-17.6505 -14.6756 -2.7922 0.1208 0 6
-17.5170 -14.8347 -2.7922 0.1208 0 7
-17.3821 -14.9925 -2.7922 0.1208 0 7
-17.2458 -15.1491 -2.7922 0.1208 0 7
-17.1080 -15.3045 -2.7922 0.1208 0 7
-16.9689 -15.4586 -2.7922 0.1208 0 7
-16.8284 -15.6115 -2.7922 0.1208 0 7
-15.8720 -14.9937 -2.6559 0.5513 0 10
-15.5353 -14.9438 -2.6221 0.6791 0 10
-16.3986 -16.0623 -2.7922 0.1208 0 7
-14.8595 -14.8205 -2.5529 0.5707 0 10
-14.5447 -14.7713 -2.5217 0.5827 0 10
-14.2380 -14.7239 -2.4915 0.5828 0 10
-13.9377 -14.6767 -2.4621 0.5915 0 10
-13.6613 -14.6488 -2.4365 0.6348 0 10
-13.3712 -14.6003 -2.4083 0.9553 0 10
-13.1349 -14.6054 -2.3894 0.6895 0 10
-12.8242 -14.5219 -2.3567 0.9722 0 10
-12.6540 -14.5932 -2.3496 0.9021 0 10
-12.4918 -14.6722 -2.3440 0.9603 0 10
-12.4065 -14.8419 -2.3531 0.7727 0 10
-12.3652 -15.0674 -2.3710 0.6336 0 10
-12.3394 -15.3163 -2.3925 0.6004 0 10
-12.3143 -15.5714 -2.4149 0.6038 0 10
-12.2945 -15.8387 -2.4390 0.4919 0 10
-13.1514 -17.2628 -2.6398 0.1208 0 8
-12.9947 -17.3811 -2.6398 0.1208 0 8
-12.8370 -17.4979 -2.6398 0.1208 0 8
-12.6782 -17.6133 -2.6398 0.1208 0 8
-12.5184 -17.7273 -2.6398 0.1208 0 8
-12.3575 -17.8398 -2.6398 0.1208 0 8
-12.1956 -17.9508 -2.6398 0.1208 0 8
-12.0328 -18.0604 -2.6398 0.1208 0 8
-11.8689 -18.1685 -2.6398 0.1208 0 8
-11.7041 -18.2751 -2.6398 0.1208 0 8
-11.5383 -18.3803 -2.6398 0.1208 0 8
-11.3716 -18.4838 -2.6398 0.1208 0 8
-11.2039 -18.5860 -2.6398 0.1208 0 8
-11.0353 -18.6865 -2.6398 0.1208 0 8
-10.8659 -18.7856 -2.6398 0.1208 0 8
-10.6955 -18.8831 -2.6398 0.1208 0 8
-10.5243 -18.9791 -2.6398 0.1208 0 8
-10.3522 -19.0735 -2.6398 0.1208 0 8
-7.9651 -14.9974 -2.0656 0.2386 0 10
-7.7631 -14.9418 -2.0482 0.3387 0 10
-7.2980 -14.3628 -1.9597 0.6445 0 10
-7.1165 -14.3249 -1.9457 0.5983 0 10
-6.8511 -14.1094 -1.9079 0.3551 0 10
-9.3023 -19.6070 -2.6398 0.1208 0 8
-9.1245 -19.6903 -2.6398 0.1208 0 8
-8.9461 -19.7720 -2.6398 0.1208 0 8
-8.7669 -19.8521 -2.6398 0.1208 0 8
-8.5869 -19.9306 -2.6398 0.1208 0 8
-8.4063 -20.0075 -2.6398 0.1208 0 8
-8.2250 -20.0827 -2.6398 0.1208 0 8
-8.0430 -20.1563 -2.6398 0.1208 0 8
-7.8604 -20.2282 -2.6398 0.1208 0 8
-7.6771 -20.2985 -2.6398 0.1208 0 8
-7.4931 -20.3671 -2.6398 0.1208 0 8
-7.3086 -20.4340 -2.6398 0.1208 0 8
-7.1235 -20.4993 -2.6398 0.1208 0 8
-6.9378 -20.5629 -2.6398 0.1208 0 8
-6.7515 -20.6248 -2.6398 0.1208 0 8
-6.5647 -20.6850 -2.6398 0.1208 0 8
-6.3773 -20.7435 -2.6398 0.1208 0 8
-6.1894 -20.8004 -2.6398 0.1208 0 8
-6.0010 -20.8555 -2.6398 0.1208 0 8
-5.8121 -20.9090 -2.6398 0.1208 0 8
-5.6227 -20.9607 -2.6398 0.1208 0 8
-5.4329 -21.0107 -2.6398 0.1208 0 8
-5.2427 -21.0590 -2.6398 0.1208 0 8
-5.0520 -21.1055 -2.6398 0.1208 0 8
-4.8609 -21.1504 -2.6398 0.1208 0 8
-4.6693 -21.1935 -2.6398 0.1208 0 8
-4.4775 -21.2348 -2.6398 0.1208 0 8
-4.2852 -21.2745 -2.6398 0.1208 0 8
-4.0926 -21.3123 -2.6398 0.1208 0 8
-3.8999 -21.3499 -2.6400 0.1173 0 22
-3.7070 -21.3862 -2.6402 0.1172 0 22
-2.5778 -15.7154 -1.9372 0.2427 0 10
-3.3201 -21.4535 -2.6407 0.1172 0 22
-3.1261 -21.4844 -2.6409 0.1172 0 22
-2.1745 -15.9559 -1.9589 0.1208 0 5
-1.9879 -15.6426 -1.9181 0.5460 0 10
-2.5426 -21.5663 -2.6415 0.1172 0 22
-2.3476 -21.5899 -2.6417 0.1172 0 14
-2.1524 -21.6118 -2.6419 0.1172 0 14
-1.9570 -21.6319 -2.6421 0.1172 0 14
-1.7613 -21.6501 -2.6423 0.1172 0 14
-1.5655 -21.6664 -2.6424 0.1171 0 14
-1.3696 -21.6810 -2.6426 0.1171 0 14
-1.1735 -21.6938 -2.6427 0.1171 0 14
-0.9773 -21.7047 -2.6429 0.1171 0 14
-0.7809 -21.7137 -2.6430 0.1171 0 14
-0.5845 -21.7210 -2.6431 0.1171 0 14
-0.3881 -21.7264 -2.6433 0.1171 0 14
-0.1915 -21.7300 -2.6434 0.1171 0 14
0.0050 -21.7318 -2.6435 0.1171 0 14
0.2016 -21.7317 -2.6436 0.1171 0 14
0.3982 -21.7298 -2.6437 0.1171 0 14
0.5947 -21.7260 -2.6438 0.1171 0 14
0.7913 -21.7204 -2.6439 0.1171 0 14
0.9877 -21.7130 -2.6439 0.1171 0 14
1.1841 -21.7038 -2.6440 0.1171 0 14
1.3804 -21.6927 -2.6441 0.1171 0 14
1.5766 -21.6798 -2.6441 0.1171 0 14
1.7727 -21.6651 -2.6442 0.1171 0 14
1.9686 -21.6485 -2.6442 0.1171 0 14
2.1644 -21.6301 -2.6443 0.1171 0 14
2.3600 -21.6099 -2.6443 0.1171 0 14
2.5553 -21.5878 -2.6443 0.1171 0 14
2.7505 -21.5640 -2.6443 0.1171 0 14
2.9455 -21.5383 -2.6443 0.1171 0 14
3.1402 -21.5108 -2.6443 0.1171 0 14
3.3346 -21.4814 -2.6443 0.1171 0 14
3.5288 -21.4503 -2.6443 0.1171 0 14
3.7226 -21.4174 -2.6443 0.1171 0 14
3.9162 -21.3826 -2.6443 0.1171 0 14
4.1093 -21.3461 -2.6442 0.1171 0 14
4.3022 -21.3077 -2.6442 0.1171 0 14
4.4947 -21.2676 -2.6442 0.1171 0 14
4.6868 -21.2256 -2.6441 0.1171 0 14
4.8785 -21.1819 -2.6441 0.1171 0 14
5.0697 -21.1363 -2.6440 0.1171 0 14
5.2606 -21.0891 -2.6439 0.1171 0 14
5.4509 -21.0400 -2.6438 0.1171 0 14
5.6408 -20.9891 -2.6437 0.1171 0 14
5.8303 -20.9365 -2.6437 0.1171 0 14
6.0192 -20.8821 -2.6436 0.1171 0 14
6.2076 -20.8260 -2.6435 0.1171 0 14
6.3954 -20.7681 -2.6433 0.1171 0 14
6.5827 -20.7085 -2.6432 0.1171 0 14
6.7694 -20.6471 -2.6431 0.1171 0 14
6.9556 -20.5840 -2.6430 0.1171 0 14
7.1411 -20.5191 -2.6428 0.1171 0 14
7.3260 -20.4526 -2.6427 0.1171 0 14
7.5102 -20.3843 -2.6425 0.1171 0 14
7.6938 -20.3143 -2.6424 0.1172 0 14
7.8768 -20.2426 -2.6422 0.1172 0 14
8.0590 -20.1692 -2.6420 0.1172 0 14
8.2406 -20.0941 -2.6418 0.1172 0 14
8.4214 -20.0173 -2.6417 0.1172 0 14
8.6015 -19.9389 -2.6415 0.1172 0 14
8.7808 -19.8588 -2.6413 0.1172 0 14
8.9594 -19.7770 -2.6411 0.1172 0 14
9.1372 -19.6936 -2.6408 0.1172 0 14
9.3142 -19.6085 -2.6406 0.1172 0 14
9.4903 -19.5218 -2.6404 0.1172 0 14
9.6657 -19.4334 -2.6402 0.1172 0 14
9.8402 -19.3435 -2.6399 0.1173 0 14
10.0144 -19.2530 -2.6398 0.1208 0 8
10.1881 -19.1616 -2.6398 0.1208 0 8
10.3610 -19.0687 -2.6398 0.1208 0 8
10.5331 -18.9742 -2.6398 0.1208 0 8
10.7043 -18.8781 -2.6398 0.1208 0 8
10.8746 -18.7805 -2.6398 0.1208 0 8
11.0440 -18.6814 -2.6398 0.1208 0 8
11.2125 -18.5808 -2.6398 0.1208 0 8
11.3802 -18.4786 -2.6398 0.1208 0 8
11.5468 -18.3749 -2.6398 0.1208 0 8
11.7126 -18.2697 -2.6398 0.1208 0 8
11.8773 -18.1630 -2.6398 0.1208 0 8
12.0411 -18.0548 -2.6398 0.1208 0 8
12.2040 -17.9452 -2.6398 0.1208 0 8
12.3658 -17.8340 -2.6398 0.1208 0 8
12.5266 -17.7215 -2.6398 0.1208 0 8
12.6864 -17.6074 -2.6398 0.1208 0 8
12.8451 -17.4920 -2.6398 0.1208 0 8
13.0028 -17.3751 -2.6398 0.1208 0 8
13.1594 -17.2567 -2.6398 0.1208 0 8
13.3150 -17.1370 -2.6398 0.1208 0 8
13.4695 -17.0159 -2.6398 0.1208 0 8
13.6228 -16.8933 -2.6398 0.1208 0 8
13.7751 -16.7694 -2.6398 0.1208 0 8
13.9262 -16.6441 -2.6398 0.1208 0 8
14.0762 -16.5175 -2.6398 0.1208 0 8
14.2250 -16.3895 -2.6398 0.1208 0 8
14.3727 -16.2602 -2.6398 0.1208 0 8
14.5191 -16.1295 -2.6398 0.1208 0 8
14.6644 -15.9975 -2.6398 0.1208 0 8
14.8085 -15.8642 -2.6398 0.1208 0 8
14.9514 -15.7296 -2.6398 0.1208 0 8
15.0931 -15.5937 -2.6398 0.1208 0 8
15.2335 -15.4566 -2.6398 0.1208 0 8
15.3727 -15.3181 -2.6398 0.1208 0 8
15.5106 -15.1785 -2.6398 0.1208 0 8
15.6473 -15.0375 -2.6398 0.1208 0 8
15.7827 -14.8954 -2.6398 0.1208 0 8
15.9168 -14.7520 -2.6398 0.1208 0 8
16.0495 -14.6075 -2.6398 0.1208 0 8
16.1810 -14.4617 -2.6398 0.1208 0 8
16.3112 -14.3147 -2.6398 0.1208 0 8
16.4400 -14.1666 -2.6398 0.1208 0 8
16.5674 -14.0173 -2.6398 0.1208 0 8
16.6936 -13.8669 -2.6398 0.1208 0 8
16.8183 -13.7153 -2.6398 0.1208 0 8
16.9417 -13.5627 -2.6398 0.1208 0 8
17.0637 -13.4088 -2.6398 0.1208 0 8
17.1842 -13.2539 -2.6398 0.1208 0 8
17.3034 -13.0980 -2.6398 0.1208 0 8
17.4212 -12.9409 -2.6398 0.1208 0 8
17.5375 -12.7828 -2.6398 0.1208 0 8
17.6524 -12.6237 -2.6398 0.1208 0 8
17.7659 -12.4635 -2.6398 0.1208 0 8
17.8779 -12.3023 -2.6398 0.1208 0 8
17.9884 -12.1401 -2.6398 0.1208 0 8
18.0975 -11.9768 -2.6398 0.1208 0 8
18.2974 -11.8725 -2.6532 0.6648 0 8
18.5906 -11.8252 -2.6801 0.6582 0 8
18.8897 -11.7769 -2.7078 0.6514 0 8
19.1951 -11.7274 -2.7362 0.6447 0 8
19.5069 -11.6770 -2.7655 0.6378 0 8
19.7538 -11.5833 -2.7855 0.1312 0 8
19.8758 -11.4146 -2.7881 0.1311 0 8
19.9966 -11.2446 -2.7906 0.1310 0 8
20.1091 -11.0697 -2.7922 0.1208 0 7
20.2084 -10.8874 -2.7922 0.1208 0 7
20.3060 -10.7041 -2.7922 0.1208 0 7
20.4020 -10.5200 -2.7922 0.1208 0 7
20.4963 -10.3350 -2.7922 0.1208 0 7
20.5890 -10.1492 -2.7922 0.1208 0 7
20.6799 -9.9626 -2.7922 0.1208 0 7
20.7692 -9.7752 -2.7922 0.1208 0 7
20.8568 -9.5869 -2.7922 0.1208 0 7
20.9426 -9.3978 -2.7922 0.1208 0 7
21.0268 -9.2080 -2.7922 0.1208 0 7
21.1092 -9.0174 -2.7922 0.1208 0 6
21.1899 -8.8261 -2.7922 0.1208 0 7
21.2689 -8.6341 -2.7922 0.1208 0 7
21.3461 -8.4414 -2.7922 0.1208 0 7
21.4216 -8.2480 -2.7922 0.1208 0 7
21.4953 -8.0538 -2.7922 0.1208 0 7
21.5673 -7.8591 -2.7922 0.1208 0 7
21.6375 -7.6637 -2.7922 0.1208 0 7
21.7059 -7.4676 -2.7922 0.1208 0 7
21.7726 -7.2710 -2.7922 0.1208 0 7
21.8375 -7.0738 -2.7922 0.1208 0 7
21.9006 -6.8760 -2.7922 0.1208 0 7
21.9619 -6.6776 -2.7922 0.1208 0 7
22.0214 -6.4786 -2.7922 0.1208 0 7
22.0791 -6.2792 -2.7922 0.1208 0 7
22.1350 -6.0792 -2.7922 0.1208 0 7
22.1890 -5.8788 -2.7922 0.1208 0 7
22.2413 -5.6778 -2.7922 0.1208 0 7
22.2918 -5.4764 -2.7922 0.1208 0 7
22.3404 -5.2746 -2.7922 0.1208 0 7
22.3872 -5.0723 -2.7922 0.1208 0 7
22.4321 -4.8696 -2.7922 0.1208 0 7
22.4753 -4.6665 -2.7922 0.1208 0 7
22.5166 -4.4630 -2.7922 0.1208 0 7
22.5560 -4.2591 -2.7922 0.1208 0 7
22.5936 -4.0549 -2.7922 0.1208 0 7
22.6294 -3.8504 -2.7922 0.1208 0 7
22.6633 -3.6456 -2.7922 0.1208 0 7
22.6953 -3.4404 -2.7922 0.1208 0 7
22.7255 -3.2350 -2.7922 0.1208 0 7
22.7538 -3.0293 -2.7922 0.1208 0 7
22.7803 -2.8234 -2.7922 0.1208 0 7
22.8049 -2.6172 -2.7922 0.1208 0 7
22.8276 -2.4108 -2.7922 0.1208 0 7
22.8485 -2.2042 -2.7922 0.1208 0 7
22.8675 -1.9975 -2.7922 0.1208 0 7
22.8847 -1.7906 -2.7922 0.1208 0 6
22.8999 -1.5835 -2.7922 0.1208 0 7
22.9133 -1.3763 -2.7922 0.1208 0 7
22.9248 -1.1690 -2.7922 0.1208 0 7
22.9344 -0.9615 -2.7922 0.1208 0 7
22.9422 -0.7541 -2.7922 0.1208 0 7
22.9481 -0.5465 -2.7922 0.1208 0 7
22.9521 -0.3389 -2.7922 0.1208 0 7
22.9542 -0.1313 -2.7922 0.1208 0 7
22.9545 0.0763 -2.7922 0.1208 0 7
22.9528 0.2840 -2.7922 0.1208 0 7
22.9493 0.4915 -2.7922 0.1208 0 7
22.9439 0.6991 -2.7922 0.1208 0 7
22.9367 0.9066 -2.7922 0.1208 0 7
22.9275 1.1141 -2.7922 0.1208 0 7
22.9165 1.3214 -2.7922 0.1208 0 7
22.9036 1.5286 -2.7922 0.1208 0 7
22.8889 1.7357 -2.7922 0.1208 0 7
22.8722 1.9427 -2.7922 0.1208 0 7
22.8537 2.1495 -2.7922 0.1208 0 7
22.8334 2.3561 -2.7922 0.1208 0 7
22.8111 2.5626 -2.7922 0.1208 0 7
22.7870 2.7688 -2.7922 0.1208 0 7
22.7610 2.9748 -2.7922 0.1208 0 7
22.7332 3.1806 -2.7922 0.1208 0 7
22.7035 3.3860 -2.7922 0.1208 0 7
22.6719 3.5913 -2.7922 0.1208 0 7
22.6385 3.7962 -2.7922 0.1208 0 7
22.6032 4.0008 -2.7922 0.1208 0 7
22.5661 4.2051 -2.7922 0.1208 0 7
22.5272 4.4090 -2.7922 0.1208 0 7
22.4864 4.6126 -2.7922 0.1208 0 7
22.4437 4.8158 -2.7922 0.1208 0 7
22.3992 5.0186 -2.7922 0.1208 0 7
22.3529 5.2210 -2.7922 0.1208 0 7
22.3048 5.4230 -2.7922 0.1208 0 7
22.2548 5.6246 -2.7922 0.1208 0 7
22.2031 5.8256 -2.7922 0.1208 0 7
22.1495 6.0262 -2.7922 0.1208 0 7
22.0940 6.2263 -2.7922 0.1208 0 7
22.0368 6.4259 -2.7922 0.1208 0 7
21.9778 6.6250 -2.7922 0.1208 0 7
21.9170 6.8235 -2.7922 0.1208 0 7
21.8543 7.0215 -2.7922 0.1208 0 7
21.7899 7.2188 -2.7922 0.1208 0 7
21.7074 7.4101 -2.7901 0.1238 0 8
21.6135 7.5970 -2.7868 0.1240 0 8
21.2259 7.6771 -2.7456 0.2194 0 8
11.6807 4.3446 -1.5160 0.6008 0 10
11.3265 4.3299 -1.4750 0.2640 0 10
10.9502 4.3000 -1.4310 0.2447 0 10
10.6346 4.2875 -1.3948 0.3380 0 10
10.3344 4.2755 -1.3604 0.3147 0 10
10.0062 4.2461 -1.3222 0.3057 0 10
9.8659 4.2923 -1.3088 0.3068 0 10
9.8067 4.3724 -1.3061 0.2570 0 10
9.7761 4.4652 -1.3073 0.2315 0 10
9.7432 4.5572 -1.3084 0.2166 0 10
9.7082 4.6483 -1.3093 0.1897 0 10
9.6934 4.7495 -1.3131 0.4115 0 10
9.6864 4.8552 -1.3180 0.4253 0 10
9.6809 4.9625 -1.3233 0.4310 0 10
9.6752 5.0706 -1.3287 0.4659 0 10
19.1300 10.2474 -2.6398 0.1208 0 8
19.0365 10.4200 -2.6398 0.1208 0 8
18.9415 10.5917 -2.6398 0.1208 0 8
18.8449 10.7626 -2.6398 0.1208 0 8
18.7468 10.9326 -2.6398 0.1208 0 8
18.6472 11.1017 -2.6398 0.1208 0 8
18.5460 11.2700 -2.6398 0.1208 0 8
18.4433 11.4373 -2.6398 0.1208 0 8
18.3391 11.6036 -2.6398 0.1208 0 8
18.2334 11.7690 -2.6398 0.1208 0 8
18.1262 11.9334 -2.6398 0.1208 0 8
18.0175 12.0969 -2.6398 0.1208 0 8
17.9073 12.2594 -2.6398 0.1208 0 8
17.7957 12.4209 -2.6398 0.1208 0 8
17.6826 12.5813 -2.6398 0.1208 0 8
17.5681 12.7408 -2.6398 0.1208 0 8
17.4521 12.8991 -2.6398 0.1208 0 8
17.3347 13.0565 -2.6398 0.1208 0 8
17.2159 13.2128 -2.6398 0.1208 0 8
17.0957 13.3679 -2.6398 0.1208 0 8
16.9741 13.5220 -2.6398 0.1208 0 8
16.8511 13.6750 -2.6398 0.1208 0 8
16.7267 13.8269 -2.6398 0.1208 0 8
16.6010 13.9776 -2.6398 0.1208 0 8
16.4738 14.1272 -2.6398 0.1208 0 8
16.3454 14.2756 -2.6398 0.1208 0 8
16.2156 14.4229 -2.6398 0.1208 0 8
16.0845 14.5690 -2.6398 0.1208 0 8
15.9520 14.7139 -2.6398 0.1208 0 8
15.8183 14.8575 -2.6398 0.1208 0 8
15.6833 15.0000 -2.6398 0.1208 0 8
15.5469 15.1412 -2.6398 0.1208 0 8
15.3794 15.2515 -2.6347 0.7938 0 19
14.9756 15.1222 -2.5888 0.9166 0 19
15.1304 15.5575 -2.6398 0.1208 0 8
14.9891 15.6937 -2.6398 0.1208 0 8
14.8465 15.8287 -2.6398 0.1208 0 8
13.3163 14.4571 -2.3909 0.5449 0 19
14.5577 16.0946 -2.6398 0.1208 0 8
14.4115 16.2257 -2.6398 0.1208 0 8
13.1651 15.0951 -2.4364 0.6099 0 19
14.1157 16.4837 -2.6398 0.1208 0 8
13.9660 16.6107 -2.6398 0.1208 0 8
11.8104 14.3077 -2.2568 0.7209 0 19
13.6633 16.8605 -2.6398 0.1208 0 8
11.7636 14.7879 -2.2986 0.6109 0 19
13.3560 17.1050 -2.6398 0.1208 0 8
19.3152 -0.0000 -2.7922 0.1431 0 7
19.3144 0.1747 -2.7922 0.1431 0 7
19.3120 0.3494 -2.7922 0.1431 0 7
19.3080 0.5241 -2.7922 0.1431 0 7
19.3025 0.6987 -2.7922 0.1431 0 7
19.2954 0.8732 -2.7922 0.1431 0 7
19.2867 1.0477 -2.7922 0.1431 0 7
19.2764 1.2222 -2.7922 0.1431 0 7
19.2646 1.3965 -2.7922 0.1431 0 7
19.2512 1.5706 -2.7922 0.1431 0 7
19.2362 1.7447 -2.7922 0.1431 0 7
19.2196 1.9186 -2.7922 0.1431 0 7
19.2015 2.0924 -2.7922 0.1431 0 7
19.1818 2.2660 -2.7922 0.1431 0 7
19.1605 2.4394 -2.7922 0.1431 0 7
19.1376 2.6126 -2.7922 0.1431 0 7
19.1132 2.7856 -2.7922 0.1431 0 7
19.0872 2.9584 -2.7922 0.1431 0 7
19.0597 3.1309 -2.7922 0.1431 0 7
19.0306 3.3032 -2.7922 0.1431 0 7
19.0000 3.4752 -2.7922 0.1431 0 7
18.9677 3.6469 -2.7922 0.1431 0 7
18.9340 3.8183 -2.7922 0.1431 0 7
18.8987 3.9895 -2.7922 0.1431 0 7
18.8618 4.1602 -2.7922 0.1431 0 7
18.8234 4.3307 -2.7922 0.1431 0 7
18.7835 4.5008 -2.7922 0.1431 0 7
18.7420 4.6705 -2.7922 0.1431 0 7
18.6990 4.8398 -2.7922 0.1431 0 6
18.6544 5.0087 -2.7922 0.1431 0 7
18.6084 5.1773 -2.7922 0.1431 0 7
18.5608 5.3454 -2.7922 0.1431 0 7
18.5117 5.5130 -2.7922 0.1431 0 7
18.4610 5.6803 -2.7922 0.1431 0 7
18.4089 5.8470 -2.7922 0.1431 0 7
18.3553 6.0133 -2.7922 0.1431 0 7
18.3001 6.1791 -2.7922 0.1431 0 7
12.3258 4.2864 -1.8865 0.1758 0 10
11.9478 4.2765 -1.8345 0.8629 0 10
11.5778 4.2626 -1.7835 0.2328 0 10
11.1290 4.2120 -1.7202 0.2147 0 10
10.7479 4.1793 -1.6671 0.9269 0 10
10.3941 4.1504 -1.6179 0.2724 0 10
9.9876 4.0932 -1.5604 0.6877 0 10
9.6422 4.0539 -1.5121 0.7598 0 10
9.5825 4.1312 -1.5085 0.7823 0 10
9.5467 4.2185 -1.5088 0.7198 0 10
9.5197 4.3100 -1.5107 0.8100 0 10
9.4964 4.4033 -1.5132 0.8049 0 10
9.4752 4.4981 -1.5163 0.7883 0 10
9.4567 4.5946 -1.5199 0.7774 0 10
9.4393 4.6921 -1.5239 0.7746 0 10
9.4227 4.7907 -1.5281 0.7725 0 10
9.4088 4.8912 -1.5330 0.7672 0 10
9.3970 4.9935 -1.5383 0.7575 0 10
9.3883 5.0983 -1.5444 0.7207 0 10
9.3866 5.2079 -1.5518 0.6412 0 10
15.8871 9.0034 -2.6398 0.1431 0 8
15.8050 9.1468 -2.6398 0.1431 0 8
15.7216 9.2894 -2.6398 0.1431 0 8
15.6370 9.4312 -2.6398 0.1431 0 8
15.5510 9.5722 -2.6398 0.1431 0 8
15.4638 9.7125 -2.6398 0.1431 0 8
15.3753 9.8520 -2.6398 0.1431 0 8
15.2856 9.9907 -2.6398 0.1431 0 8
15.1946 10.1285 -2.6398 0.1431 0 8
15.1024 10.2655 -2.6398 0.1431 0 8
15.0089 10.4017 -2.6398 0.1431 0 8
14.9142 10.5370 -2.6398 0.1431 0 8
14.8183 10.6715 -2.6398 0.1431 0 8
14.7211 10.8051 -2.6398 0.1431 0 8
14.6228 10.9378 -2.6398 0.1431 0 8
14.5233 11.0696 -2.6398 0.1431 0 8
14.4225 11.2005 -2.6398 0.1431 0 8
14.3206 11.3306 -2.6398 0.1431 0 8
14.2176 11.4596 -2.6398 0.1431 0 8
14.1133 11.5878 -2.6398 0.1431 0 8
14.0079 11.7149 -2.6398 0.1431 0 8
13.9014 11.8412 -2.6398 0.1431 0 8
13.7937 11.9664 -2.6398 0.1431 0 8
13.6849 12.0907 -2.6398 0.1431 0 8
13.5750 12.2140 -2.6398 0.1431 0 8
13.4640 12.3363 -2.6398 0.1431 0 8
13.3518 12.4576 -2.6398 0.1431 0 8
13.2386 12.5778 -2.6398 0.1431 0 8
13.1243 12.6970 -2.6398 0.1431 0 8
13.0089 12.8152 -2.6398 0.1431 0 8
12.8925 12.9324 -2.6398 0.1431 0 8
12.7750 13.0485 -2.6398 0.1431 0 8
12.6564 13.1635 -2.6398 0.1431 0 8
12.5368 13.2774 -2.6398 0.1431 0 8
12.4162 13.3903 -2.6398 0.1431 0 8
12.2946 13.5020 -2.6398 0.1431 0 8
12.1719 13.6127 -2.6398 0.1431 0 8
12.0483 13.7223 -2.6398 0.1431 0 8
11.9237 13.8307 -2.6398 0.1431 0 8
11.7981 13.9379 -2.6398 0.1431 0 8
11.6716 14.0441 -2.6398 0.1431 0 8
11.5440 14.1491 -2.6398 0.1431 0 8
11.4156 14.2529 -2.6398 0.1431 0 8
11.2862 14.3556 -2.6398 0.1431 0 8
11.1559 14.4571 -2.6398 0.1431 0 8
11.0247 14.5574 -2.6398 0.1431 0 8
10.8925 14.6565 -2.6398 0.1431 0 8
10.7595 14.7545 -2.6398 0.1431 0 8
10.6256 14.8512 -2.6398 0.1431 0 8
10.4909 14.9467 -2.6398 0.1431 0 8
10.3552 15.0409 -2.6398 0.1431 0 8
10.2188 15.1340 -2.6398 0.1431 0 8
10.0815 15.2258 -2.6398 0.1431 0 8
9.9433 15.3164 -2.6398 0.1431 0 8
9.8044 15.4057 -2.6398 0.1431 0 8
9.6646 15.4937 -2.6398 0.1431 0 8
9.5241 15.5805 -2.6398 0.1431 0 8
9.3828 15.6661 -2.6398 0.1431 0 8
9.2407 15.7503 -2.6398 0.1431 0 8
9.0978 15.8332 -2.6398 0.1431 0 8
8.9543 15.9149 -2.6398 0.1431 0 8
8.8099 15.9952 -2.6398 0.1431 0 8
8.6649 16.0742 -2.6398 0.1431 0 8
8.5192 16.1520 -2.6398 0.1431 0 8
8.3727 16.2283 -2.6398 0.1431 0 8
8.2256 16.3034 -2.6398 0.1431 0 8
8.0778 16.3771 -2.6398 0.1431 0 8
7.9293 16.4496 -2.6398 0.1431 0 8
5.6492 11.9957 -1.9168 0.6714 0 19
5.5299 12.0233 -1.9131 0.9738 0 19
5.4443 12.1249 -1.9214 0.7270 0 19
7.3291 16.7256 -2.6398 0.1431 0 8
7.1775 16.7912 -2.6398 0.1431 0 8
7.0253 16.8554 -2.6398 0.1431 0 8
6.8726 16.9183 -2.6398 0.1431 0 8
6.7192 16.9798 -2.6398 0.1431 0 8
6.5654 17.0399 -2.6398 0.1431 0 8
5.0160 13.3780 -2.0654 0.8533 0 19
6.2561 17.1558 -2.6398 0.1431 0 8
4.8730 13.7482 -2.1086 0.9445 0 19
4.7339 13.7495 -2.1022 0.9474 0 19
4.5951 13.7490 -2.0957 0.9350 0 19
4.4556 13.7439 -2.0886 0.9381 0 19
4.3135 13.7278 -2.0802 0.9120 0 19
4.1725 13.7116 -2.0719 0.9156 0 19
4.0313 13.6909 -2.0632 0.8821 0 19
3.8888 13.6618 -2.0534 0.8797 0 19
3.7471 13.6310 -2.0436 0.8839 0 19
3.6067 13.6005 -2.0341 0.8881 0 19
3.5442 13.8700 -2.0695 0.8398 0 19
3.5170 14.3016 -2.1291 0.1431 0 19
4.2002 17.7713 -2.6398 0.1431 0 8
4.0392 17.8086 -2.6398 0.1431 0 8
3.8780 17.8444 -2.6398 0.1431 0 8
3.7164 17.8787 -2.6398 0.1431 0 8
3.5546 17.9116 -2.6398 0.1431 0 8
3.3924 17.9431 -2.6398 0.1431 0 8
3.2300 17.9730 -2.6398 0.1431 0 8
3.0673 18.0015 -2.6398 0.1431 0 8
2.9043 18.0285 -2.6398 0.1431 0 8
2.7411 18.0540 -2.6398 0.1431 0 8
2.5777 18.0781 -2.6398 0.1431 0 8
2.4141 18.1007 -2.6398 0.1431 0 8
2.2503 18.1218 -2.6398 0.1431 0 8
1.5373 13.3681 -1.9453 0.5084 0 19
1.4063 13.2868 -1.9315 0.9962 0 19
1.2878 13.3161 -1.9340 0.8477 0 19
1.5933 18.1913 -2.6398 0.1431 0 8
1.4287 18.2050 -2.6398 0.1431 0 8
1.2639 18.2171 -2.6398 0.1431 0 8
1.0991 18.2278 -2.6398 0.1431 0 8
0.9342 18.2370 -2.6398 0.1431 0 8
0.7692 18.2447 -2.6398 0.1431 0 8
0.6041 18.2509 -2.6398 0.1431 0 8
0.4390 18.2556 -2.6398 0.1431 0 8
0.2739 18.2589 -2.6398 0.1431 0 8
0.1087 18.2606 -2.6398 0.1431 0 8
-0.0565 18.2609 -2.6398 0.1431 0 8
-0.2216 18.2596 -2.6398 0.1431 0 8
-0.3868 18.2568 -2.6398 0.1431 0 8
-0.3943 13.0389 -1.8858 0.9994 0 19
-0.5124 13.0392 -1.8864 0.9991 0 19
-0.6305 13.0394 -1.8872 0.9986 0 19
-0.7488 13.0387 -1.8880 0.9998 0 19
-0.8668 13.0335 -1.8883 0.9997 0 19
-0.9845 13.0222 -1.8879 0.9989 0 19
-1.1018 13.0079 -1.8872 0.9992 0 19
-1.2191 12.9936 -1.8866 0.9995 0 19
-1.3357 12.9739 -1.8854 0.9944 0 19
-1.4517 12.9495 -1.8837 0.9939 0 19
-1.5673 12.9235 -1.8819 0.9948 0 19
-1.6826 12.8976 -1.8803 0.9957 0 19
-1.7978 12.8716 -1.8788 0.9965 0 19
-2.6895 18.0618 -2.6398 0.1431 0 8
-2.8527 18.0367 -2.6398 0.1431 0 8
-3.0158 18.0102 -2.6398 0.1431 0 8
-3.1785 17.9822 -2.6398 0.1431 0 8
-3.3411 17.9527 -2.6398 0.1431 0 8
-3.5033 17.9217 -2.6398 0.1431 0 8
-3.6653 17.8893 -2.6398 0.1431 0 8
-3.8269 17.8554 -2.6398 0.1431 0 8
-3.9883 17.8201 -2.6398 0.1431 0 8
-4.1493 17.7833 -2.6398 0.1431 0 8
-4.3100 17.7450 -2.6398 0.1431 0 8
-4.4703 17.7053 -2.6398 0.1431 0 8
-4.6303 17.6641 -2.6398 0.1431 0 8
-4.7899 17.6215 -2.6398 0.1431 0 8
-4.9491 17.5775 -2.6398 0.1431 0 8
-5.1079 17.5320 -2.6398 0.1431 0 8
-5.2663 17.4851 -2.6398 0.1431 0 8
-5.4242 17.4367 -2.6398 0.1431 0 8
-5.5817 17.3870 -2.6398 0.1431 0 8
-5.7387 17.3358 -2.6398 0.1431 0 8
-5.8953 17.2832 -2.6398 0.1431 0 8
-6.0514 17.2291 -2.6398 0.1431 0 8
-6.2070 17.1737 -2.6398 0.1431 0 8
-6.3621 17.1168 -2.6398 0.1431 0 8
-6.5166 17.0586 -2.6398 0.1431 0 8
-6.3439 16.1662 -2.5105 0.2321 0 1
-6.3328 15.7183 -2.4498 0.9600 0 1
-6.4897 15.6966 -2.4554 0.9578 0 1
-6.6473 15.6748 -2.4613 0.9555 0 1
-6.8057 15.6530 -2.4675 0.9531 0 1
-6.9650 15.6310 -2.4738 0.9506 0 1
-6.6499 14.5681 -2.3150 0.8454 0 1
-7.2860 15.5867 -2.4873 0.9455 0 1
-7.3549 15.3702 -2.4632 0.3051 0 1
-7.3594 15.0288 -2.4191 0.3107 0 1
-7.3013 14.5750 -2.3566 0.9372 0 1
-7.4560 14.5537 -2.3639 0.9343 0 1
-7.6118 14.5321 -2.3715 0.9313 0 1
-8.6189 16.0989 -2.6398 0.1431 0 8
-8.7642 16.0203 -2.6398 0.1431 0 8
-8.9087 15.9404 -2.6398 0.1431 0 8
-9.0525 15.8592 -2.6398 0.1431 0 8
-9.1956 15.7767 -2.6398 0.1431 0 8
-9.1662 15.4042 -2.5913 0.3850 0 1
-9.1104 15.0000 -2.5370 0.3932 0 1
-9.0568 14.6123 -2.4852 0.4014 0 1
-9.0634 14.3317 -2.4513 0.9010 0 1
-9.2310 14.3086 -2.4616 0.8972 0 1
-9.4000 14.2852 -2.4721 0.8934 0 1
-10.1754 15.1632 -2.6398 0.1431 0 8
-10.3122 15.0705 -2.6398 0.1431 0 8
-10.4481 14.9766 -2.6398 0.1431 0 8
-10.5831 14.8815 -2.6398 0.1431 0 8
-10.7173 14.7852 -2.6398 0.1431 0 8
-10.8506 14.6876 -2.6398 0.1431 0 8
-10.9830 14.5889 -2.6398 0.1431 0 8
-11.1145 14.4889 -2.6398 0.1431 0 8
-11.2451 14.3878 -2.6398 0.1431 0 8
-11.3748 14.2855 -2.6398 0.1431 0 8
-11.5035 14.1821 -2.6398 0.1431 0 8
-11.6314 14.0774 -2.6398 0.1431 0 8
-11.7582 13.9716 -2.6398 0.1431 0 8
-11.8841 13.8647 -2.6398 0.1431 0 8
-12.0090 13.7566 -2.6398 0.1431 0 8
-12.1330 13.6474 -2.6398 0.1431 0 8
-12.2559 13.5371 -2.6398 0.1431 0 8
-12.3779 13.4257 -2.6398 0.1431 0 8
-12.4988 13.3132 -2.6398 0.1431 0 8
-12.6187 13.1996 -2.6398 0.1431 0 8
-12.7376 13.0850 -2.6398 0.1431 0 8
-12.8554 12.9692 -2.6398 0.1431 0 8
-12.9722 12.8524 -2.6398 0.1431 0 8
-4.8730 4.7414 -0.9829 0.8614 0 5
-4.9092 4.6909 -0.9816 0.9523 0 5
-13.3161 12.4957 -2.6398 0.1431 0 8
-13.4286 12.3748 -2.6398 0.1431 0 8
-13.5400 12.2528 -2.6398 0.1431 0 8
-13.6503 12.1298 -2.6398 0.1431 0 8
-13.7594 12.0058 -2.6398 0.1431 0 8
-13.8675 11.8809 -2.6398 0.1431 0 8
-13.9744 11.7549 -2.6398 0.1431 0 8
-14.0801 11.6281 -2.6398 0.1431 0 8
-14.1847 11.5002 -2.6398 0.1431 0 8
-14.2882 11.3715 -2.6398 0.1431 0 8
-14.3904 11.2418 -2.6398 0.1431 0 8
-14.4915 11.1111 -2.6398 0.1431 0 8
-14.5914 10.9796 -2.6398 0.1431 0 8
-14.6902 10.8472 -2.6398 0.1431 0 8
-14.7877 10.7138 -2.6398 0.1431 0 8
-14.8840 10.5796 -2.6398 0.1431 0 8
-14.9791 10.4446 -2.6398 0.1431 0 8
-15.0729 10.3087 -2.6398 0.1431 0 8
-15.1655 10.1719 -2.6398 0.1431 0 8
-15.2569 10.0343 -2.6398 0.1431 0 8
-15.3471 9.8959 -2.6398 0.1431 0 8
-15.4360 9.7567 -2.6398 0.1431 0 8
-15.5236 9.6167 -2.6398 0.1431 0 8
-15.6099 9.4759 -2.6398 0.1431 0 8
-15.6950 9.3343 -2.6398 0.1431 0 8
-15.7788 9.1919 -2.6398 0.1431 0 8
-15.8613 9.0488 -2.6398 0.1431 0 8
-15.9425 8.9050 -2.6398 0.1431 0 8
-16.0224 8.7604 -2.6398 0.1431 0 8
-16.1010 8.6151 -2.6398 0.1431 0 8
-16.1782 8.4692 -2.6398 0.1431 0 8
-16.2542 8.3225 -2.6398 0.1431 0 8
-16.3288 8.1751 -2.6398 0.1431 0 8
-16.4021 8.0271 -2.6398 0.1431 0 8
-16.4740 7.8783 -2.6398 0.1431 0 8
-16.5446 7.7291 -2.6398 0.1431 0 8
-16.6138 7.5791 -2.6398 0.1431 0 8
-16.6817 7.4285 -2.6398 0.1431 0 8
-16.7482 7.2773 -2.6398 0.1431 0 8
-16.8134 7.1255 -2.6398 0.1431 0 8
-16.8771 6.9731 -2.6398 0.1431 0 8
-16.9395 6.8202 -2.6398 0.1431 0 8
-17.0005 6.6667 -2.6398 0.1431 0 8
-17.0601 6.5126 -2.6398 0.1431 0 8
-17.1183 6.3581 -2.6398 0.1431 0 8
-17.1751 6.2030 -2.6398 0.1431 0 8
-17.2305 6.0474 -2.6398 0.1431 0 8
-17.2845 5.8913 -2.6398 0.1431 0 8
-17.3371 5.7347 -2.6398 0.1431 0 8
-17.3883 5.5776 -2.6398 0.1431 0 8
-17.4380 5.4201 -2.6398 0.1431 0 8
-17.4863 5.2622 -2.6398 0.1431 0 8
-17.5332 5.1038 -2.6398 0.1431 0 8
-17.5786 4.9450 -2.6398 0.1431 0 8
-17.6227 4.7858 -2.6398 0.1431 0 8
-17.6652 4.6262 -2.6398 0.1431 0 8
-17.7063 4.4662 -2.6398 0.1431 0 8
-17.7460 4.3059 -2.6398 0.1431 0 8
-17.7842 4.1452 -2.6398 0.1431 0 8
-17.8210 3.9842 -2.6398 0.1431 0 8
-17.8563 3.8228 -2.6398 0.1431 0 8
-17.8902 3.6611 -2.6398 0.1431 0 8
-17.9225 3.4992 -2.6398 0.1431 0 8
-17.9535 3.3369 -2.6398 0.1431 0 8
-17.9829 3.1744 -2.6398 0.1431 0 8
-18.0109 3.0116 -2.6398 0.1431 0 8
-18.0374 2.8485 -2.6398 0.1431 0 8
-18.0624 2.6853 -2.6398 0.1431 0 8
-18.0860 2.5218 -2.6398 0.1431 0 8
-18.1080 2.3581 -2.6398 0.1431 0 8
-18.1286 2.1942 -2.6398 0.1431 0 8
-18.1477 2.0301 -2.6398 0.1431 0 8
-18.3170 1.8815 -2.6619 0.2705 0 8
-18.9303 1.7716 -2.7486 0.2620 0 8
-19.2057 1.6223 -2.7863 0.1470 0 8
-19.2389 1.4500 -2.7891 0.1468 0 8
-19.2707 1.2772 -2.7919 0.1467 0 8
-19.2836 1.1029 -2.7922 0.1431 0 7
-19.2928 0.9284 -2.7922 0.1431 0 7
-19.3004 0.7539 -2.7922 0.1431 0 7
-19.3065 0.5793 -2.7922 0.1431 0 7
-19.3109 0.4047 -2.7922 0.1431 0 7
-19.3138 0.2299 -2.7922 0.1431 0 7
-19.3151 0.0553 -2.7922 0.1431 0 7
-19.3148 -0.1195 -2.7922 0.1431 0 7
-19.3129 -0.2941 -2.7922 0.1431 0 7
-19.3095 -0.4688 -2.7922 0.1431 0 7
-19.3044 -0.6435 -2.7922 0.1431 0 7
-19.2978 -0.8181 -2.7922 0.1431 0 6
-19.2896 -0.9926 -2.7922 0.1431 0 7
-19.2799 -1.1670 -2.7922 0.1431 0 7
-19.2685 -1.3414 -2.7922 0.1431 0 7
-19.2556 -1.5156 -2.7922 0.1431 0 7
-19.2411 -1.6897 -2.7922 0.1431 0 7
-19.2250 -1.8637 -2.7922 0.1431 0 7
-19.2074 -2.0375 -2.7922 0.1431 0 7
-19.1882 -2.2112 -2.7922 0.1431 0 7
-19.1674 -2.3846 -2.7922 0.1431 0 7
-19.1450 -2.5579 -2.7922 0.1431 0 7
-19.1211 -2.7310 -2.7922 0.1431 0 7
-19.0956 -2.9038 -2.7922 0.1431 0 7
-19.0686 -3.0764 -2.7922 0.1431 0 7
-19.0400 -3.2488 -2.7922 0.1431 0 7
-19.0098 -3.4208 -2.7922 0.1431 0 7
-18.9781 -3.5927 -2.7922 0.1431 0 7
-18.9448 -3.7642 -2.7922 0.1431 0 7
-18.9100 -3.9354 -2.7922 0.1431 0 7
-18.8736 -4.1063 -2.7922 0.1431 0 7
-18.8357 -4.2768 -2.7922 0.1431 0 7
-18.7963 -4.4470 -2.7922 0.1431 0 7
-18.7553 -4.6168 -2.7922 0.1431 0 7
-18.7127 -4.7863 -2.7922 0.1431 0 7
