ply
format ascii 1.0
element vertex 1408
property float32 x
property float32 y
property float32 z
property float32 CosAngle
property uint32 ObjIdx
property uint32 ObjTag
end_header
4.3791 4.3173 -2.7007 0.4021 0 7
4.3399 4.3568 -2.7007 0.4021 0 7
4.3003 4.3959 -2.7007 0.4021 0 7
4.2603 4.4346 -2.7007 0.4021 0 7
4.2200 4.4730 -2.7007 0.4021 0 7
4.1794 4.5110 -2.7007 0.4021 0 7
4.1377 4.5479 -2.7002 0.4109 0 8
4.0952 4.5839 -2.6995 0.4110 0 8
4.0524 4.6195 -2.6987 0.4111 0 8
4.0094 4.6546 -2.6980 0.4112 0 8
3.9660 4.6895 -2.6972 0.4113 0 8
3.9223 4.7239 -2.6965 0.4114 0 8
3.8784 4.7579 -2.6958 0.4116 0 8
3.8341 4.7915 -2.6951 0.4117 0 8
3.7896 4.8247 -2.6943 0.4118 0 8
3.7448 4.8575 -2.6936 0.4119 0 8
3.6929 4.8810 -2.6880 0.6502 0 8
3.6139 4.8675 -2.6625 0.6564 0 8
3.5371 4.8553 -2.6381 0.6755 0 8
3.4615 4.8429 -2.6143 0.6678 0 8
3.3866 4.8300 -2.5907 0.6739 0 8
3.3131 4.8172 -2.5676 0.6800 0 8
3.2463 4.8128 -2.5495 0.4312 0 8
3.2018 4.8408 -2.5489 0.3728 0 8
3.1586 4.8707 -2.5495 0.4012 0 8
3.1143 4.8990 -2.5494 0.4012 0 8
3.0685 4.9247 -2.5483 0.4021 0 8
3.0238 4.9523 -2.5483 0.4021 0 8
2.9788 4.9795 -2.5483 0.4021 0 8
2.9336 5.0062 -2.5483 0.4021 0 8
2.8882 5.0326 -2.5483 0.4021 0 8
2.8425 5.0585 -2.5483 0.4021 0 8
2.7966 5.0840 -2.5483 0.4021 0 8
2.7505 5.1091 -2.5483 0.4021 0 8
2.7042 5.1338 -2.5483 0.4021 0 8
2.6576 5.1581 -2.5483 0.4021 0 8
2.6108 5.1819 -2.5483 0.4021 0 8
2.5638 5.2053 -2.5483 0.4021 0 8
2.5166 5.2283 -2.5483 0.4021 0 8
2.4692 5.2509 -2.5483 0.4021 0 8
2.4216 5.2730 -2.5483 0.4021 0 8
2.3737 5.2947 -2.5483 0.4021 0 8
2.3257 5.3160 -2.5483 0.4021 0 8
2.2775 5.3368 -2.5483 0.4021 0 8
2.2291 5.3572 -2.5483 0.4021 0 8
2.1806 5.3771 -2.5483 0.4021 0 8
2.1318 5.3967 -2.5483 0.4021 0 8
2.0829 5.4157 -2.5483 0.4021 0 8
2.0338 5.4344 -2.5483 0.4021 0 8
1.9845 5.4525 -2.5483 0.4021 0 8
1.9351 5.4703 -2.5483 0.4021 0 8
1.8855 5.4876 -2.5483 0.4021 0 8
1.8358 5.5044 -2.5483 0.4021 0 8
1.7859 5.5208 -2.5483 0.4021 0 8
1.7359 5.5367 -2.5483 0.4021 0 8
1.6857 5.5522 -2.5483 0.4021 0 8
1.6354 5.5672 -2.5483 0.4021 0 8
1.5849 5.5818 -2.5483 0.4021 0 8
1.5343 5.5959 -2.5483 0.4021 0 8
1.4836 5.6096 -2.5483 0.4021 0 8
1.4328 5.6228 -2.5483 0.4021 0 8
1.3819 5.6355 -2.5483 0.4021 0 8
1.3308 5.6478 -2.5483 0.4021 0 8
1.0915 4.8276 -2.1736 0.8397 0 5
1.0433 4.8167 -2.1644 0.8433 0 5
0.9955 4.8059 -2.1554 0.8468 0 5
0.9481 4.7951 -2.1467 0.8503 0 5
0.9011 4.7845 -2.1381 0.8536 0 5
0.8545 4.7739 -2.1299 0.8570 0 5
0.8176 4.8191 -2.1466 0.3719 0 5
0.7902 4.9275 -2.1917 0.3643 0 5
0.8669 5.7373 -2.5483 0.4021 0 8
0.8149 5.7449 -2.5483 0.4021 0 8
0.7629 5.7521 -2.5483 0.4021 0 8
0.7108 5.7588 -2.5483 0.4021 0 8
0.6587 5.7649 -2.5483 0.4021 0 8
0.6065 5.7707 -2.5483 0.4021 0 8
0.5542 5.7759 -2.5483 0.4021 0 8
0.5019 5.7807 -2.5483 0.4021 0 8
0.4496 5.7850 -2.5483 0.4021 0 8
0.3972 5.7888 -2.5483 0.4021 0 8
0.3448 5.7922 -2.5483 0.4021 0 8
0.2924 5.7951 -2.5483 0.4021 0 8
0.2399 5.7975 -2.5483 0.4021 0 8
0.1875 5.7994 -2.5483 0.4021 0 8
0.1350 5.8009 -2.5483 0.4021 0 8
0.0825 5.8019 -2.5483 0.4021 0 8
0.0300 5.8024 -2.5483 0.4021 0 8
-0.0225 5.8024 -2.5483 0.4021 0 8
-0.0751 5.8020 -2.5483 0.4021 0 8
-0.1276 5.8011 -2.5483 0.4021 0 8
-0.1800 5.7997 -2.5483 0.4021 0 8
-0.2325 5.7978 -2.5483 0.4021 0 8
-0.2850 5.7955 -2.5483 0.4021 0 8
-0.3374 5.7926 -2.5483 0.4021 0 8
-0.3898 5.7894 -2.5483 0.4021 0 8
-0.4422 5.7856 -2.5483 0.4021 0 8
-0.4945 5.7813 -2.5483 0.4021 0 8
-0.5468 5.7766 -2.5483 0.4021 0 8
-0.5991 5.7714 -2.5483 0.4021 0 8
-0.6513 5.7658 -2.5483 0.4021 0 8
-0.7035 5.7597 -2.5483 0.4021 0 8
-0.7556 5.7531 -2.5483 0.4021 0 8
-0.8076 5.7460 -2.5483 0.4021 0 8
-0.8596 5.7384 -2.5483 0.4021 0 8
-0.9115 5.7304 -2.5483 0.4021 0 8
-0.9633 5.7219 -2.5483 0.4021 0 8
-1.0150 5.7130 -2.5483 0.4021 0 8
-1.0667 5.7036 -2.5483 0.4021 0 8
-1.1182 5.6937 -2.5483 0.4021 0 8
-1.1697 5.6833 -2.5483 0.4021 0 8
-1.2211 5.6725 -2.5483 0.4021 0 8
-1.2724 5.6612 -2.5483 0.4021 0 8
-1.3236 5.6495 -2.5483 0.4021 0 8
-1.3747 5.6373 -2.5483 0.4021 0 8
-1.4256 5.6246 -2.5483 0.4021 0 8
-1.4765 5.6115 -2.5483 0.4021 0 8
-1.5272 5.5979 -2.5483 0.4021 0 8
-1.5778 5.5838 -2.5483 0.4021 0 8
-1.6282 5.5693 -2.5483 0.4021 0 8
-1.6786 5.5544 -2.5483 0.4021 0 8
-1.7288 5.5389 -2.5483 0.4021 0 8
-1.7788 5.5231 -2.5483 0.4021 0 8
-1.8287 5.5067 -2.5483 0.4021 0 8
-1.8785 5.4900 -2.5483 0.4021 0 8
-1.9281 5.4727 -2.5483 0.4021 0 8
-1.9776 5.4551 -2.5483 0.4021 0 8
-2.0268 5.4370 -2.5483 0.4021 0 8
-2.0760 5.4184 -2.5483 0.4021 0 8
-2.1249 5.3994 -2.5483 0.4021 0 8
-2.1737 5.3799 -2.5483 0.4021 0 8
-2.2223 5.3600 -2.5483 0.4021 0 8
-2.2707 5.3397 -2.5483 0.4021 0 8
-2.3189 5.3189 -2.5483 0.4021 0 8
-2.3670 5.2977 -2.5483 0.4021 0 8
-2.4148 5.2761 -2.5483 0.4021 0 8
-2.4625 5.2540 -2.5483 0.4021 0 8
-2.5099 5.2315 -2.5483 0.4021 0 8
-2.5572 5.2086 -2.5483 0.4021 0 8
-2.6042 5.1853 -2.5483 0.4021 0 8
-2.6510 5.1615 -2.5483 0.4021 0 8
-2.6976 5.1373 -2.5483 0.4021 0 8
-2.7440 5.1126 -2.5483 0.4021 0 8
-2.7901 5.0876 -2.5483 0.4021 0 8
-2.8361 5.0621 -2.5483 0.4021 0 8
-2.8818 5.0363 -2.5483 0.4021 0 8
-2.9272 5.0100 -2.5483 0.4021 0 8
-2.9724 4.9833 -2.5483 0.4021 0 8
-3.0174 4.9562 -2.5483 0.4021 0 8
-3.0622 4.9287 -2.5483 0.4021 0 8
-3.1066 4.9008 -2.5483 0.4021 0 8
-3.1509 4.8724 -2.5483 0.4021 0 8
-3.1948 4.8437 -2.5483 0.4021 0 8
-3.2385 4.8146 -2.5483 0.4021 0 8
-3.2820 4.7851 -2.5483 0.4021 0 8
-3.3251 4.7552 -2.5483 0.4021 0 8
-3.3680 4.7249 -2.5483 0.4021 0 8
-3.4107 4.6943 -2.5483 0.4021 0 8
-3.4530 4.6632 -2.5483 0.4021 0 8
-3.4950 4.6318 -2.5483 0.4021 0 8
-3.5368 4.5999 -2.5483 0.4021 0 8
-3.5783 4.5677 -2.5483 0.4021 0 8
-3.6195 4.5352 -2.5483 0.4021 0 8
-3.6604 4.5022 -2.5483 0.4021 0 8
-3.7010 4.4689 -2.5483 0.4021 0 8
-3.7504 4.4460 -2.5545 0.6448 0 8
-3.8378 4.4670 -2.5864 0.5202 0 8
-3.9316 4.4933 -2.6221 0.5131 0 8
-4.0281 4.5203 -2.6590 0.5060 0 8
-4.1210 4.5412 -2.6931 0.4094 0 8
-4.1632 4.5051 -2.6940 0.4093 0 8
-4.2051 4.4686 -2.6948 0.4091 0 8
-4.2467 4.4317 -2.6956 0.4090 0 8
-4.2879 4.3945 -2.6964 0.4089 0 8
-4.3288 4.3568 -2.6973 0.4088 0 8
-4.3695 4.3188 -2.6981 0.4086 0 8
-4.4097 4.2804 -2.6989 0.4085 0 8
-4.4497 4.2417 -2.6998 0.4084 0 8
-4.4893 4.2026 -2.7007 0.4073 0 8
-4.5272 4.1618 -2.7007 0.4021 0 7
-4.5647 4.1207 -2.7007 0.4021 0 7
-4.6018 4.0792 -2.7007 0.4021 0 7
-4.6385 4.0374 -2.7007 0.4021 0 7
-4.6749 3.9952 -2.7007 0.4021 0 7
-4.7108 3.9528 -2.7007 0.4021 0 7
-4.7464 3.9100 -2.7007 0.4021 0 7
-4.7816 3.8669 -2.7007 0.4021 0 7
-4.8164 3.8234 -2.7007 0.4021 0 7
-4.8508 3.7797 -2.7007 0.4021 0 7
-4.8848 3.7356 -2.7007 0.4021 0 7
-4.9184 3.6913 -2.7007 0.4021 0 7
-4.9516 3.6466 -2.7007 0.4021 0 7
-4.9844 3.6016 -2.7007 0.4021 0 7
-5.0168 3.5564 -2.7007 0.4021 0 7
-5.0488 3.5108 -2.7007 0.4021 0 7
-5.0803 3.4650 -2.7007 0.4021 0 7
-5.1115 3.4189 -2.7007 0.4021 0 7
-5.1422 3.3725 -2.7007 0.4021 0 7
-5.1725 3.3258 -2.7007 0.4021 0 7
-5.2024 3.2789 -2.7007 0.4021 0 7
-5.2319 3.2317 -2.7007 0.4021 0 7
-5.2609 3.1842 -2.7007 0.4021 0 7
-5.2895 3.1364 -2.7007 0.4021 0 7
-5.3177 3.0884 -2.7007 0.4021 0 7
-5.3454 3.0402 -2.7007 0.4021 0 7
-5.3727 2.9917 -2.7007 0.4021 0 7
-5.3996 2.9429 -2.7007 0.4021 0 7
-5.4260 2.8940 -2.7007 0.4021 0 7
-5.4519 2.8447 -2.7007 0.4021 0 7
-5.4775 2.7953 -2.7007 0.4021 0 7
-5.5025 2.7456 -2.7007 0.4021 0 7
-5.5272 2.6957 -2.7007 0.4021 0 7
-5.5513 2.6456 -2.7007 0.4021 0 7
-5.5750 2.5952 -2.7007 0.4021 0 7
-5.5983 2.5446 -2.7007 0.4021 0 7
-5.6211 2.4939 -2.7007 0.4021 0 7
-5.6434 2.4429 -2.7007 0.4021 0 7
-5.6653 2.3917 -2.7007 0.4021 0 7
-5.6867 2.3404 -2.7007 0.4021 0 7
-5.7077 2.2888 -2.7007 0.4021 0 7
-5.7281 2.2371 -2.7007 0.4021 0 7
-5.7482 2.1851 -2.7007 0.4021 0 7
-5.7677 2.1330 -2.7007 0.4021 0 7
-5.7868 2.0807 -2.7007 0.4021 0 7
-5.8054 2.0283 -2.7007 0.4021 0 7
-5.8235 1.9757 -2.7007 0.4021 0 7
-5.8411 1.9229 -2.7007 0.4021 0 7
-5.8583 1.8699 -2.7007 0.4021 0 7
-5.8750 1.8169 -2.7007 0.4021 0 7
-5.8912 1.7636 -2.7007 0.4021 0 7
-5.9069 1.7102 -2.7007 0.4021 0 7
-5.9221 1.6567 -2.7007 0.4021 0 7
-5.9369 1.6030 -2.7007 0.4021 0 7
-5.9511 1.5492 -2.7007 0.4021 0 7
-5.9649 1.4953 -2.7007 0.4021 0 7
-5.9782 1.4413 -2.7007 0.4021 0 7
-5.9910 1.3871 -2.7007 0.4021 0 7
-6.0033 1.3328 -2.7007 0.4021 0 7
-6.0151 1.2785 -2.7007 0.4021 0 7
-6.0264 1.2240 -2.7007 0.4021 0 7
-6.0373 1.1694 -2.7007 0.4021 0 7
-6.0476 1.1147 -2.7007 0.4021 0 7
-6.0574 1.0599 -2.7007 0.4021 0 7
-6.0668 1.0051 -2.7007 0.4021 0 7
-6.0756 0.9501 -2.7007 0.4021 0 7
-6.0840 0.8951 -2.7007 0.4021 0 7
-6.0918 0.8400 -2.7007 0.4021 0 7
-6.0992 0.7849 -2.7007 0.4021 0 7
-6.1060 0.7296 -2.7007 0.4021 0 7
-6.1124 0.6743 -2.7007 0.4021 0 7
-6.1182 0.6190 -2.7007 0.4021 0 7
-6.1236 0.5636 -2.7007 0.4021 0 7
-6.1285 0.5082 -2.7007 0.4021 0 7
-6.1328 0.4527 -2.7007 0.4021 0 7
-6.1366 0.3971 -2.7007 0.4021 0 7
-6.1400 0.3416 -2.7007 0.4021 0 7
-6.1428 0.2860 -2.7007 0.4021 0 7
-6.1452 0.2304 -2.7007 0.4021 0 7
-6.1470 0.1748 -2.7007 0.4021 0 7
-6.1483 0.1192 -2.7007 0.4021 0 7
-6.1492 0.0635 -2.7007 0.4021 0 7
-6.1495 0.0079 -2.7007 0.4021 0 7
-6.1493 -0.0478 -2.7007 0.4021 0 7
-6.1486 -0.1034 -2.7007 0.4021 0 7
-6.1474 -0.1591 -2.7007 0.4021 0 7
-6.1457 -0.2147 -2.7007 0.4021 0 7
-6.1435 -0.2703 -2.7007 0.4021 0 7
-6.1408 -0.3259 -2.7007 0.4021 0 7
-6.1376 -0.3815 -2.7007 0.4021 0 7
-6.1339 -0.4370 -2.7007 0.4021 0 7
-6.1297 -0.4925 -2.7007 0.4021 0 7
-6.1250 -0.5479 -2.7007 0.4021 0 7
-6.1198 -0.6033 -2.7007 0.4021 0 7
-6.1141 -0.6587 -2.7007 0.4021 0 7
-6.1079 -0.7140 -2.7007 0.4021 0 7
-6.1012 -0.7692 -2.7007 0.4021 0 7
-6.0940 -0.8244 -2.7007 0.4021 0 7
-6.0863 -0.8795 -2.7007 0.4021 0 7
-6.0780 -0.9346 -2.7007 0.4021 0 7
-6.0693 -0.9896 -2.7007 0.4021 0 7
-6.0601 -1.0444 -2.7007 0.4021 0 7
-6.0504 -1.0992 -2.7007 0.4021 0 7
-6.0402 -1.1540 -2.7007 0.4021 0 7
-6.0296 -1.2086 -2.7007 0.4021 0 7
-6.0184 -1.2631 -2.7007 0.4021 0 7
-6.0067 -1.3175 -2.7007 0.4021 0 7
-5.9945 -1.3718 -2.7007 0.4021 0 7
-5.9819 -1.4260 -2.7007 0.4021 0 7
-5.9687 -1.4801 -2.7007 0.4021 0 7
-5.9551 -1.5340 -2.7007 0.4021 0 7
-5.9409 -1.5879 -2.7007 0.4021 0 7
-5.9263 -1.6416 -2.7007 0.4021 0 7
-5.9112 -1.6951 -2.7007 0.4021 0 7
-5.8957 -1.7485 -2.7007 0.4021 0 7
-5.8796 -1.8018 -2.7007 0.4021 0 7
-5.8630 -1.8550 -2.7007 0.4021 0 7
-5.8460 -1.9079 -2.7007 0.4021 0 7
-5.8285 -1.9608 -2.7007 0.4021 0 7
-5.8105 -2.0134 -2.7007 0.4021 0 7
-5.7921 -2.0659 -2.7007 0.4021 0 7
-5.7731 -2.1183 -2.7007 0.4021 0 7
-5.7537 -2.1704 -2.7007 0.4021 0 7
-5.7339 -2.2224 -2.7007 0.4021 0 7
-5.7135 -2.2742 -2.7007 0.4021 0 7
-5.6927 -2.3258 -2.7007 0.4021 0 7
-5.6714 -2.3772 -2.7007 0.4021 0 7
-5.6497 -2.4285 -2.7007 0.4021 0 7
-5.6275 -2.4795 -2.7007 0.4021 0 7
-5.6048 -2.5303 -2.7007 0.4021 0 7
-5.5817 -2.5809 -2.7007 0.4021 0 7
-5.5581 -2.6313 -2.7007 0.4021 0 7
-5.5340 -2.6815 -2.7007 0.4021 0 7
-5.5095 -2.7315 -2.7007 0.4021 0 7
-5.4846 -2.7813 -2.7007 0.4021 0 7
-5.4592 -2.8308 -2.7007 0.4021 0 7
-5.4333 -2.8801 -2.7007 0.4021 0 7
-5.4071 -2.9291 -2.7007 0.4021 0 7
-5.3803 -2.9779 -2.7007 0.4021 0 7
-5.3532 -3.0265 -2.7007 0.4021 0 7
-5.3256 -3.0748 -2.7007 0.4021 0 7
-5.2975 -3.1229 -2.7007 0.4021 0 7
-5.2690 -3.1707 -2.7007 0.4021 0 7
-5.2401 -3.2183 -2.7007 0.4021 0 7
-5.2108 -3.2655 -2.7007 0.4021 0 7
-5.1810 -3.3126 -2.7007 0.4021 0 7
-5.1508 -3.3593 -2.7007 0.4021 0 7
-5.1202 -3.4058 -2.7007 0.4021 0 7
-5.0892 -3.4520 -2.7007 0.4021 0 7
-5.0577 -3.4979 -2.7007 0.4021 0 7
-5.0259 -3.5435 -2.7007 0.4021 0 7
-4.9936 -3.5889 -2.7007 0.4021 0 7
-4.9609 -3.6339 -2.7007 0.4021 0 7
-4.9278 -3.6787 -2.7007 0.4021 0 7
-4.8943 -3.7231 -2.7007 0.4021 0 7
-4.8604 -3.7673 -2.7007 0.4021 0 7
-4.8262 -3.8111 -2.7007 0.4021 0 7
-4.7915 -3.8546 -2.7007 0.4021 0 7
-4.7564 -3.8978 -2.7007 0.4021 0 7
-4.7209 -3.9407 -2.7007 0.4021 0 7
-4.6851 -3.9833 -2.7007 0.4021 0 7
-4.6488 -4.0255 -2.7007 0.4021 0 7
-4.6122 -4.0674 -2.7007 0.4021 0 7
-4.5752 -4.1090 -2.7007 0.4021 0 7
-4.5378 -4.1502 -2.7007 0.4021 0 7
-4.5001 -4.1911 -2.7007 0.4021 0 7
-4.4620 -4.2317 -2.7007 0.4021 0 7
-4.4235 -4.2719 -2.7007 0.4021 0 7
-4.3847 -4.3117 -2.7007 0.4021 0 7
-4.3455 -4.3512 -2.7007 0.4021 0 7
-4.3059 -4.3904 -2.7007 0.4021 0 7
-4.2660 -4.4292 -2.7007 0.4021 0 7
-4.2257 -4.4676 -2.7007 0.4021 0 7
-4.1851 -4.5056 -2.7007 0.4021 0 7
-4.1442 -4.5433 -2.7007 0.4021 0 7
-4.1029 -4.5806 -2.7007 0.4021 0 7
-4.0613 -4.6176 -2.7007 0.4021 0 7
-4.0193 -4.6542 -2.7007 0.4021 0 7
-3.9770 -4.6904 -2.7007 0.4021 0 7
-3.9344 -4.7261 -2.7007 0.4021 0 7
-3.8915 -4.7615 -2.7007 0.4021 0 7
-3.8483 -4.7966 -2.7007 0.4021 0 7
-3.8047 -4.8312 -2.7007 0.4021 0 7
-3.7608 -4.8654 -2.7007 0.4021 0 7
-3.7166 -4.8993 -2.7007 0.4021 0 7
-3.6721 -4.9327 -2.7007 0.4021 0 7
-3.6273 -4.9657 -2.7007 0.4021 0 7
-3.5823 -4.9984 -2.7007 0.4021 0 7
-3.5369 -5.0306 -2.7007 0.4021 0 7
-3.4912 -5.0624 -2.7007 0.4021 0 7
-3.4452 -5.0938 -2.7007 0.4021 0 7
-3.3990 -5.1247 -2.7007 0.4021 0 7
-3.3525 -5.1553 -2.7007 0.4021 0 7
-3.3057 -5.1854 -2.7007 0.4021 0 7
-3.2586 -5.2151 -2.7007 0.4021 0 7
-3.2113 -5.2444 -2.7007 0.4021 0 7
-3.1637 -5.2732 -2.7007 0.4021 0 7
-3.1159 -5.3017 -2.7007 0.4021 0 7
-3.0678 -5.3296 -2.7007 0.4021 0 7
-3.0194 -5.3572 -2.7007 0.4021 0 7
-2.9708 -5.3843 -2.7007 0.4021 0 7
-2.9220 -5.4109 -2.7007 0.4021 0 7
-2.8729 -5.4372 -2.7007 0.4021 0 7
-2.8235 -5.4629 -2.7007 0.4021 0 7
-2.7740 -5.4883 -2.7007 0.4021 0 6
-2.7242 -5.5131 -2.7007 0.4021 0 6
-2.6742 -5.5376 -2.7007 0.4021 0 7
-2.6240 -5.5616 -2.7007 0.4021 0 7
-2.5735 -5.5851 -2.7007 0.4021 0 7
-2.5229 -5.6081 -2.7007 0.4021 0 7
-2.4720 -5.6307 -2.7007 0.4021 0 7
-2.4210 -5.6529 -2.7007 0.4021 0 7
-2.3697 -5.6746 -2.7007 0.4021 0 7
-2.3183 -5.6958 -2.7007 0.4021 0 7
-2.2666 -5.7165 -2.7007 0.4021 0 7
-2.2148 -5.7368 -2.7007 0.4021 0 7
-2.1628 -5.7566 -2.7007 0.4021 0 7
-2.1106 -5.7759 -2.7007 0.4021 0 7
-2.0583 -5.7948 -2.7007 0.4021 0 7
-2.0057 -5.8132 -2.7007 0.4021 0 7
-1.9530 -5.8311 -2.7007 0.4021 0 7
-1.9002 -5.8485 -2.7007 0.4021 0 7
-1.8472 -5.8655 -2.7007 0.4021 0 6
-1.7940 -5.8820 -2.7007 0.4021 0 6
-1.7407 -5.8980 -2.7007 0.4021 0 6
-1.6873 -5.9135 -2.7007 0.4021 0 6
-1.6337 -5.9285 -2.7007 0.4021 0 6
-1.5800 -5.9430 -2.7007 0.4021 0 6
-1.5261 -5.9571 -2.7007 0.4021 0 6
-1.4721 -5.9707 -2.7007 0.4021 0 6
-1.4180 -5.9837 -2.7007 0.4021 0 6
-1.3638 -5.9963 -2.7007 0.4021 0 6
-1.3095 -6.0084 -2.7007 0.4021 0 6
-1.2551 -6.0200 -2.7007 0.4021 0 6
-1.2006 -6.0312 -2.7007 0.4021 0 6
-1.1459 -6.0418 -2.7007 0.4021 0 6
-1.0912 -6.0519 -2.7007 0.4021 0 6
-1.0364 -6.0615 -2.7007 0.4021 0 6
-0.9815 -6.0707 -2.7007 0.4021 0 6
-0.9265 -6.0793 -2.7007 0.4021 0 6
-0.8715 -6.0874 -2.7007 0.4021 0 6
-0.8163 -6.0951 -2.7007 0.4021 0 6
-0.7611 -6.1022 -2.7007 0.4021 0 6
-0.7059 -6.1088 -2.7007 0.4021 0 7
-0.6506 -6.1150 -2.7007 0.4021 0 7
-0.5952 -6.1206 -2.7007 0.4021 0 7
-0.5398 -6.1257 -2.7007 0.4021 0 7
-0.4843 -6.1304 -2.7007 0.4021 0 7
-0.4289 -6.1345 -2.7007 0.4021 0 7
-0.3733 -6.1381 -2.7007 0.4021 0 7
-0.3177 -6.1413 -2.7007 0.4021 0 7
-0.2622 -6.1439 -2.7007 0.4021 0 7
-0.2065 -6.1460 -2.7007 0.4021 0 7
-0.1509 -6.1476 -2.7007 0.4021 0 7
-0.0953 -6.1487 -2.7007 0.4021 0 7
-0.0396 -6.1494 -2.7007 0.4021 0 7
0.0160 -6.1495 -2.7007 0.4021 0 7
0.0717 -6.1491 -2.7007 0.4021 0 7
0.1273 -6.1482 -2.7007 0.4021 0 7
0.1830 -6.1468 -2.7007 0.4021 0 7
0.2386 -6.1448 -2.7007 0.4021 0 7
0.2942 -6.1425 -2.7007 0.4021 0 7
0.3497 -6.1395 -2.7007 0.4021 0 7
0.4053 -6.1361 -2.7007 0.4021 0 7
0.4608 -6.1322 -2.7007 0.4021 0 7
0.5163 -6.1278 -2.7007 0.4021 0 7
0.5717 -6.1229 -2.7007 0.4021 0 7
0.6271 -6.1174 -2.7007 0.4021 0 7
0.6824 -6.1115 -2.7007 0.4021 0 7
0.7377 -6.1051 -2.7007 0.4021 0 7
0.7929 -6.0981 -2.7007 0.4021 0 7
0.8481 -6.0907 -2.7007 0.4021 0 7
0.9032 -6.0828 -2.7007 0.4021 0 7
0.9582 -6.0744 -2.7007 0.4021 0 7
1.0131 -6.0655 -2.7007 0.4021 0 7
1.0680 -6.0560 -2.7007 0.4021 0 7
1.1227 -6.0461 -2.7007 0.4021 0 7
1.1774 -6.0357 -2.7007 0.4021 0 7
1.2320 -6.0248 -2.7007 0.4021 0 7
1.2865 -6.0134 -2.7007 0.4021 0 7
1.3408 -6.0015 -2.7007 0.4021 0 7
1.3951 -5.9891 -2.7007 0.4021 0 7
1.4492 -5.9763 -2.7007 0.4021 0 7
1.5032 -5.9629 -2.7007 0.4021 0 7
1.5571 -5.9491 -2.7007 0.4021 0 7
1.6109 -5.9347 -2.7007 0.4021 0 7
1.6646 -5.9199 -2.7007 0.4021 0 7
1.7181 -5.9046 -2.7007 0.4021 0 7
1.7714 -5.8888 -2.7007 0.4021 0 7
1.8246 -5.8725 -2.7007 0.4021 0 7
1.8777 -5.8558 -2.7007 0.4021 0 7
1.9306 -5.8386 -2.7007 0.4021 0 7
1.9834 -5.8208 -2.7007 0.4021 0 7
2.0360 -5.8026 -2.7007 0.4021 0 7
2.0884 -5.7840 -2.7007 0.4021 0 7
2.1407 -5.7649 -2.7007 0.4021 0 7
2.1928 -5.7452 -2.7007 0.4021 0 7
2.2447 -5.7252 -2.7007 0.4021 0 7
2.2964 -5.7046 -2.7007 0.4021 0 7
2.3479 -5.6836 -2.7007 0.4021 0 7
2.3993 -5.6621 -2.7007 0.4021 0 7
2.4504 -5.6402 -2.7007 0.4021 0 7
2.5013 -5.6178 -2.7007 0.4021 0 7
2.5521 -5.5949 -2.7007 0.4021 0 7
2.6026 -5.5716 -2.7007 0.4021 0 6
2.6529 -5.5478 -2.7007 0.4021 0 6
2.7030 -5.5236 -2.7007 0.4021 0 6
2.7529 -5.4989 -2.7007 0.4021 0 6
2.8026 -5.4737 -2.7007 0.4021 0 6
2.8520 -5.4482 -2.7007 0.4021 0 6
2.9012 -5.4221 -2.7007 0.4021 0 6
2.9501 -5.3956 -2.7007 0.4021 0 7
2.9988 -5.3687 -2.7007 0.4021 0 7
3.0473 -5.3414 -2.7007 0.4021 0 7
3.0955 -5.3136 -2.7007 0.4021 0 7
3.1435 -5.2853 -2.7007 0.4021 0 7
3.1912 -5.2567 -2.7007 0.4021 0 7
3.2386 -5.2276 -2.7007 0.4021 0 7
3.2858 -5.1981 -2.7007 0.4021 0 7
3.3327 -5.1681 -2.7007 0.4021 0 7
3.3793 -5.1377 -2.7007 0.4021 0 7
3.4257 -5.1069 -2.7007 0.4021 0 7
3.4717 -5.0757 -2.7007 0.4021 0 7
3.5175 -5.0441 -2.7007 0.4021 0 6
3.5630 -5.0121 -2.7007 0.4021 0 6
3.6083 -4.9796 -2.7007 0.4021 0 6
3.6532 -4.9468 -2.7007 0.4021 0 6
3.6978 -4.9135 -2.7007 0.4021 0 6
3.7421 -4.8798 -2.7007 0.4021 0 6
3.7861 -4.8458 -2.7007 0.4021 0 7
3.8298 -4.8113 -2.7007 0.4021 0 7
3.8732 -4.7765 -2.7007 0.4021 0 7
3.9163 -4.7412 -2.7007 0.4021 0 7
3.9590 -4.7056 -2.7007 0.4021 0 7
4.0014 -4.6696 -2.7007 0.4021 0 6
4.0435 -4.6332 -2.7007 0.4021 0 6
4.0853 -4.5964 -2.7007 0.4021 0 6
4.1267 -4.5592 -2.7007 0.4021 0 6
4.1678 -4.5217 -2.7007 0.4021 0 6
4.2086 -4.4838 -2.7007 0.4021 0 7
4.2490 -4.4455 -2.7007 0.4021 0 7
4.2890 -4.4069 -2.7007 0.4021 0 7
4.3287 -4.3679 -2.7007 0.4021 0 7
4.3681 -4.3285 -2.7007 0.4021 0 7
4.4071 -4.2888 -2.7007 0.4021 0 7
4.4457 -4.2487 -2.7007 0.4021 0 7
4.4840 -4.2083 -2.7007 0.4021 0 7
4.5219 -4.1676 -2.7007 0.4021 0 7
4.5594 -4.1265 -2.7007 0.4021 0 7
4.5966 -4.0851 -2.7007 0.4021 0 7
4.6333 -4.0433 -2.7007 0.4021 0 7
4.6697 -4.0012 -2.7007 0.4021 0 7
4.7058 -3.9588 -2.7007 0.4021 0 7
4.7414 -3.9160 -2.7007 0.4021 0 7
4.7766 -3.8730 -2.7007 0.4021 0 7
4.8115 -3.8296 -2.7007 0.4021 0 7
4.8459 -3.7859 -2.7007 0.4021 0 7
4.8800 -3.7419 -2.7007 0.4021 0 7
4.9137 -3.6976 -2.7007 0.4021 0 7
4.9469 -3.6529 -2.7007 0.4021 0 7
4.9798 -3.6080 -2.7007 0.4021 0 7
5.0122 -3.5628 -2.7007 0.4021 0 7
5.0443 -3.5173 -2.7007 0.4021 0 7
5.0759 -3.4715 -2.7007 0.4021 0 7
5.1071 -3.4254 -2.7007 0.4021 0 7
5.1379 -3.3791 -2.7007 0.4021 0 7
5.1683 -3.3324 -2.7007 0.4021 0 7
5.1982 -3.2855 -2.7007 0.4021 0 7
5.2277 -3.2383 -2.7007 0.4021 0 7
5.2568 -3.1909 -2.7007 0.4021 0 7
5.2855 -3.1432 -2.7007 0.4021 0 7
5.3137 -3.0952 -2.7007 0.4021 0 7
5.3415 -3.0470 -2.7007 0.4021 0 7
5.3689 -2.9986 -2.7007 0.4021 0 7
5.3958 -2.9498 -2.7007 0.4021 0 7
5.4223 -2.9009 -2.7007 0.4021 0 7
5.4483 -2.8517 -2.7007 0.4021 0 7
5.4739 -2.8023 -2.7007 0.4021 0 7
5.4990 -2.7526 -2.7007 0.4021 0 7
5.5237 -2.7028 -2.7007 0.4021 0 7
5.5479 -2.6527 -2.7007 0.4021 0 7
5.5717 -2.6023 -2.7007 0.4021 0 7
5.5950 -2.5518 -2.7007 0.4021 0 7
5.6179 -2.5011 -2.7007 0.4021 0 7
5.6403 -2.4501 -2.7007 0.4021 0 7
5.6622 -2.3990 -2.7007 0.4021 0 7
5.6837 -2.3476 -2.7007 0.4021 0 7
5.7047 -2.2961 -2.7007 0.4021 0 7
5.7253 -2.2444 -2.7007 0.4021 0 7
5.7454 -2.1925 -2.7007 0.4021 0 7
5.7650 -2.1404 -2.7007 0.4021 0 7
5.7841 -2.0882 -2.7007 0.4021 0 7
5.8027 -2.0357 -2.7007 0.4021 0 7
5.8209 -1.9831 -2.7007 0.4021 0 7
5.8387 -1.9304 -2.7007 0.4021 0 7
5.8559 -1.8775 -2.7007 0.4021 0 7
5.8726 -1.8244 -2.7007 0.4021 0 7
5.8889 -1.7712 -2.7007 0.4021 0 7
5.9047 -1.7178 -2.7007 0.4021 0 7
5.9200 -1.6643 -2.7007 0.4021 0 7
5.9348 -1.6106 -2.7007 0.4021 0 7
5.9491 -1.5569 -2.7007 0.4021 0 7
5.9630 -1.5030 -2.7007 0.4021 0 7
5.9763 -1.4489 -2.7007 0.4021 0 7
5.9892 -1.3948 -2.7007 0.4021 0 7
6.0016 -1.3405 -2.7007 0.4021 0 7
6.0135 -1.2862 -2.7007 0.4021 0 7
6.0249 -1.2317 -2.7007 0.4021 0 7
6.0358 -1.1771 -2.7007 0.4021 0 7
6.0462 -1.1225 -2.7007 0.4021 0 7
6.0561 -1.0677 -2.7007 0.4021 0 7
6.0655 -1.0128 -2.7007 0.4021 0 7
6.0744 -0.9579 -2.7007 0.4021 0 7
6.0828 -0.9029 -2.7007 0.4021 0 7
6.0908 -0.8478 -2.7007 0.4021 0 7
6.0982 -0.7927 -2.7007 0.4021 0 7
6.1051 -0.7374 -2.7007 0.4021 0 7
6.1115 -0.6822 -2.7007 0.4021 0 7
6.1175 -0.6268 -2.7007 0.4021 0 7
6.1229 -0.5714 -2.7007 0.4021 0 7
6.1278 -0.5160 -2.7007 0.4021 0 7
6.1322 -0.4605 -2.7007 0.4021 0 7
6.1361 -0.4050 -2.7007 0.4021 0 7
6.1395 -0.3495 -2.7007 0.4021 0 7
6.1425 -0.2939 -2.7007 0.4021 0 7
6.1449 -0.2383 -2.7007 0.4021 0 7
6.1468 -0.1827 -2.7007 0.4021 0 7
6.1482 -0.1270 -2.7007 0.4021 0 7
6.1491 -0.0714 -2.7007 0.4021 0 7
6.1495 -0.0157 -2.7007 0.4021 0 7
6.1494 0.0399 -2.7007 0.4021 0 7
6.1487 0.0956 -2.7007 0.4021 0 7
6.1476 0.1512 -2.7007 0.4021 0 7
6.1460 0.2068 -2.7007 0.4021 0 7
6.1439 0.2624 -2.7007 0.4021 0 7
6.1412 0.3180 -2.7007 0.4021 0 7
6.1381 0.3736 -2.7007 0.4021 0 7
6.1345 0.4291 -2.7007 0.4021 0 7
6.1304 0.4846 -2.7007 0.4021 0 7
6.1257 0.5401 -2.7007 0.4021 0 7
6.1206 0.5955 -2.7007 0.4021 0 7
6.1149 0.6509 -2.7007 0.4021 0 7
6.1088 0.7062 -2.7007 0.4021 0 7
6.1022 0.7614 -2.7007 0.4021 0 7
6.0950 0.8166 -2.7007 0.4021 0 7
6.0874 0.8718 -2.7007 0.4021 0 7
6.0792 0.9268 -2.7007 0.4021 0 7
6.0706 0.9818 -2.7007 0.4021 0 7
6.0615 1.0367 -2.7007 0.4021 0 7
6.0518 1.0915 -2.7007 0.4021 0 7
6.0417 1.1462 -2.7007 0.4021 0 7
6.0311 1.2008 -2.7007 0.4021 0 7
6.0200 1.2554 -2.7007 0.4021 0 7
6.0084 1.3098 -2.7007 0.4021 0 7
5.9963 1.3641 -2.7007 0.4021 0 7
5.9837 1.4183 -2.7007 0.4021 0 7
5.9706 1.4724 -2.7007 0.4021 0 7
5.9570 1.5264 -2.7007 0.4021 0 7
5.9430 1.5802 -2.7007 0.4021 0 7
5.9284 1.6340 -2.7007 0.4021 0 7
5.9134 1.6875 -2.7007 0.4021 0 7
5.8979 1.7410 -2.7007 0.4021 0 7
5.8819 1.7943 -2.7007 0.4021 0 7
5.8654 1.8475 -2.7007 0.4021 0 7
5.8484 1.9005 -2.7007 0.4021 0 7
5.8310 1.9533 -2.7007 0.4021 0 7
5.8131 2.0060 -2.7007 0.4021 0 7
5.7947 2.0585 -2.7007 0.4021 0 7
5.7758 2.1109 -2.7007 0.4021 0 7
5.7565 2.1631 -2.7007 0.4021 0 7
5.7367 2.2151 -2.7007 0.4021 0 7
5.7164 2.2669 -2.7007 0.4021 0 7
5.6957 2.3185 -2.7007 0.4021 0 7
5.6744 2.3700 -2.7007 0.4021 0 7
5.6528 2.4212 -2.7007 0.4021 0 7
5.6306 2.4723 -2.7007 0.4021 0 7
5.6080 2.5232 -2.7007 0.4021 0 7
5.5849 2.5738 -2.7007 0.4021 0 7
5.5614 2.6242 -2.7007 0.4021 0 7
5.5374 2.6745 -2.7007 0.4021 0 7
5.5130 2.7245 -2.7007 0.4021 0 6
5.4881 2.7742 -2.7007 0.4021 0 6
5.4628 2.8238 -2.7007 0.4021 0 6
5.4370 2.8731 -2.7007 0.4021 0 7
5.4108 2.9222 -2.7007 0.4021 0 7
5.3841 2.9711 -2.7007 0.4021 0 7
5.3570 3.0197 -2.7007 0.4021 0 7
5.3295 3.0680 -2.7007 0.4021 0 7
5.3015 3.1161 -2.7007 0.4021 0 7
5.2731 3.1640 -2.7007 0.4021 0 7
5.2442 3.2116 -2.7007 0.4021 0 7
5.2150 3.2589 -2.7007 0.4021 0 7
5.1852 3.3059 -2.7007 0.4021 0 7
5.1551 3.3527 -2.7007 0.4021 0 7
5.1246 3.3993 -2.7007 0.4021 0 7
5.0936 3.4455 -2.7007 0.4021 0 7
5.0622 3.4914 -2.7007 0.4021 0 7
5.0304 3.5371 -2.7007 0.4021 0 7
4.9982 3.5825 -2.7007 0.4021 0 7
4.9656 3.6276 -2.7007 0.4021 0 7
4.9325 3.6724 -2.7007 0.4021 0 7
4.8991 3.7168 -2.7007 0.4021 0 7
4.8653 3.7610 -2.7007 0.4021 0 7
4.8310 3.8049 -2.7007 0.4021 0 7
4.7964 3.8485 -2.7007 0.4021 0 7
4.7614 3.8917 -2.7007 0.4021 0 7
4.7259 3.9346 -2.7007 0.4021 0 7
4.6901 3.9773 -2.7007 0.4021 0 7
4.6540 4.0195 -2.7007 0.4021 0 7
4.6174 4.0615 -2.7007 0.4021 0 7
4.5805 4.1031 -2.7007 0.4021 0 7
4.5431 4.1444 -2.7007 0.4021 0 7
4.5054 4.1853 -2.7007 0.4021 0 7
4.4674 4.2259 -2.7007 0.4021 0 7
4.4289 4.2662 -2.7007 0.4021 0 7
4.3902 4.3061 -2.7007 0.4021 0 7
4.3510 4.3457 -2.7007 0.4021 0 7
4.3115 4.3848 -2.7007 0.4021 0 7
4.2716 4.4237 -2.7007 0.4021 0 7
4.2314 4.4622 -2.7007 0.4021 0 7
4.1909 4.5003 -2.7007 0.4021 0 7
4.1497 4.5376 -2.7005 0.4108 0 8
4.1073 4.5737 -2.6997 0.4110 0 8
4.0646 4.6094 -2.6989 0.4111 0 8
4.0216 4.6447 -2.6982 0.4112 0 8
3.9783 4.6797 -2.6975 0.4113 0 8
3.9347 4.7142 -2.6967 0.4114 0 8
3.8908 4.7483 -2.6960 0.4115 0 8
3.8466 4.7820 -2.6953 0.4116 0 8
3.8022 4.8154 -2.6945 0.4117 0 8
3.7575 4.8483 -2.6938 0.4118 0 8
3.7125 4.8808 -2.6931 0.4120 0 8
3.6361 4.8713 -2.6696 0.6546 0 8
3.5586 4.8586 -2.6449 0.6738 0 8
3.4829 4.8466 -2.6211 0.6661 0 8
3.4076 4.8336 -2.5973 0.6722 0 8
3.3337 4.8208 -2.5741 0.6783 0 8
3.2623 4.8100 -2.5524 0.7244 0 8
3.2134 4.8315 -2.5483 0.3729 0 8
3.1710 4.8626 -2.5495 0.4012 0 8
3.1268 4.8910 -2.5494 0.4012 0 8
3.0856 4.9242 -2.5520 0.7422 0 8
3.0364 4.9446 -2.5483 0.4021 0 8
2.9915 4.9718 -2.5483 0.4021 0 8
2.9464 4.9987 -2.5483 0.4021 0 8
2.9011 5.0252 -2.5483 0.4021 0 8
2.8555 5.0512 -2.5483 0.4021 0 8
2.8096 5.0769 -2.5483 0.4021 0 8
2.7636 5.1021 -2.5483 0.4021 0 8
2.7173 5.1269 -2.5483 0.4021 0 8
2.6708 5.1512 -2.5483 0.4021 0 8
2.6241 5.1752 -2.5483 0.4021 0 8
2.5771 5.1987 -2.5483 0.4021 0 8
2.5300 5.2219 -2.5483 0.4021 0 8
2.4826 5.2445 -2.5483 0.4021 0 8
2.4350 5.2668 -2.5483 0.4021 0 8
2.3873 5.2886 -2.5483 0.4021 0 8
2.3393 5.3100 -2.5483 0.4021 0 8
2.2912 5.3310 -2.5483 0.4021 0 8
2.2428 5.3515 -2.5483 0.4021 0 8
2.1943 5.3715 -2.5483 0.4021 0 8
2.1456 5.3912 -2.5483 0.4021 0 8
2.0967 5.4104 -2.5483 0.4021 0 8
2.0477 5.4291 -2.5483 0.4021 0 8
1.9985 5.4474 -2.5483 0.4021 0 8
1.9491 5.4653 -2.5483 0.4021 0 8
1.8995 5.4827 -2.5483 0.4021 0 8
1.8499 5.4997 -2.5483 0.4021 0 8
1.8000 5.5162 -2.5483 0.4021 0 8
1.7500 5.5323 -2.5483 0.4021 0 8
1.6999 5.5479 -2.5483 0.4021 0 8
1.6496 5.5630 -2.5483 0.4021 0 8
5.7916 -0.0000 -2.7007 0.4226 0 7
5.7914 0.0524 -2.7007 0.4226 0 7
5.7907 0.1048 -2.7007 0.4226 0 7
5.7895 0.1572 -2.7007 0.4226 0 7
5.7878 0.2096 -2.7007 0.4226 0 7
5.7857 0.2620 -2.7007 0.4226 0 7
5.7831 0.3143 -2.7007 0.4226 0 7
5.7800 0.3666 -2.7007 0.4226 0 7
5.7764 0.4189 -2.7007 0.4226 0 7
5.7724 0.4712 -2.7007 0.4226 0 7
5.7679 0.5234 -2.7007 0.4226 0 7
5.7629 0.5756 -2.7007 0.4226 0 7
5.7575 0.6277 -2.7007 0.4226 0 7
5.7516 0.6798 -2.7007 0.4226 0 7
5.7452 0.7318 -2.7007 0.4226 0 7
5.7383 0.7838 -2.7007 0.4226 0 7
5.7310 0.8357 -2.7007 0.4226 0 7
5.7232 0.8875 -2.7007 0.4226 0 7
5.7149 0.9393 -2.7007 0.4226 0 7
5.7062 0.9910 -2.7007 0.4226 0 7
5.6970 1.0426 -2.7007 0.4226 0 7
5.6873 1.0941 -2.7007 0.4226 0 7
5.6772 1.1455 -2.7007 0.4226 0 7
5.6666 1.1968 -2.7007 0.4226 0 7
5.6555 1.2480 -2.7007 0.4226 0 7
5.6440 1.2992 -2.7007 0.4226 0 7
5.6320 1.3502 -2.7007 0.4226 0 7
5.6196 1.4011 -2.7007 0.4226 0 7
5.6067 1.4519 -2.7007 0.4226 0 7
5.5933 1.5026 -2.7007 0.4226 0 7
5.5795 1.5532 -2.7007 0.4226 0 7
5.5652 1.6036 -2.7007 0.4226 0 7
5.5504 1.6539 -2.7007 0.4226 0 7
5.5352 1.7040 -2.7007 0.4226 0 7
5.5196 1.7541 -2.7007 0.4226 0 7
5.5035 1.8039 -2.7007 0.4226 0 7
5.4869 1.8537 -2.7007 0.4226 0 7
5.4700 1.9033 -2.7007 0.4226 0 7
5.4525 1.9527 -2.7007 0.4226 0 7
5.4346 2.0019 -2.7007 0.4226 0 7
5.4163 2.0510 -2.7007 0.4226 0 7
5.3975 2.1000 -2.7007 0.4226 0 7
5.3783 2.1487 -2.7007 0.4226 0 7
5.3586 2.1973 -2.7007 0.4226 0 7
5.3385 2.2457 -2.7007 0.4226 0 7
5.3179 2.2939 -2.7007 0.4226 0 7
5.2970 2.3420 -2.7007 0.4226 0 7
5.2756 2.3898 -2.7007 0.4226 0 7
5.2537 2.4375 -2.7007 0.4226 0 7
5.2314 2.4849 -2.7007 0.4226 0 7
5.2087 2.5322 -2.7007 0.4226 0 7
5.1856 2.5792 -2.7007 0.4226 0 7
5.1621 2.6260 -2.7007 0.4226 0 7
5.1381 2.6726 -2.7007 0.4226 0 6
5.1137 2.7190 -2.7007 0.4226 0 6
5.0889 2.7652 -2.7007 0.4226 0 7
5.0636 2.8111 -2.7007 0.4226 0 7
5.0380 2.8568 -2.7007 0.4226 0 7
5.0119 2.9023 -2.7007 0.4226 0 7
4.9855 2.9475 -2.7007 0.4226 0 7
4.9586 2.9925 -2.7007 0.4226 0 7
4.9313 3.0373 -2.7007 0.4226 0 7
4.9036 3.0818 -2.7007 0.4226 0 7
4.8755 3.1260 -2.7007 0.4226 0 7
4.8470 3.1700 -2.7007 0.4226 0 7
4.8181 3.2138 -2.7007 0.4226 0 7
4.7889 3.2572 -2.7007 0.4226 0 7
4.7592 3.3004 -2.7007 0.4226 0 7
4.7291 3.3434 -2.7007 0.4226 0 7
4.6987 3.3860 -2.7007 0.4226 0 7
4.6678 3.4284 -2.7007 0.4226 0 7
4.6366 3.4705 -2.7007 0.4226 0 7
4.6050 3.5123 -2.7007 0.4226 0 7
4.5730 3.5539 -2.7007 0.4226 0 7
4.5407 3.5951 -2.7007 0.4226 0 7
4.5080 3.6361 -2.7007 0.4226 0 7
4.4749 3.6767 -2.7007 0.4226 0 7
4.4414 3.7170 -2.7007 0.4226 0 7
4.4076 3.7571 -2.7007 0.4226 0 7
4.3734 3.7968 -2.7007 0.4226 0 7
4.3389 3.8362 -2.7007 0.4226 0 7
4.3040 3.8754 -2.7007 0.4226 0 7
4.2687 3.9141 -2.7007 0.4226 0 7
4.2331 3.9526 -2.7007 0.4226 0 7
4.1972 3.9908 -2.7007 0.4226 0 7
4.1609 4.0286 -2.7007 0.4226 0 7
4.1243 4.0661 -2.7007 0.4226 0 7
4.0873 4.1032 -2.7007 0.4226 0 7
4.0500 4.1400 -2.7007 0.4226 0 7
4.0124 4.1765 -2.7007 0.4226 0 7
3.9744 4.2127 -2.7007 0.4226 0 7
3.9361 4.2485 -2.7007 0.4226 0 7
3.8975 4.2839 -2.7007 0.4226 0 7
3.8586 4.3190 -2.7007 0.4226 0 7
3.8194 4.3538 -2.7007 0.4226 0 7
3.7798 4.3881 -2.7007 0.4226 0 7
3.7399 4.4222 -2.7007 0.4226 0 7
3.6990 4.4549 -2.7001 0.4319 0 8
3.6576 4.4870 -2.6994 0.4320 0 8
3.6159 4.5188 -2.6987 0.4321 0 8
3.5740 4.5502 -2.6980 0.4322 0 8
3.5317 4.5812 -2.6974 0.4323 0 8
3.4893 4.6118 -2.6967 0.4324 0 8
3.4466 4.6421 -2.6960 0.4325 0 8
3.4036 4.6719 -2.6954 0.4326 0 8
3.3603 4.7014 -2.6947 0.4327 0 8
3.3169 4.7305 -2.6941 0.4328 0 8
3.2731 4.7592 -2.6934 0.4329 0 8
3.2187 4.7719 -2.6840 0.6843 0 8
3.1486 4.7603 -2.6614 0.7038 0 8
3.0798 4.7492 -2.6395 0.6952 0 8
3.0117 4.7375 -2.6177 0.7010 0 8
2.9446 4.7259 -2.5965 0.7067 0 8
2.8785 4.7145 -2.5758 0.7124 0 8
2.8135 4.7032 -2.5556 0.7180 0 8
2.7630 4.7152 -2.5484 0.3919 0 8
2.7207 4.7407 -2.5488 0.4218 0 8
2.6776 4.7651 -2.5488 0.4218 0 8
2.6344 4.7890 -2.5487 0.4218 0 8
2.5905 4.8118 -2.5483 0.4226 0 8
2.5468 4.8350 -2.5483 0.4226 0 8
2.5029 4.8579 -2.5483 0.4226 0 8
2.4589 4.8804 -2.5483 0.4226 0 8
2.4146 4.9024 -2.5483 0.4226 0 8
2.3701 4.9241 -2.5483 0.4226 0 8
2.3255 4.9453 -2.5483 0.4226 0 8
2.2806 4.9661 -2.5483 0.4226 0 8
2.2356 4.9866 -2.5483 0.4226 0 8
2.1904 5.0066 -2.5483 0.4226 0 8
2.1450 5.0262 -2.5483 0.4226 0 8
2.0994 5.0454 -2.5483 0.4226 0 8
2.0537 5.0642 -2.5483 0.4226 0 8
2.0078 5.0826 -2.5483 0.4226 0 8
1.9617 5.1006 -2.5483 0.4226 0 8
1.9154 5.1181 -2.5483 0.4226 0 8
1.8690 5.1352 -2.5483 0.4226 0 8
1.8225 5.1519 -2.5483 0.4226 0 8
1.7758 5.1682 -2.5483 0.4226 0 8
1.7289 5.1841 -2.5483 0.4226 0 8
1.6820 5.1995 -2.5483 0.4226 0 8
1.6348 5.2145 -2.5483 0.4226 0 8
1.5876 5.2291 -2.5483 0.4226 0 8
1.5402 5.2433 -2.5483 0.4226 0 8
1.4927 5.2570 -2.5483 0.4226 0 8
1.4450 5.2703 -2.5483 0.4226 0 8
1.3973 5.2831 -2.5483 0.4226 0 8
1.3494 5.2956 -2.5483 0.4226 0 8
1.3014 5.3076 -2.5483 0.4226 0 8
1.2534 5.3191 -2.5483 0.4226 0 8
1.0901 4.8215 -2.3051 0.8322 0 5
1.0420 4.8107 -2.2953 0.8358 0 5
0.9943 4.7999 -2.2857 0.8393 0 5
0.9470 4.7892 -2.2765 0.8427 0 5
0.9000 4.7786 -2.2675 0.8460 0 5
0.8534 4.7680 -2.2587 0.8493 0 5
0.8153 4.8054 -2.2728 0.3692 0 5
0.7879 4.9133 -2.3204 0.3616 0 5
0.7594 5.0258 -2.3702 0.3540 0 5
0.7675 5.4106 -2.5483 0.4226 0 8
0.7185 5.4173 -2.5483 0.4226 0 8
0.6695 5.4236 -2.5483 0.4226 0 8
0.6204 5.4295 -2.5483 0.4226 0 8
0.5712 5.4349 -2.5483 0.4226 0 8
0.5220 5.4398 -2.5483 0.4226 0 8
0.4727 5.4443 -2.5483 0.4226 0 8
0.4234 5.4484 -2.5483 0.4226 0 8
0.3741 5.4520 -2.5483 0.4226 0 8
0.3248 5.4551 -2.5483 0.4226 0 8
0.2754 5.4578 -2.5483 0.4226 0 8
0.2260 5.4601 -2.5483 0.4226 0 8
0.1766 5.4619 -2.5483 0.4226 0 8
0.1271 5.4633 -2.5483 0.4226 0 8
0.0777 5.4642 -2.5483 0.4226 0 8
0.0282 5.4647 -2.5483 0.4226 0 8
-0.0212 5.4647 -2.5483 0.4226 0 8
-0.0707 5.4643 -2.5483 0.4226 0 8
-0.1201 5.4635 -2.5483 0.4226 0 8
-0.1696 5.4621 -2.5483 0.4226 0 8
-0.2190 5.4604 -2.5483 0.4226 0 8
-0.2684 5.4582 -2.5483 0.4226 0 8
-0.3178 5.4555 -2.5483 0.4226 0 8
-0.3671 5.4524 -2.5483 0.4226 0 8
-0.4165 5.4489 -2.5483 0.4226 0 8
-0.4658 5.4449 -2.5483 0.4226 0 8
-0.5150 5.4405 -2.5483 0.4226 0 8
-0.5642 5.4356 -2.5483 0.4226 0 8
-0.6134 5.4302 -2.5483 0.4226 0 8
-0.6625 5.4245 -2.5483 0.4226 0 8
-0.7116 5.4183 -2.5483 0.4226 0 8
-0.7606 5.4116 -2.5483 0.4226 0 8
-0.8095 5.4045 -2.5483 0.4226 0 8
-0.8584 5.3969 -2.5483 0.4226 0 8
-0.9072 5.3890 -2.5483 0.4226 0 8
-0.9559 5.3805 -2.5483 0.4226 0 8
-1.0046 5.3717 -2.5483 0.4226 0 8
-1.0532 5.3623 -2.5483 0.4226 0 8
-1.1017 5.3526 -2.5483 0.4226 0 8
-1.1501 5.3424 -2.5483 0.4226 0 8
-1.1984 5.3318 -2.5483 0.4226 0 8
-1.2466 5.3207 -2.5483 0.4226 0 8
-1.2947 5.3092 -2.5483 0.4226 0 8
-1.3427 5.2973 -2.5483 0.4226 0 8
-1.3905 5.2849 -2.5483 0.4226 0 8
-1.4383 5.2721 -2.5483 0.4226 0 8
-1.4860 5.2589 -2.5483 0.4226 0 8
-1.5335 5.2452 -2.5483 0.4226 0 8
-1.5809 5.2311 -2.5483 0.4226 0 8
-1.6282 5.2166 -2.5483 0.4226 0 8
-1.6753 5.2017 -2.5483 0.4226 0 8
-1.7223 5.1863 -2.5483 0.4226 0 8
-1.7692 5.1705 -2.5483 0.4226 0 8
-1.8159 5.1543 -2.5483 0.4226 0 8
-1.8625 5.1376 -2.5483 0.4226 0 8
-1.9089 5.1205 -2.5483 0.4226 0 8
-1.9552 5.1031 -2.5483 0.4226 0 8
-2.0013 5.0852 -2.5483 0.4226 0 8
-2.0472 5.0668 -2.5483 0.4226 0 8
-2.0930 5.0481 -2.5483 0.4226 0 8
-2.1386 5.0290 -2.5483 0.4226 0 8
-2.1840 5.0094 -2.5483 0.4226 0 8
-2.2292 4.9894 -2.5483 0.4226 0 8
-2.2743 4.9691 -2.5483 0.4226 0 8
-2.3192 4.9483 -2.5483 0.4226 0 8
-2.3639 4.9271 -2.5483 0.4226 0 8
-2.4083 4.9055 -2.5483 0.4226 0 8
-2.4526 4.8835 -2.5483 0.4226 0 8
-2.4967 4.8611 -2.5483 0.4226 0 8
-2.5406 4.8383 -2.5483 0.4226 0 8
-2.5843 4.8151 -2.5483 0.4226 0 8
-2.6278 4.7915 -2.5483 0.4226 0 8
-2.6710 4.7675 -2.5483 0.4226 0 8
-2.7141 4.7432 -2.5483 0.4226 0 8
-2.7569 4.7184 -2.5483 0.4226 0 8
-2.7995 4.6933 -2.5483 0.4226 0 8
-2.8418 4.6678 -2.5483 0.4226 0 8
-2.8839 4.6418 -2.5483 0.4226 0 8
-2.9258 4.6156 -2.5483 0.4226 0 8
-2.9675 4.5889 -2.5483 0.4226 0 8
-3.0089 4.5619 -2.5483 0.4226 0 8
-3.0501 4.5344 -2.5483 0.4226 0 8
-3.0910 4.5066 -2.5483 0.4226 0 8
-3.1316 4.4785 -2.5483 0.4226 0 8
-3.1720 4.4500 -2.5483 0.4226 0 8
-3.2122 4.4211 -2.5483 0.4226 0 8
-3.2520 4.3918 -2.5483 0.4226 0 8
-3.2917 4.3622 -2.5483 0.4226 0 8
-3.3310 4.3322 -2.5483 0.4226 0 8
-3.4008 4.3412 -2.5715 0.5996 0 8
-3.4780 4.3579 -2.5999 0.5930 0 8
-3.5568 4.3749 -2.6292 0.5864 0 8
-3.6375 4.3922 -2.6593 0.5798 0 8
-3.7199 4.4099 -2.6903 0.5731 0 8
-3.7645 4.3817 -2.6937 0.4310 0 8
-3.8050 4.3486 -2.6944 0.4309 0 8
-3.8453 4.3152 -2.6952 0.4299 0 8
-3.8852 4.2814 -2.6960 0.4298 0 8
-3.9250 4.2473 -2.6967 0.4297 0 8
-3.9644 4.2128 -2.6975 0.4296 0 8
-4.0035 4.1780 -2.6983 0.4295 0 8
-4.0423 4.1428 -2.6991 0.4293 0 8
-4.0808 4.1072 -2.6998 0.4292 0 8
-4.1190 4.0713 -2.7006 0.4291 0 8
-4.1558 4.0339 -2.7007 0.4226 0 7
-4.1921 3.9961 -2.7007 0.4226 0 7
-4.2281 3.9580 -2.7007 0.4226 0 7
-4.2637 3.9196 -2.7007 0.4226 0 7
-4.2990 3.8809 -2.7007 0.4226 0 7
-4.3340 3.8418 -2.7007 0.4226 0 7
-4.3686 3.8024 -2.7007 0.4226 0 7
-4.4028 3.7627 -2.7007 0.4226 0 7
-4.4367 3.7227 -2.7007 0.4226 0 7
-4.4702 3.6824 -2.7007 0.4226 0 7
-4.5033 3.6418 -2.7007 0.4226 0 7
-4.5361 3.6009 -2.7007 0.4226 0 7
-4.5685 3.5597 -2.7007 0.4226 0 7
-4.6005 3.5182 -2.7007 0.4226 0 7
-4.6322 3.4764 -2.7007 0.4226 0 7
-4.6634 3.4344 -2.7007 0.4226 0 7
-4.6943 3.3920 -2.7007 0.4226 0 7
-4.7248 3.3494 -2.7007 0.4226 0 7
-4.7550 3.3065 -2.7007 0.4226 0 7
-4.7847 3.2633 -2.7007 0.4226 0 7
-4.8140 3.2199 -2.7007 0.4226 0 7
-4.8430 3.1762 -2.7007 0.4226 0 7
-4.8715 3.1323 -2.7007 0.4226 0 7
-4.8997 3.0881 -2.7007 0.4226 0 7
-4.9274 3.0436 -2.7007 0.4226 0 7
-4.9548 2.9989 -2.7007 0.4226 0 7
-4.9817 2.9539 -2.7007 0.4226 0 7
-5.0082 2.9087 -2.7007 0.4226 0 7
-5.0343 2.8633 -2.7007 0.4226 0 7
-5.0600 2.8176 -2.7007 0.4226 0 7
-5.0853 2.7717 -2.7007 0.4226 0 7
-5.1102 2.7255 -2.7007 0.4226 0 7
-5.1347 2.6792 -2.7007 0.4226 0 7
-5.1587 2.6326 -2.7007 0.4226 0 7
-5.1823 2.5858 -2.7007 0.4226 0 7
-5.2055 2.5388 -2.7007 0.4226 0 7
-5.2283 2.4916 -2.7007 0.4226 0 7
-5.2506 2.4442 -2.7007 0.4226 0 7
-5.2725 2.3966 -2.7007 0.4226 0 7
-5.2940 2.3487 -2.7007 0.4226 0 7
-5.3150 2.3008 -2.7007 0.4226 0 7
-5.3356 2.2526 -2.7007 0.4226 0 7
-5.3558 2.2042 -2.7007 0.4226 0 7
-5.3755 2.1556 -2.7007 0.4226 0 7
-5.3948 2.1069 -2.7007 0.4226 0 7
-5.4136 2.0580 -2.7007 0.4226 0 7
-5.4320 2.0089 -2.7007 0.4226 0 7
-5.4500 1.9597 -2.7007 0.4226 0 7
-5.4675 1.9103 -2.7007 0.4226 0 7
-5.4846 1.8607 -2.7007 0.4226 0 7
-5.5012 1.8110 -2.7007 0.4226 0 7
-5.5174 1.7611 -2.7007 0.4226 0 7
-5.5331 1.7111 -2.7007 0.4226 0 7
-5.5483 1.6610 -2.7007 0.4226 0 7
-5.5631 1.6107 -2.7007 0.4226 0 7
-5.5775 1.5603 -2.7007 0.4226 0 7
-5.5914 1.5097 -2.7007 0.4226 0 7
-5.6048 1.4591 -2.7007 0.4226 0 7
-5.6178 1.4083 -2.7007 0.4226 0 7
-5.6303 1.3574 -2.7007 0.4226 0 7
-5.6424 1.3064 -2.7007 0.4226 0 7
-5.6539 1.2553 -2.7007 0.4226 0 7
-5.6651 1.2041 -2.7007 0.4226 0 7
-5.6757 1.1527 -2.7007 0.4226 0 7
-5.6859 1.1013 -2.7007 0.4226 0 7
-5.6957 1.0498 -2.7007 0.4226 0 7
-5.7049 0.9983 -2.7007 0.4226 0 7
-5.7137 0.9466 -2.7007 0.4226 0 7
-5.7221 0.8948 -2.7007 0.4226 0 7
-5.7299 0.8430 -2.7007 0.4226 0 7
-5.7373 0.7911 -2.7007 0.4226 0 7
-5.7442 0.7392 -2.7007 0.4226 0 7
-5.7507 0.6872 -2.7007 0.4226 0 7
-5.7567 0.6351 -2.7007 0.4226 0 7
-5.7622 0.5830 -2.7007 0.4226 0 7
-5.7672 0.5308 -2.7007 0.4226 0 7
-5.7718 0.4786 -2.7007 0.4226 0 7
-5.7759 0.4263 -2.7007 0.4226 0 7
-5.7795 0.3740 -2.7007 0.4226 0 7
-5.7827 0.3217 -2.7007 0.4226 0 7
-5.7853 0.2694 -2.7007 0.4226 0 7
-5.7875 0.2170 -2.7007 0.4226 0 7
-5.7893 0.1646 -2.7007 0.4226 0 7
-5.7905 0.1122 -2.7007 0.4226 0 7
-5.7913 0.0598 -2.7007 0.4226 0 7
-5.7916 0.0074 -2.7007 0.4226 0 7
-5.7914 -0.0450 -2.7007 0.4226 0 7
-5.7908 -0.0974 -2.7007 0.4226 0 7
-5.7897 -0.1498 -2.7007 0.4226 0 7
-5.7881 -0.2022 -2.7007 0.4226 0 7
-5.7860 -0.2546 -2.7007 0.4226 0 7
-5.7835 -0.3069 -2.7007 0.4226 0 7
-5.7805 -0.3592 -2.7007 0.4226 0 7
-5.7770 -0.4116 -2.7007 0.4226 0 7
-5.7730 -0.4638 -2.7007 0.4226 0 7
-5.7686 -0.5160 -2.7007 0.4226 0 7
-5.7637 -0.5682 -2.7007 0.4226 0 7
-5.7583 -0.6204 -2.7007 0.4226 0 7
-5.7524 -0.6724 -2.7007 0.4226 0 7
-5.7461 -0.7245 -2.7007 0.4226 0 7
-5.7393 -0.7764 -2.7007 0.4226 0 7
-5.7321 -0.8284 -2.7007 0.4226 0 7
-5.7243 -0.8802 -2.7007 0.4226 0 7
-5.7161 -0.9320 -2.7007 0.4226 0 7
-5.7075 -0.9837 -2.7007 0.4226 0 7
-5.6983 -1.0353 -2.7007 0.4226 0 7
-5.6887 -1.0868 -2.7007 0.4226 0 7
-5.6787 -1.1382 -2.7007 0.4226 0 7
-5.6681 -1.1896 -2.7007 0.4226 0 7
-5.6571 -1.2408 -2.7007 0.4226 0 7
-5.6457 -1.2920 -2.7007 0.4226 0 7
-5.6337 -1.3430 -2.7007 0.4226 0 7
-5.6214 -1.3939 -2.7007 0.4226 0 7
-5.6085 -1.4447 -2.7007 0.4226 0 7
-5.5952 -1.4954 -2.7007 0.4226 0 7
-5.5814 -1.5460 -2.7007 0.4226 0 7
-5.5672 -1.5965 -2.7007 0.4226 0 7
-5.5526 -1.6468 -2.7007 0.4226 0 7
-5.5374 -1.6970 -2.7007 0.4226 0 7
-5.5218 -1.7470 -2.7007 0.4226 0 7
-5.5058 -1.7969 -2.7007 0.4226 0 7
-5.4893 -1.8467 -2.7007 0.4226 0 7
-5.4724 -1.8963 -2.7007 0.4226 0 7
-5.4550 -1.9457 -2.7007 0.4226 0 7
-5.4372 -1.9950 -2.7007 0.4226 0 7
-5.4189 -2.0441 -2.7007 0.4226 0 7
-5.4002 -2.0931 -2.7007 0.4226 0 7
-5.3810 -2.1419 -2.7007 0.4226 0 7
-5.3614 -2.1905 -2.7007 0.4226 0 7
-5.3414 -2.2389 -2.7007 0.4226 0 7
-5.3209 -2.2871 -2.7007 0.4226 0 7
-5.3000 -2.3352 -2.7007 0.4226 0 7
-5.2786 -2.3831 -2.7007 0.4226 0 7
-5.2568 -2.4307 -2.7007 0.4226 0 7
-5.2346 -2.4782 -2.7007 0.4226 0 7
-5.2120 -2.5255 -2.7007 0.4226 0 7
-5.1889 -2.5726 -2.7007 0.4226 0 7
-5.1654 -2.6194 -2.7007 0.4226 0 7
-5.1415 -2.6660 -2.7007 0.4226 0 7
-5.1172 -2.7125 -2.7007 0.4226 0 7
-5.0924 -2.7587 -2.7007 0.4226 0 7
-5.0672 -2.8046 -2.7007 0.4226 0 7
-5.0416 -2.8504 -2.7007 0.4226 0 7
-5.0156 -2.8959 -2.7007 0.4226 0 7
-4.9892 -2.9412 -2.7007 0.4226 0 7
-4.9624 -2.9862 -2.7007 0.4226 0 7
-4.9352 -3.0310 -2.7007 0.4226 0 7
-4.9075 -3.0755 -2.7007 0.4226 0 7
-4.8795 -3.1198 -2.7007 0.4226 0 7
-4.8511 -3.1638 -2.7007 0.4226 0 7
-4.8222 -3.2076 -2.7007 0.4226 0 7
-4.7930 -3.2511 -2.7007 0.4226 0 7
-4.7634 -3.2943 -2.7007 0.4226 0 7
-4.7334 -3.3373 -2.7007 0.4226 0 7
-4.7030 -3.3800 -2.7007 0.4226 0 7
-4.6722 -3.4225 -2.7007 0.4226 0 7
-4.6411 -3.4646 -2.7007 0.4226 0 7
-4.6095 -3.5064 -2.7007 0.4226 0 7
-4.5776 -3.5480 -2.7007 0.4226 0 7
-4.5453 -3.5893 -2.7007 0.4226 0 7
-4.5126 -3.6303 -2.7007 0.4226 0 7
-4.4796 -3.6710 -2.7007 0.4226 0 7
-4.4462 -3.7114 -2.7007 0.4226 0 7
-4.4124 -3.7515 -2.7007 0.4226 0 7
-4.3783 -3.7912 -2.7007 0.4226 0 7
-4.3438 -3.8307 -2.7007 0.4226 0 7
-4.3089 -3.8698 -2.7007 0.4226 0 7
-4.2738 -3.9087 -2.7007 0.4226 0 7
-4.2382 -3.9472 -2.7007 0.4226 0 7
-4.2023 -3.9854 -2.7007 0.4226 0 7
-4.1661 -4.0233 -2.7007 0.4226 0 7
-4.1295 -4.0608 -2.7007 0.4226 0 7
-4.0926 -4.0980 -2.7007 0.4226 0 7
-4.0553 -4.1349 -2.7007 0.4226 0 7
-4.0177 -4.1714 -2.7007 0.4226 0 7
-3.9798 -4.2076 -2.7007 0.4226 0 7
-3.9416 -4.2434 -2.7007 0.4226 0 7
-3.9030 -4.2789 -2.7007 0.4226 0 7
-3.8641 -4.3141 -2.7007 0.4226 0 7
-3.8249 -4.3489 -2.7007 0.4226 0 7
-3.7854 -4.3833 -2.7007 0.4226 0 7
-3.7456 -4.4174 -2.7007 0.4226 0 7
-3.7055 -4.4511 -2.7007 0.4226 0 7
-3.6650 -4.4844 -2.7007 0.4226 0 7
-3.6243 -4.5174 -2.7007 0.4226 0 7
-3.5833 -4.5500 -2.7007 0.4226 0 7
-3.5419 -4.5823 -2.7007 0.4226 0 7
-3.5003 -4.6142 -2.7007 0.4226 0 7
-3.4584 -4.6456 -2.7007 0.4226 0 7
-3.4162 -4.6768 -2.7007 0.4226 0 7
-3.3738 -4.7075 -2.7007 0.4226 0 7
-3.3310 -4.7378 -2.7007 0.4226 0 7
-3.2880 -4.7678 -2.7007 0.4226 0 7
-3.2448 -4.7973 -2.7007 0.4226 0 7
-3.2012 -4.8265 -2.7007 0.4226 0 7
-3.1574 -4.8553 -2.7007 0.4226 0 7
-3.1133 -4.8836 -2.7007 0.4226 0 7
-3.0690 -4.9116 -2.7007 0.4226 0 7
-3.0244 -4.9392 -2.7007 0.4226 0 7
-2.9796 -4.9664 -2.7007 0.4226 0 7
-2.9345 -4.9931 -2.7007 0.4226 0 7
-2.8892 -5.0195 -2.7007 0.4226 0 7
-2.8437 -5.0454 -2.7007 0.4226 0 7
-2.7979 -5.0709 -2.7007 0.4226 0 6
-2.7519 -5.0961 -2.7007 0.4226 0 6
-2.7057 -5.1208 -2.7007 0.4226 0 6
-2.6592 -5.1450 -2.7007 0.4226 0 6
-2.6125 -5.1689 -2.7007 0.4226 0 6
-2.5657 -5.1923 -2.7007 0.4226 0 6
-2.5186 -5.2153 -2.7007 0.4226 0 6
-2.4713 -5.2379 -2.7007 0.4226 0 6
-2.4238 -5.2600 -2.7007 0.4226 0 6
-2.3761 -5.2818 -2.7007 0.4226 0 6
-2.3282 -5.3030 -2.7007 0.4226 0 6
-2.2801 -5.3239 -2.7007 0.4226 0 6
-2.2318 -5.3443 -2.7007 0.4226 0 6
-2.1834 -5.3643 -2.7007 0.4226 0 6
-2.1347 -5.3838 -2.7007 0.4226 0 6
-2.0859 -5.4029 -2.7007 0.4226 0 7
-2.0369 -5.4216 -2.7007 0.4226 0 7
-1.9878 -5.4398 -2.7007 0.4226 0 7
-1.9385 -5.4576 -2.7007 0.4226 0 7
-1.8890 -5.4749 -2.7007 0.4226 0 7
-1.8394 -5.4918 -2.7007 0.4226 0 7
-1.7896 -5.5082 -2.7007 0.4226 0 7
-1.7397 -5.5242 -2.7007 0.4226 0 7
-1.6896 -5.5397 -2.7007 0.4226 0 7
-1.6394 -5.5547 -2.7007 0.4226 0 7
-1.5891 -5.5693 -2.7007 0.4226 0 7
-1.5386 -5.5835 -2.7007 0.4226 0 7
-1.4880 -5.5972 -2.7007 0.4226 0 7
-1.4373 -5.6104 -2.7007 0.4226 0 7
-1.3865 -5.6232 -2.7007 0.4226 0 7
-1.3355 -5.6355 -2.7007 0.4226 0 7
-1.2845 -5.6474 -2.7007 0.4226 0 7
-1.2333 -5.6588 -2.7007 0.4226 0 7
-1.1821 -5.6697 -2.7007 0.4226 0 7
-1.1307 -5.6802 -2.7007 0.4226 0 7
-1.0792 -5.6902 -2.7007 0.4226 0 6
-1.0277 -5.6997 -2.7007 0.4226 0 6
-0.9761 -5.7088 -2.7007 0.4226 0 6
-0.9244 -5.7174 -2.7007 0.4226 0 6
-0.8726 -5.7255 -2.7007 0.4226 0 6
-0.8208 -5.7332 -2.7007 0.4226 0 6
-0.7688 -5.7404 -2.7007 0.4226 0 6
-0.7169 -5.7471 -2.7007 0.4226 0 6
-0.6648 -5.7533 -2.7007 0.4226 0 6
-0.6127 -5.7591 -2.7007 0.4226 0 6
-0.5606 -5.7644 -2.7007 0.4226 0 6
-0.5084 -5.7692 -2.7007 0.4226 0 6
-0.4562 -5.7736 -2.7007 0.4226 0 6
-0.4039 -5.7775 -2.7007 0.4226 0 6
-0.3516 -5.7809 -2.7007 0.4226 0 6
-0.2993 -5.7839 -2.7007 0.4226 0 6
-0.2469 -5.7864 -2.7007 0.4226 0 6
-0.1945 -5.7883 -2.7007 0.4226 0 6
-0.1421 -5.7899 -2.7007 0.4226 0 6
-0.0897 -5.7909 -2.7007 0.4226 0 6
-0.0373 -5.7915 -2.7007 0.4226 0 6
0.0151 -5.7916 -2.7007 0.4226 0 6
0.0675 -5.7912 -2.7007 0.4226 0 6
0.1199 -5.7904 -2.7007 0.4226 0 6
0.1723 -5.7891 -2.7007 0.4226 0 6
0.2247 -5.7873 -2.7007 0.4226 0 6
0.2771 -5.7850 -2.7007 0.4226 0 6
0.3294 -5.7822 -2.7007 0.4226 0 6
0.3817 -5.7790 -2.7007 0.4226 0 7
0.4340 -5.7753 -2.7007 0.4226 0 7
0.4862 -5.7712 -2.7007 0.4226 0 7
0.5384 -5.7665 -2.7007 0.4226 0 7
0.5906 -5.7614 -2.7007 0.4226 0 7
0.6427 -5.7558 -2.7007 0.4226 0 7
0.6948 -5.7498 -2.7007 0.4226 0 7
0.7468 -5.7433 -2.7007 0.4226 0 7
0.7987 -5.7363 -2.7007 0.4226 0 7
0.8506 -5.7288 -2.7007 0.4226 0 7
0.9024 -5.7209 -2.7007 0.4226 0 7
0.9542 -5.7125 -2.7007 0.4226 0 7
1.0058 -5.7036 -2.7007 0.4226 0 7
1.0574 -5.6943 -2.7007 0.4226 0 7
1.1089 -5.6845 -2.7007 0.4226 0 7
1.1603 -5.6742 -2.7007 0.4226 0 7
1.2116 -5.6635 -2.7007 0.4226 0 7
1.2628 -5.6523 -2.7007 0.4226 0 7
1.3139 -5.6406 -2.7007 0.4226 0 7
1.3649 -5.6285 -2.7007 0.4226 0 7
1.4158 -5.6159 -2.7007 0.4226 0 7
1.4665 -5.6029 -2.7007 0.4226 0 7
1.5172 -5.5894 -2.7007 0.4226 0 7
1.5677 -5.5754 -2.7007 0.4226 0 7
1.6181 -5.5610 -2.7007 0.4226 0 7
1.6683 -5.5461 -2.7007 0.4226 0 7
1.7185 -5.5308 -2.7007 0.4226 0 7
1.7684 -5.5150 -2.7007 0.4226 0 7
1.8183 -5.4988 -2.7007 0.4226 0 7
1.8680 -5.4821 -2.7007 0.4226 0 7
1.9175 -5.4650 -2.7007 0.4226 0 7
1.9669 -5.4474 -2.7007 0.4226 0 7
2.0161 -5.4294 -2.7007 0.4226 0 7
2.0652 -5.4109 -2.7007 0.4226 0 7
2.1140 -5.3920 -2.7007 0.4226 0 7
2.1627 -5.3726 -2.7007 0.4226 0 7
2.2113 -5.3529 -2.7007 0.4226 0 6
2.2596 -5.3326 -2.7007 0.4226 0 6
2.3078 -5.3120 -2.7007 0.4226 0 6
2.3558 -5.2908 -2.7007 0.4226 0 6
2.4036 -5.2693 -2.7007 0.4226 0 6
2.4511 -5.2473 -2.7007 0.4226 0 6
2.4985 -5.2250 -2.7007 0.4226 0 6
2.5457 -5.2021 -2.7007 0.4226 0 6
2.5927 -5.1789 -2.7007 0.4226 0 6
2.6395 -5.1552 -2.7007 0.4226 0 6
2.6860 -5.1311 -2.7007 0.4226 0 6
2.7323 -5.1066 -2.7007 0.4226 0 6
2.7784 -5.0816 -2.7007 0.4226 0 7
2.8243 -5.0563 -2.7007 0.4226 0 7
2.8699 -5.0305 -2.7007 0.4226 0 7
2.9153 -5.0043 -2.7007 0.4226 0 7
2.9605 -4.9778 -2.7007 0.4226 0 7
3.0055 -4.9508 -2.7007 0.4226 0 7
3.0501 -4.9234 -2.7007 0.4226 0 7
3.0946 -4.8955 -2.7007 0.4226 0 7
3.1387 -4.8673 -2.7007 0.4226 0 6
3.1827 -4.8387 -2.7007 0.4226 0 6
3.2263 -4.8097 -2.7007 0.4226 0 6
3.2697 -4.7804 -2.7007 0.4226 0 6
3.3128 -4.7506 -2.7007 0.4226 0 6
3.3557 -4.7204 -2.7007 0.4226 0 6
3.3983 -4.6898 -2.7007 0.4226 0 7
3.4407 -4.6593 -2.7007 0.4226 0 7
3.4826 -4.6276 -2.7007 0.4226 0 7
3.5243 -4.5959 -2.7007 0.4226 0 7
3.5658 -4.5638 -2.7007 0.4226 0 7
3.6069 -4.5313 -2.7007 0.4226 0 7
3.6478 -4.4985 -2.7007 0.4226 0 7
3.6883 -4.4653 -2.7007 0.4226 0 7
3.7286 -4.4317 -2.7007 0.4226 0 7
3.7686 -4.3978 -2.7007 0.4226 0 7
3.8082 -4.3635 -2.7007 0.4226 0 7
3.8475 -4.3289 -2.7007 0.4226 0 7
3.8866 -4.2939 -2.7007 0.4226 0 7
3.9253 -4.2585 -2.7007 0.4226 0 7
3.9636 -4.2228 -2.7007 0.4226 0 7
4.0017 -4.1868 -2.7007 0.4226 0 7
4.0394 -4.1504 -2.7007 0.4226 0 7
4.0768 -4.1137 -2.7007 0.4226 0 7
4.1139 -4.0766 -2.7007 0.4226 0 7
4.1506 -4.0392 -2.7007 0.4226 0 7
4.1870 -4.0015 -2.7007 0.4226 0 7
4.2230 -3.9634 -2.7007 0.4226 0 7
4.2587 -3.9250 -2.7007 0.4226 0 7
4.2941 -3.8864 -2.7007 0.4226 0 7
4.3291 -3.8473 -2.7007 0.4226 0 7
4.3637 -3.8080 -2.7007 0.4226 0 7
4.3980 -3.7683 -2.7007 0.4226 0 7
4.4319 -3.7284 -2.7007 0.4226 0 7
4.4555 -3.6799 -2.6947 0.3457 0 20
4.4986 -3.6476 -2.7007 0.4226 0 7
4.5315 -3.6067 -2.7007 0.4226 0 7
4.5639 -3.5656 -2.7007 0.4226 0 7
4.5960 -3.5241 -2.7007 0.4226 0 7
4.6277 -3.4824 -2.7007 0.4226 0 7
4.6590 -3.4404 -2.7007 0.4226 0 7
4.6900 -3.3980 -2.7007 0.4226 0 7
4.7206 -3.3555 -2.7007 0.4226 0 7
4.7507 -3.3126 -2.7007 0.4226 0 7
4.7805 -3.2695 -2.7007 0.4226 0 7
4.8099 -3.2261 -2.7007 0.4226 0 7
4.8389 -3.1824 -2.7007 0.4226 0 7
4.8675 -3.1385 -2.7007 0.4226 0 7
4.8957 -3.0943 -2.7007 0.4226 0 7
4.9235 -3.0499 -2.7007 0.4226 0 7
4.9509 -3.0052 -2.7007 0.4226 0 7
4.9779 -2.9603 -2.7007 0.4226 0 7
5.0045 -2.9151 -2.7007 0.4226 0 7
5.0307 -2.8697 -2.7007 0.4226 0 7
5.0564 -2.8241 -2.7007 0.4226 0 7
5.0818 -2.7782 -2.7007 0.4226 0 7
5.1067 -2.7321 -2.7007 0.4226 0 7
5.1312 -2.6858 -2.7007 0.4226 0 7
5.1553 -2.6392 -2.7007 0.4226 0 7
5.1790 -2.5924 -2.7007 0.4226 0 7
5.2022 -2.5455 -2.7007 0.4226 0 7
5.2251 -2.4983 -2.7007 0.4226 0 7
5.2475 -2.4509 -2.7007 0.4226 0 7
5.2694 -2.4033 -2.7007 0.4226 0 7
5.2910 -2.3555 -2.7007 0.4226 0 7
5.3121 -2.3075 -2.7007 0.4226 0 7
5.3327 -2.2594 -2.7007 0.4226 0 7
5.3530 -2.2110 -2.7007 0.4226 0 7
5.3727 -2.1625 -2.7007 0.4226 0 7
5.3921 -2.1138 -2.7007 0.4226 0 7
5.4110 -2.0649 -2.7007 0.4226 0 7
5.4295 -2.0158 -2.7007 0.4226 0 7
5.4475 -1.9666 -2.7007 0.4226 0 7
