ply
format ascii 1.0
element vertex 1383
property float32 x
property float32 y
property float32 z
property float32 CosAngle
property uint32 ObjIdx
property uint32 ObjTag
end_header
0.0413 13.5418 -2.5848 0.1875 0 8
-0.0812 13.5416 -2.5848 0.1875 0 8
-0.2037 13.5403 -2.5848 0.1875 0 8
-0.3261 13.5379 -2.5848 0.1875 0 8
-0.4486 13.5344 -2.5848 0.1875 0 8
-0.5710 13.5298 -2.5848 0.1875 0 8
-0.6933 13.5241 -2.5848 0.1875 0 8
-0.8156 13.5173 -2.5848 0.1875 0 8
-0.9378 13.5093 -2.5848 0.1875 0 8
-1.0600 13.5003 -2.5848 0.1875 0 8
-1.1821 13.4902 -2.5848 0.1875 0 8
-1.3040 13.4789 -2.5848 0.1875 0 8
-1.2876 12.1604 -2.3341 0.9891 0 5
-1.3973 12.1465 -2.3338 0.9893 0 5
-1.5070 12.1325 -2.3336 0.9893 0 5
-1.7907 13.4229 -2.5848 0.1875 0 8
-1.9120 13.4062 -2.5848 0.1875 0 8
-2.0332 13.3884 -2.5848 0.1875 0 8
-2.1542 13.3694 -2.5848 0.1875 0 8
-2.4033 14.1018 -2.7305 0.1868 0 8
-2.5328 14.0908 -2.7327 0.1866 0 8
-2.6623 14.0786 -2.7349 0.1865 0 8
-2.7918 14.0653 -2.7371 0.1863 0 8
-2.9190 14.0401 -2.7372 0.1875 0 7
-3.0458 14.0131 -2.7372 0.1875 0 7
-3.1725 13.9850 -2.7372 0.1875 0 7
-3.2988 13.9557 -2.7372 0.1875 0 7
-3.4249 13.9253 -2.7372 0.1875 0 7
-3.5507 13.8937 -2.7372 0.1875 0 7
-3.6762 13.8611 -2.7372 0.1875 0 7
-3.8015 13.8272 -2.7372 0.1875 0 7
-3.9264 13.7923 -2.7372 0.1875 0 7
-4.0510 13.7562 -2.7372 0.1875 0 7
-4.1752 13.7190 -2.7372 0.1875 0 7
-4.2991 13.6807 -2.7372 0.1875 0 7
-4.4227 13.6412 -2.7372 0.1875 0 7
-4.5459 13.6007 -2.7372 0.1875 0 7
-4.6687 13.5590 -2.7372 0.1875 0 7
-4.7912 13.5162 -2.7372 0.1875 0 7
-4.9132 13.4723 -2.7372 0.1875 0 7
-5.0349 13.4274 -2.7372 0.1875 0 7
-5.1561 13.3813 -2.7372 0.1875 0 7
-5.2769 13.3341 -2.7372 0.1875 0 6
-5.3973 13.2858 -2.7372 0.1875 0 7
-5.5173 13.2364 -2.7372 0.1875 0 7
-5.6368 13.1860 -2.7372 0.1875 0 7
-5.7558 13.1345 -2.7372 0.1875 0 7
-5.8744 13.0819 -2.7372 0.1875 0 7
-5.9924 13.0282 -2.7372 0.1875 0 7
-6.1100 12.9735 -2.7372 0.1875 0 7
-6.2271 12.9177 -2.7372 0.1875 0 7
-6.3437 12.8608 -2.7372 0.1875 0 7
-6.4598 12.8029 -2.7372 0.1875 0 7
-6.5753 12.7440 -2.7372 0.1875 0 7
-6.6903 12.6840 -2.7372 0.1875 0 7
-6.8047 12.6230 -2.7372 0.1875 0 7
-6.9186 12.5609 -2.7372 0.1875 0 7
12.7715 0.0000 -2.7372 0.2096 0 7
12.7710 0.1155 -2.7372 0.2096 0 7
12.7694 0.2310 -2.7372 0.2096 0 7
12.7668 0.3465 -2.7372 0.2096 0 7
12.7632 0.4620 -2.7372 0.2096 0 7
12.7585 0.5774 -2.7372 0.2096 0 7
12.7527 0.6928 -2.7372 0.2096 0 7
12.7459 0.8081 -2.7372 0.2096 0 7
12.7381 0.9233 -2.7372 0.2096 0 7
12.7292 1.0385 -2.7372 0.2096 0 7
12.7193 1.1536 -2.7372 0.2096 0 7
12.7084 1.2686 -2.7372 0.2096 0 7
12.6964 1.3835 -2.7372 0.2096 0 7
12.6833 1.4983 -2.7372 0.2096 0 7
12.6693 1.6129 -2.7372 0.2096 0 7
12.6542 1.7274 -2.7372 0.2096 0 7
12.6380 1.8418 -2.7372 0.2096 0 7
12.6208 1.9561 -2.7372 0.2096 0 7
12.6026 2.0701 -2.7372 0.2096 0 7
12.5834 2.1840 -2.7372 0.2096 0 7
12.5631 2.2978 -2.7372 0.2096 0 7
12.5418 2.4113 -2.7372 0.2096 0 7
12.5195 2.5246 -2.7372 0.2096 0 7
12.4962 2.6378 -2.7372 0.2096 0 7
12.4718 2.7507 -2.7372 0.2096 0 7
12.4464 2.8634 -2.7372 0.2096 0 7
12.4200 2.9758 -2.7372 0.2096 0 7
12.3926 3.0880 -2.7372 0.2096 0 7
12.3641 3.2000 -2.7372 0.2096 0 7
12.3347 3.3117 -2.7372 0.2096 0 6
12.3042 3.4231 -2.7372 0.2096 0 7
12.2728 3.5343 -2.7372 0.2096 0 7
12.2403 3.6451 -2.7372 0.2096 0 7
12.2068 3.7557 -2.7372 0.2096 0 7
12.1724 3.8660 -2.7372 0.2096 0 7
12.1369 3.9759 -2.7372 0.2096 0 7
12.1004 4.0855 -2.7372 0.2096 0 7
12.0630 4.1948 -2.7372 0.2096 0 7
12.0246 4.3037 -2.7372 0.2096 0 7
11.9851 4.4123 -2.7372 0.2096 0 7
11.9447 4.5205 -2.7372 0.2096 0 7
11.9034 4.6284 -2.7372 0.2096 0 7
11.8610 4.7358 -2.7372 0.2096 0 7
11.8177 4.8429 -2.7372 0.2096 0 7
11.7734 4.9496 -2.7372 0.2096 0 7
11.7282 5.0559 -2.7372 0.2096 0 7
11.6820 5.1618 -2.7372 0.2096 0 7
11.6331 5.2665 -2.7368 0.2144 0 8
11.5773 5.3679 -2.7350 0.2146 0 8
11.5206 5.4688 -2.7332 0.2147 0 8
11.4631 5.5690 -2.7314 0.2149 0 8
11.4013 5.6671 -2.7288 0.3564 0 8
11.0945 5.6403 -2.6674 0.3646 0 8
10.8011 5.6146 -2.6090 0.3727 0 8
10.6503 5.6592 -2.5848 0.2096 0 8
10.5987 5.7553 -2.5848 0.2096 0 8
10.5462 5.8509 -2.5848 0.2096 0 8
10.4928 5.9460 -2.5848 0.2096 0 8
10.4386 6.0407 -2.5848 0.2096 0 8
10.3835 6.1349 -2.5848 0.2096 0 8
10.3276 6.2285 -2.5848 0.2096 0 8
10.2709 6.3217 -2.5848 0.2096 0 8
10.2133 6.4143 -2.5848 0.2096 0 8
10.1548 6.5064 -2.5848 0.2096 0 8
10.0956 6.5980 -2.5848 0.2096 0 8
10.0355 6.6891 -2.5848 0.2096 0 8
9.9746 6.7796 -2.5848 0.2096 0 8
9.9128 6.8695 -2.5848 0.2096 0 8
9.8503 6.9589 -2.5848 0.2096 0 8
9.7870 7.0477 -2.5848 0.2096 0 8
9.7228 7.1359 -2.5848 0.2096 0 8
9.6579 7.2236 -2.5848 0.2096 0 8
9.5922 7.3106 -2.5848 0.2096 0 8
9.5256 7.3971 -2.5848 0.2096 0 8
9.4583 7.4829 -2.5848 0.2096 0 8
9.3903 7.5682 -2.5848 0.2096 0 8
9.3214 7.6528 -2.5848 0.2096 0 8
9.2518 7.7368 -2.5848 0.2096 0 8
9.0414 7.7008 -2.5454 0.5426 0 9
8.8517 7.6785 -2.5114 0.5499 0 9
8.6745 7.6633 -2.4807 0.5422 0 9
8.5570 7.6985 -2.4669 0.5645 0 9
8.3802 7.6777 -2.4359 0.5717 0 9
8.2077 7.6574 -2.4058 0.5788 0 9
8.0394 7.6375 -2.3766 0.5859 0 9
7.8752 7.6182 -2.3483 0.5930 0 9
7.7148 7.5993 -2.3209 0.6000 0 9
7.6182 7.6411 -2.3125 0.7666 0 9
7.6035 7.7656 -2.3293 0.7611 0 9
7.5886 7.8920 -2.3465 0.7555 0 9
7.5735 8.0202 -2.3642 0.7499 0 9
7.5582 8.1504 -2.3823 0.7441 0 9
7.5427 8.2827 -2.4009 0.7384 0 9
7.5268 8.4170 -2.4200 0.7326 0 9
7.5108 8.5535 -2.4396 0.7267 0 9
7.4944 8.6922 -2.4598 0.7207 0 9
7.4629 8.8156 -2.4755 0.2096 0 9
7.4135 8.9197 -2.4858 0.6493 0 9
7.6247 9.3444 -2.5848 0.2096 0 8
7.5399 9.4130 -2.5848 0.2096 0 8
7.4545 9.4808 -2.5848 0.2096 0 8
7.3684 9.5479 -2.5848 0.2096 0 8
7.2817 9.6141 -2.5848 0.2096 0 8
7.1945 9.6796 -2.5848 0.2096 0 8
7.1066 9.7442 -2.5848 0.2096 0 8
7.0182 9.8081 -2.5848 0.2096 0 8
6.9292 9.8712 -2.5848 0.2096 0 8
6.8396 9.9335 -2.5848 0.2096 0 8
6.7495 9.9949 -2.5848 0.2096 0 8
6.6588 10.0556 -2.5848 0.2096 0 8
6.5676 10.1154 -2.5848 0.2096 0 8
6.4759 10.1744 -2.5848 0.2096 0 8
6.3836 10.2325 -2.5848 0.2096 0 8
6.2908 10.2898 -2.5848 0.2096 0 8
6.1974 10.3463 -2.5848 0.2096 0 8
6.1036 10.4020 -2.5848 0.2096 0 8
6.0093 10.4567 -2.5848 0.2096 0 8
5.9144 10.5107 -2.5848 0.2096 0 8
5.8191 10.5637 -2.5848 0.2096 0 8
5.7234 10.6159 -2.5848 0.2096 0 8
5.6271 10.6673 -2.5848 0.2096 0 8
5.5304 10.7177 -2.5848 0.2096 0 8
5.4332 10.7673 -2.5848 0.2096 0 8
5.3356 10.8160 -2.5848 0.2096 0 8
5.2376 10.8638 -2.5848 0.2096 0 8
5.1391 10.9107 -2.5848 0.2096 0 8
5.0402 10.9568 -2.5848 0.2096 0 8
4.9409 11.0019 -2.5848 0.2096 0 8
4.8412 11.0462 -2.5848 0.2096 0 8
4.7411 11.0895 -2.5848 0.2096 0 8
4.6406 11.1319 -2.5848 0.2096 0 8
4.5397 11.1734 -2.5848 0.2096 0 8
4.4385 11.2140 -2.5848 0.2096 0 8
4.3369 11.2537 -2.5848 0.2096 0 8
4.2349 11.2925 -2.5848 0.2096 0 8
4.1326 11.3303 -2.5848 0.2096 0 8
4.0299 11.3673 -2.5848 0.2096 0 8
3.9269 11.4032 -2.5848 0.2096 0 8
3.8236 11.4383 -2.5848 0.2096 0 8
3.7200 11.4724 -2.5848 0.2096 0 8
3.6161 11.5056 -2.5848 0.2096 0 8
3.5119 11.5378 -2.5848 0.2096 0 8
3.4074 11.5691 -2.5848 0.2096 0 8
3.3026 11.5995 -2.5848 0.2096 0 8
3.1976 11.6288 -2.5848 0.2096 0 8
3.0923 11.6573 -2.5848 0.2096 0 8
2.9867 11.6848 -2.5848 0.2096 0 8
2.8809 11.7113 -2.5848 0.2096 0 8
2.7748 11.7369 -2.5848 0.2096 0 8
2.6686 11.7615 -2.5848 0.2096 0 8
2.5621 11.7852 -2.5848 0.2096 0 8
2.4554 11.8079 -2.5848 0.2096 0 8
2.3485 11.8296 -2.5848 0.2096 0 8
2.2414 11.8503 -2.5848 0.2096 0 8
2.1341 11.8701 -2.5848 0.2096 0 8
2.0267 11.8890 -2.5848 0.2096 0 8
1.9190 11.9068 -2.5848 0.2096 0 8
1.8113 11.9237 -2.5848 0.2096 0 8
1.7034 11.9396 -2.5848 0.2096 0 8
1.5953 11.9545 -2.5848 0.2096 0 8
1.4871 11.9684 -2.5848 0.2096 0 8
1.3788 11.9814 -2.5848 0.2096 0 8
1.2704 11.9934 -2.5848 0.2096 0 8
1.1618 12.0044 -2.5848 0.2096 0 8
1.0532 12.0144 -2.5848 0.2096 0 8
0.9445 12.0234 -2.5848 0.2096 0 8
0.8357 12.0315 -2.5848 0.2096 0 8
0.7269 12.0385 -2.5848 0.2096 0 8
0.6179 12.0446 -2.5848 0.2096 0 8
0.5090 12.0497 -2.5848 0.2096 0 8
0.4000 12.0538 -2.5848 0.2096 0 8
0.2909 12.0569 -2.5848 0.2096 0 8
0.1819 12.0591 -2.5848 0.2096 0 8
0.0728 12.0602 -2.5848 0.2096 0 8
-0.0363 12.0604 -2.5848 0.2096 0 8
-0.1454 12.0596 -2.5848 0.2096 0 8
-0.2544 12.0578 -2.5848 0.2096 0 8
-0.3635 12.0550 -2.5848 0.2096 0 8
-0.4725 12.0512 -2.5848 0.2096 0 8
-0.5815 12.0464 -2.5848 0.2096 0 8
-0.6904 12.0407 -2.5848 0.2096 0 8
-0.7993 12.0339 -2.5848 0.2096 0 8
-0.9081 12.0262 -2.5848 0.2096 0 8
-1.0168 12.0175 -2.5848 0.2096 0 8
-1.1255 12.0078 -2.5848 0.2096 0 8
-1.2341 11.9972 -2.5848 0.2096 0 8
-1.3425 11.9855 -2.5848 0.2096 0 8
-1.4509 11.9729 -2.5848 0.2096 0 8
-1.5591 11.9593 -2.5848 0.2096 0 8
-1.6672 11.9447 -2.5848 0.2096 0 8
-1.7752 11.9291 -2.5848 0.2096 0 8
-1.8830 11.9126 -2.5848 0.2096 0 8
-1.9971 11.9336 -2.5932 0.1169 0 8
-2.2167 12.5476 -2.7309 0.2094 0 8
-2.3318 12.5360 -2.7328 0.2093 0 8
-2.4468 12.5234 -2.7348 0.2091 0 8
-2.5619 12.5097 -2.7368 0.2090 0 8
-2.6753 12.4882 -2.7372 0.2096 0 7
-2.7882 12.4635 -2.7372 0.2096 0 7
-2.9008 12.4377 -2.7372 0.2096 0 7
-3.0132 12.4110 -2.7372 0.2096 0 7
-3.1253 12.3832 -2.7372 0.2096 0 7
-3.2372 12.3545 -2.7372 0.2096 0 7
-3.3488 12.3247 -2.7372 0.2096 0 7
-3.4601 12.2939 -2.7372 0.2096 0 7
-3.5712 12.2621 -2.7372 0.2096 0 7
-3.6819 12.2293 -2.7372 0.2096 0 7
-3.7924 12.1955 -2.7372 0.2096 0 7
-3.9025 12.1607 -2.7372 0.2096 0 7
-4.0124 12.1249 -2.7372 0.2096 0 7
-4.1219 12.0881 -2.7372 0.2096 0 7
-4.2310 12.0503 -2.7372 0.2096 0 7
-4.3399 12.0116 -2.7372 0.2096 0 7
-4.4483 11.9718 -2.7372 0.2096 0 7
-4.5564 11.9311 -2.7372 0.2096 0 6
-4.6642 11.8894 -2.7372 0.2096 0 6
-4.7715 11.8467 -2.7372 0.2096 0 6
-4.8785 11.8031 -2.7372 0.2096 0 6
-4.9850 11.7585 -2.7372 0.2096 0 6
-5.0912 11.7129 -2.7372 0.2096 0 6
-5.1969 11.6664 -2.7372 0.2096 0 6
-5.3022 11.6189 -2.7372 0.2096 0 6
-5.4071 11.5705 -2.7372 0.2096 0 6
-5.5115 11.5211 -2.7372 0.2096 0 6
-5.6155 11.4708 -2.7372 0.2096 0 6
-5.7190 11.4195 -2.7372 0.2096 0 7
-5.8221 11.3673 -2.7372 0.2096 0 7
-5.9246 11.3142 -2.7372 0.2096 0 7
-6.0267 11.2601 -2.7372 0.2096 0 7
-6.1283 11.2052 -2.7372 0.2096 0 6
-6.2294 11.1493 -2.7372 0.2096 0 6
-6.3300 11.0925 -2.7372 0.2096 0 6
-6.4301 11.0348 -2.7372 0.2096 0 6
-6.5296 10.9762 -2.7372 0.2096 0 6
-6.6286 10.9167 -2.7372 0.2096 0 7
-6.7271 10.8563 -2.7372 0.2096 0 7
-6.8250 10.7950 -2.7372 0.2096 0 7
-6.9224 10.7328 -2.7372 0.2096 0 7
-7.0192 10.6697 -2.7372 0.2096 0 7
-7.1154 10.6058 -2.7372 0.2096 0 6
-7.2110 10.5410 -2.7372 0.2096 0 6
-7.3061 10.4754 -2.7372 0.2096 0 6
-7.4005 10.4089 -2.7372 0.2096 0 6
-7.4944 10.3415 -2.7372 0.2096 0 6
-7.5876 10.2733 -2.7372 0.2096 0 7
-7.6802 10.2042 -2.7372 0.2096 0 7
-7.7722 10.1344 -2.7372 0.2096 0 7
-7.8635 10.0637 -2.7372 0.2096 0 7
-7.9542 9.9921 -2.7372 0.2096 0 7
-8.0443 9.9198 -2.7372 0.2096 0 6
-8.1337 9.8466 -2.7372 0.2096 0 6
-8.2224 9.7726 -2.7372 0.2096 0 6
-8.3105 9.6979 -2.7372 0.2096 0 6
-8.3978 9.6223 -2.7372 0.2096 0 6
-8.4845 9.5460 -2.7372 0.2096 0 7
-8.5705 9.4688 -2.7372 0.2096 0 7
-8.6558 9.3909 -2.7372 0.2096 0 7
-8.7404 9.3122 -2.7372 0.2096 0 7
-8.8242 9.2328 -2.7372 0.2096 0 7
-8.9074 9.1526 -2.7372 0.2096 0 7
-8.9898 9.0717 -2.7372 0.2096 0 6
-9.0715 8.9900 -2.7372 0.2096 0 6
-9.1524 8.9076 -2.7372 0.2096 0 6
-9.2326 8.8244 -2.7372 0.2096 0 6
-9.3121 8.7406 -2.7372 0.2096 0 6
-9.3907 8.6560 -2.7372 0.2096 0 6
-9.4686 8.5707 -2.7372 0.2096 0 6
-9.5458 8.4847 -2.7372 0.2096 0 6
-9.6221 8.3980 -2.7372 0.2096 0 7
-9.6977 8.3106 -2.7372 0.2096 0 7
-9.7725 8.2226 -2.7372 0.2096 0 7
-9.8464 8.1339 -2.7372 0.2096 0 7
-9.9196 8.0445 -2.7372 0.2096 0 7
-9.9920 7.9544 -2.7372 0.2096 0 7
-10.0635 7.8637 -2.7372 0.2096 0 7
-10.1342 7.7724 -2.7372 0.2096 0 7
-10.2041 7.6804 -2.7372 0.2096 0 7
-10.2731 7.5878 -2.7372 0.2096 0 7
-10.3414 7.4946 -2.7372 0.2096 0 7
-10.4087 7.4007 -2.7372 0.2096 0 7
-10.4752 7.3063 -2.7372 0.2096 0 7
-10.5409 7.2112 -2.7372 0.2096 0 7
-10.6057 7.1156 -2.7372 0.2096 0 7
-10.6696 7.0194 -2.7372 0.2096 0 7
-10.7327 6.9226 -2.7372 0.2096 0 7
-10.7948 6.8252 -2.7372 0.2096 0 7
-10.8561 6.7273 -2.7372 0.2096 0 7
-10.9165 6.6289 -2.7372 0.2096 0 7
-10.9760 6.5298 -2.7372 0.2096 0 7
-11.0346 6.4303 -2.7372 0.2096 0 7
-11.0923 6.3302 -2.7372 0.2096 0 7
-11.1492 6.2296 -2.7372 0.2096 0 7
-11.2050 6.1286 -2.7372 0.2096 0 7
-11.2600 6.0270 -2.7372 0.2096 0 7
-11.3141 5.9249 -2.7372 0.2096 0 7
-11.3672 5.8223 -2.7372 0.2096 0 7
-11.4194 5.7192 -2.7372 0.2096 0 7
-11.4706 5.6157 -2.7372 0.2096 0 7
-11.5210 5.5118 -2.7372 0.2096 0 7
-11.5704 5.4073 -2.7372 0.2096 0 7
-11.6188 5.3024 -2.7372 0.2096 0 7
-11.6663 5.1971 -2.7372 0.2096 0 7
-11.7128 5.0914 -2.7372 0.2096 0 7
-11.7584 4.9853 -2.7372 0.2096 0 7
-11.8030 4.8787 -2.7372 0.2096 0 7
-11.8466 4.7717 -2.7372 0.2096 0 7
-11.8893 4.6644 -2.7372 0.2096 0 7
-11.9310 4.5567 -2.7372 0.2096 0 7
-11.9717 4.4486 -2.7372 0.2096 0 7
-12.0115 4.3401 -2.7372 0.2096 0 7
-12.0502 4.2313 -2.7372 0.2096 0 7
-12.0880 4.1221 -2.7372 0.2096 0 7
-12.1248 4.0126 -2.7372 0.2096 0 7
-12.1606 3.9028 -2.7372 0.2096 0 7
-12.1954 3.7926 -2.7372 0.2096 0 7
-12.2292 3.6822 -2.7372 0.2096 0 7
-12.2620 3.5714 -2.7372 0.2096 0 7
-12.2938 3.4604 -2.7372 0.2096 0 7
-12.3246 3.3490 -2.7372 0.2096 0 7
-12.3544 3.2374 -2.7372 0.2096 0 7
-12.3832 3.1256 -2.7372 0.2096 0 7
-12.4109 3.0134 -2.7372 0.2096 0 7
-12.4377 2.9011 -2.7372 0.2096 0 7
-12.4634 2.7884 -2.7372 0.2096 0 7
-12.4881 2.6756 -2.7372 0.2096 0 7
-12.5118 2.5625 -2.7372 0.2096 0 7
-12.5345 2.4493 -2.7372 0.2096 0 7
-12.5561 2.3358 -2.7372 0.2096 0 7
-12.5767 2.2221 -2.7372 0.2096 0 7
-12.5963 2.1083 -2.7372 0.2096 0 7
-12.6149 1.9943 -2.7372 0.2096 0 7
-12.6324 1.8801 -2.7372 0.2096 0 7
-12.6489 1.7658 -2.7372 0.2096 0 7
-12.6643 1.6513 -2.7372 0.2096 0 7
-12.6788 1.5367 -2.7372 0.2096 0 7
-12.6921 1.4219 -2.7372 0.2096 0 7
-12.7045 1.3071 -2.7372 0.2096 0 7
-12.7158 1.1921 -2.7372 0.2096 0 7
-12.7260 1.0771 -2.7372 0.2096 0 7
-12.7353 0.9619 -2.7372 0.2096 0 7
-12.7435 0.8467 -2.7372 0.2096 0 7
-12.7506 0.7314 -2.7372 0.2096 0 7
-12.7567 0.6160 -2.7372 0.2096 0 7
-12.7617 0.5006 -2.7372 0.2096 0 7
-12.7657 0.3852 -2.7372 0.2096 0 7
-12.7687 0.2697 -2.7372 0.2096 0 7
-12.7706 0.1542 -2.7372 0.2096 0 7
-12.7715 0.0387 -2.7372 0.2096 0 7
-12.7713 -0.0768 -2.7372 0.2096 0 7
-12.7701 -0.1923 -2.7372 0.2096 0 7
-12.7678 -0.3078 -2.7372 0.2096 0 7
-12.7645 -0.4233 -2.7372 0.2096 0 7
-12.7602 -0.5387 -2.7372 0.2096 0 7
-12.7548 -0.6541 -2.7372 0.2096 0 7
-12.7483 -0.7695 -2.7372 0.2096 0 7
-12.7409 -0.8847 -2.7372 0.2096 0 7
-12.7323 -0.9999 -2.7372 0.2096 0 7
-12.7228 -1.1151 -2.7372 0.2096 0 7
-12.7122 -1.2301 -2.7372 0.2096 0 7
-12.7005 -1.3450 -2.7372 0.2096 0 7
-12.6878 -1.4598 -2.7372 0.2096 0 7
-12.6741 -1.5745 -2.7372 0.2096 0 7
-12.6594 -1.6891 -2.7372 0.2096 0 7
-12.6436 -1.8035 -2.7372 0.2096 0 7
-12.6267 -1.9178 -2.7372 0.2096 0 7
-12.6089 -2.0319 -2.7372 0.2096 0 7
-12.5900 -2.1459 -2.7372 0.2096 0 7
-12.5700 -2.2597 -2.7372 0.2096 0 7
-12.5491 -2.3733 -2.7372 0.2096 0 7
-12.5271 -2.4867 -2.7372 0.2096 0 7
-12.5041 -2.5999 -2.7372 0.2096 0 7
-12.4801 -2.7129 -2.7372 0.2096 0 7
-12.4550 -2.8257 -2.7372 0.2096 0 7
-12.4290 -2.9382 -2.7372 0.2096 0 7
-12.4019 -3.0505 -2.7372 0.2096 0 7
-12.3738 -3.1625 -2.7372 0.2096 0 7
-12.3447 -3.2743 -2.7372 0.2096 0 6
-12.3145 -3.3858 -2.7372 0.2096 0 7
-12.2834 -3.4971 -2.7372 0.2096 0 7
-12.2513 -3.6080 -2.7372 0.2096 0 7
-12.2182 -3.7187 -2.7372 0.2096 0 7
-12.1840 -3.8291 -2.7372 0.2096 0 7
-12.1489 -3.9391 -2.7372 0.2096 0 7
-12.1128 -4.0488 -2.7372 0.2096 0 7
-12.0756 -4.1582 -2.7372 0.2096 0 7
-12.0375 -4.2673 -2.7372 0.2096 0 7
-11.9985 -4.3760 -2.7372 0.2096 0 7
-11.9584 -4.4843 -2.7372 0.2096 0 7
-11.9173 -4.5923 -2.7372 0.2096 0 7
-11.8753 -4.6999 -2.7372 0.2096 0 7
-11.8323 -4.8071 -2.7372 0.2096 0 7
-11.7884 -4.9139 -2.7372 0.2096 0 7
-11.7434 -5.0204 -2.7372 0.2096 0 7
-11.6975 -5.1264 -2.7372 0.2096 0 7
-11.6507 -5.2320 -2.7372 0.2096 0 7
-11.6029 -5.3371 -2.7372 0.2096 0 7
-11.5542 -5.4419 -2.7372 0.2096 0 7
-11.5045 -5.5461 -2.7372 0.2096 0 7
-11.4538 -5.6500 -2.7372 0.2096 0 7
-11.4023 -5.7533 -2.7372 0.2096 0 7
-11.3497 -5.8562 -2.7372 0.2096 0 7
-11.2963 -5.9586 -2.7372 0.2096 0 7
-11.2420 -6.0606 -2.7372 0.2096 0 7
-11.1867 -6.1620 -2.7372 0.2096 0 7
-11.1305 -6.2629 -2.7372 0.2096 0 7
-11.0734 -6.3633 -2.7372 0.2096 0 7
-11.0154 -6.4632 -2.7372 0.2096 0 6
-10.9565 -6.5626 -2.7372 0.2096 0 6
-10.8967 -6.6614 -2.7372 0.2096 0 7
-10.8360 -6.7597 -2.7372 0.2096 0 6
-10.7744 -6.8574 -2.7372 0.2096 0 7
-10.7119 -6.9546 -2.7372 0.2096 0 7
-10.6486 -7.0512 -2.7372 0.2096 0 7
-10.5844 -7.1472 -2.7372 0.2096 0 7
-10.5193 -7.2427 -2.7372 0.2096 0 7
-10.4533 -7.3375 -2.7372 0.2096 0 7
-10.3866 -7.4318 -2.7372 0.2096 0 7
-10.3189 -7.5254 -2.7372 0.2096 0 7
-10.2504 -7.6184 -2.7372 0.2096 0 7
-10.1811 -7.7109 -2.7372 0.2096 0 7
-10.1109 -7.8026 -2.7372 0.2096 0 7
-10.0400 -7.8938 -2.7372 0.2096 0 7
-9.9681 -7.9842 -2.7372 0.2096 0 7
-9.8955 -8.0741 -2.7372 0.2096 0 7
-9.8221 -8.1632 -2.7372 0.2096 0 7
-9.7479 -8.2517 -2.7372 0.2096 0 7
-9.6728 -8.3396 -2.7372 0.2096 0 7
-9.5970 -8.4267 -2.7372 0.2096 0 7
-9.5204 -8.5132 -2.7372 0.2096 0 7
-9.4430 -8.5989 -2.7372 0.2096 0 7
-9.3648 -8.6840 -2.7372 0.2096 0 7
-9.2859 -8.7683 -2.7372 0.2096 0 7
-9.2062 -8.8520 -2.7372 0.2096 0 7
-9.1258 -8.9349 -2.7372 0.2096 0 7
-9.0446 -9.0171 -2.7372 0.2096 0 7
-8.9627 -9.0985 -2.7372 0.2096 0 7
-8.8800 -9.1792 -2.7372 0.2096 0 7
-8.7966 -9.2591 -2.7372 0.2096 0 7
-8.7125 -9.3383 -2.7372 0.2096 0 7
-8.6277 -9.4167 -2.7372 0.2096 0 7
-8.5422 -9.4944 -2.7372 0.2096 0 7
-8.4560 -9.5712 -2.7372 0.2096 0 7
-8.3690 -9.6473 -2.7372 0.2096 0 7
-8.2814 -9.7227 -2.7372 0.2096 0 7
-8.1931 -9.7972 -2.7372 0.2096 0 6
-8.1042 -9.8708 -2.7372 0.2096 0 6
-8.0146 -9.9437 -2.7372 0.2096 0 7
-7.9243 -10.0158 -2.7372 0.2096 0 7
-7.8334 -10.0871 -2.7372 0.2096 0 7
-7.7419 -10.1575 -2.7372 0.2096 0 7
-7.6497 -10.2271 -2.7372 0.2096 0 7
-7.5569 -10.2959 -2.7372 0.2096 0 7
-7.4634 -10.3638 -2.7372 0.2096 0 7
-7.3694 -10.4309 -2.7372 0.2096 0 7
-7.2747 -10.4971 -2.7372 0.2096 0 7
-7.1795 -10.5625 -2.7372 0.2096 0 7
-7.0837 -10.6270 -2.7372 0.2096 0 7
-6.9873 -10.6906 -2.7372 0.2096 0 7
-6.8903 -10.7534 -2.7372 0.2096 0 7
-6.7927 -10.8153 -2.7372 0.2096 0 7
-6.6946 -10.8763 -2.7372 0.2096 0 7
-6.5960 -10.9364 -2.7372 0.2096 0 7
-6.4968 -10.9956 -2.7372 0.2096 0 7
-6.3971 -11.0539 -2.7372 0.2096 0 7
-6.2969 -11.1113 -2.7372 0.2096 0 7
-6.1961 -11.1678 -2.7372 0.2096 0 7
-6.0948 -11.2234 -2.7372 0.2096 0 7
-5.9931 -11.2781 -2.7372 0.2096 0 7
-5.8908 -11.3318 -2.7372 0.2096 0 7
-5.7881 -11.3846 -2.7372 0.2096 0 7
-5.6849 -11.4365 -2.7372 0.2096 0 7
-5.5812 -11.4875 -2.7372 0.2096 0 7
-5.4771 -11.5375 -2.7372 0.2096 0 7
-5.3725 -11.5866 -2.7372 0.2096 0 7
-5.2675 -11.6347 -2.7372 0.2096 0 7
-5.1620 -11.6818 -2.7372 0.2096 0 7
-5.0561 -11.7281 -2.7372 0.2096 0 7
-4.9499 -11.7733 -2.7372 0.2096 0 7
-4.8432 -11.8176 -2.7372 0.2096 0 7
-4.7361 -11.8609 -2.7372 0.2096 0 7
-4.6286 -11.9033 -2.7372 0.2096 0 7
-4.5208 -11.9447 -2.7372 0.2096 0 7
-4.4125 -11.9851 -2.7372 0.2096 0 7
-4.3040 -12.0245 -2.7372 0.2096 0 7
-4.1950 -12.0629 -2.7372 0.2096 0 7
-4.0858 -12.1004 -2.7372 0.2096 0 7
-3.9761 -12.1368 -2.7372 0.2096 0 7
-3.8662 -12.1723 -2.7372 0.2096 0 7
-3.7559 -12.2068 -2.7372 0.2096 0 7
-3.6454 -12.2402 -2.7372 0.2096 0 7
-3.5345 -12.2727 -2.7372 0.2096 0 7
-3.4234 -12.3042 -2.7372 0.2096 0 7
-3.3120 -12.3346 -2.7372 0.2096 0 7
-3.2003 -12.3641 -2.7372 0.2096 0 7
-3.0883 -12.3925 -2.7372 0.2096 0 7
-2.9761 -12.4199 -2.7372 0.2096 0 7
-2.8636 -12.4463 -2.7372 0.2096 0 7
-2.7509 -12.4717 -2.7372 0.2096 0 7
-2.6380 -12.4961 -2.7372 0.2096 0 7
-2.5249 -12.5195 -2.7372 0.2096 0 7
-2.4116 -12.5418 -2.7372 0.2096 0 7
-2.2980 -12.5631 -2.7372 0.2096 0 6
-2.1843 -12.5833 -2.7372 0.2096 0 6
-2.0704 -12.6026 -2.7372 0.2096 0 6
-1.9563 -12.6208 -2.7372 0.2096 0 6
-1.8421 -12.6380 -2.7372 0.2096 0 7
-1.7277 -12.6541 -2.7372 0.2096 0 7
-1.6132 -12.6692 -2.7372 0.2096 0 7
-1.4985 -12.6833 -2.7372 0.2096 0 7
-1.3837 -12.6963 -2.7372 0.2096 0 7
-1.2689 -12.7083 -2.7372 0.2096 0 7
-1.1539 -12.7193 -2.7372 0.2096 0 7
-1.0388 -12.7292 -2.7372 0.2096 0 7
-0.9236 -12.7381 -2.7372 0.2096 0 7
-0.8083 -12.7459 -2.7372 0.2096 0 7
-0.6930 -12.7527 -2.7372 0.2096 0 7
-0.5777 -12.7585 -2.7372 0.2096 0 7
-0.4622 -12.7632 -2.7372 0.2096 0 7
-0.3468 -12.7668 -2.7372 0.2096 0 7
-0.2313 -12.7694 -2.7372 0.2096 0 7
-0.1158 -12.7710 -2.7372 0.2096 0 7
-0.0003 -12.7715 -2.7372 0.2096 0 7
0.1152 -12.7710 -2.7372 0.2096 0 7
0.2308 -12.7694 -2.7372 0.2096 0 7
0.3462 -12.7668 -2.7372 0.2096 0 7
0.4617 -12.7632 -2.7372 0.2096 0 7
0.5771 -12.7585 -2.7372 0.2096 0 7
0.6925 -12.7527 -2.7372 0.2096 0 7
0.8078 -12.7460 -2.7372 0.2096 0 7
0.9231 -12.7381 -2.7372 0.2096 0 7
1.0382 -12.7293 -2.7372 0.2096 0 7
1.1533 -12.7193 -2.7372 0.2096 0 7
1.2683 -12.7084 -2.7372 0.2096 0 7
1.3832 -12.6964 -2.7372 0.2096 0 7
1.4980 -12.6834 -2.7372 0.2096 0 7
1.6127 -12.6693 -2.7372 0.2096 0 7
1.7272 -12.6542 -2.7372 0.2096 0 7
1.8416 -12.6381 -2.7372 0.2096 0 7
1.9558 -12.6209 -2.7372 0.2096 0 7
2.0699 -12.6027 -2.7372 0.2096 0 7
2.1838 -12.5835 -2.7372 0.2096 0 7
2.2975 -12.5632 -2.7372 0.2096 0 7
2.4110 -12.5419 -2.7372 0.2096 0 7
2.5244 -12.5196 -2.7372 0.2096 0 7
2.6375 -12.4962 -2.7372 0.2096 0 7
2.7504 -12.4719 -2.7372 0.2096 0 7
2.8631 -12.4465 -2.7372 0.2096 0 7
2.9756 -12.4201 -2.7372 0.2096 0 7
3.0878 -12.3926 -2.7372 0.2096 0 7
3.1997 -12.3642 -2.7372 0.2096 0 7
3.3115 -12.3348 -2.7372 0.2096 0 7
3.4229 -12.3043 -2.7372 0.2096 0 7
3.5340 -12.2728 -2.7372 0.2096 0 7
3.6449 -12.2404 -2.7372 0.2096 0 7
3.7554 -12.2069 -2.7372 0.2096 0 7
3.8657 -12.1724 -2.7372 0.2096 0 7
3.9756 -12.1370 -2.7372 0.2096 0 7
4.0853 -12.1005 -2.7372 0.2096 0 7
4.1945 -12.0631 -2.7372 0.2096 0 7
4.3035 -12.0246 -2.7372 0.2096 0 7
4.4121 -11.9852 -2.7372 0.2096 0 7
4.5203 -11.9448 -2.7372 0.2096 0 7
4.6281 -11.9035 -2.7372 0.2096 0 7
4.7356 -11.8611 -2.7372 0.2096 0 7
4.8427 -11.8178 -2.7372 0.2096 0 7
4.9494 -11.7735 -2.7372 0.2096 0 7
5.0557 -11.7283 -2.7372 0.2096 0 6
5.1615 -11.6821 -2.7372 0.2096 0 6
5.2669 -11.6349 -2.7372 0.2096 0 6
5.3720 -11.5868 -2.7372 0.2096 0 7
5.4766 -11.5377 -2.7372 0.2096 0 7
5.5807 -11.4877 -2.7372 0.2096 0 7
5.6844 -11.4368 -2.7372 0.2096 0 7
5.7876 -11.3849 -2.7372 0.2096 0 7
5.8903 -11.3321 -2.7372 0.2096 0 7
5.9926 -11.2783 -2.7372 0.2096 0 7
6.0944 -11.2237 -2.7372 0.2096 0 7
6.1956 -11.1681 -2.7372 0.2096 0 7
6.2964 -11.1116 -2.7372 0.2096 0 7
6.3966 -11.0542 -2.7372 0.2096 0 7
6.4964 -10.9959 -2.7372 0.2096 0 7
6.5955 -10.9367 -2.7372 0.2096 0 7
6.6942 -10.8766 -2.7372 0.2096 0 7
6.7923 -10.8156 -2.7372 0.2096 0 7
6.8898 -10.7537 -2.7372 0.2096 0 7
6.9868 -10.6909 -2.7372 0.2096 0 7
7.0832 -10.6273 -2.7372 0.2096 0 7
7.1791 -10.5628 -2.7372 0.2096 0 7
7.2743 -10.4975 -2.7372 0.2096 0 7
7.3690 -10.4312 -2.7372 0.2096 0 7
7.4630 -10.3641 -2.7372 0.2096 0 7
7.5564 -10.2962 -2.7372 0.2096 0 7
7.6493 -10.2275 -2.7372 0.2096 0 7
7.7414 -10.1579 -2.7372 0.2096 0 7
7.8330 -10.0874 -2.7372 0.2096 0 7
7.9239 -10.0162 -2.7372 0.2096 0 7
8.0142 -9.9441 -2.7372 0.2096 0 7
8.1038 -9.8712 -2.7372 0.2096 0 7
8.1928 -9.7975 -2.7372 0.2096 0 7
8.2810 -9.7230 -2.7372 0.2096 0 7
8.3686 -9.6477 -2.7372 0.2096 0 7
8.4556 -9.5716 -2.7372 0.2096 0 7
8.5418 -9.4947 -2.7372 0.2096 0 7
8.6273 -9.4171 -2.7372 0.2096 0 7
8.7121 -9.3387 -2.7372 0.2096 0 7
8.7962 -9.2595 -2.7372 0.2096 0 7
8.8796 -9.1796 -2.7372 0.2096 0 7
8.9623 -9.0989 -2.7372 0.2096 0 7
9.0442 -9.0174 -2.7372 0.2096 0 7
9.1254 -8.9353 -2.7372 0.2096 0 7
9.2058 -8.8524 -2.7372 0.2096 0 7
9.2855 -8.7687 -2.7372 0.2096 0 7
9.3645 -8.6844 -2.7372 0.2096 0 7
9.4426 -8.5993 -2.7372 0.2096 0 7
9.5200 -8.5136 -2.7372 0.2096 0 7
9.5967 -8.4271 -2.7372 0.2096 0 7
9.6725 -8.3400 -2.7372 0.2096 0 7
9.7475 -8.2521 -2.7372 0.2096 0 7
9.8218 -8.1636 -2.7372 0.2096 0 7
9.8952 -8.0745 -2.7372 0.2096 0 7
9.9678 -7.9847 -2.7372 0.2096 0 7
10.0396 -7.8942 -2.7372 0.2096 0 7
10.1106 -7.8030 -2.7372 0.2096 0 7
10.1808 -7.7113 -2.7372 0.2096 0 7
10.2501 -7.6189 -2.7372 0.2096 0 7
10.3186 -7.5258 -2.7372 0.2096 0 7
10.3862 -7.4322 -2.7372 0.2096 0 7
10.4530 -7.3380 -2.7372 0.2096 0 7
10.5190 -7.2431 -2.7372 0.2096 0 7
10.5841 -7.1477 -2.7372 0.2096 0 7
10.6483 -7.0517 -2.7372 0.2096 0 7
10.7116 -6.9551 -2.7372 0.2096 0 7
10.7741 -6.8579 -2.7372 0.2096 0 7
10.8357 -6.7602 -2.7372 0.2096 0 7
10.8964 -6.6619 -2.7372 0.2096 0 7
10.9562 -6.5630 -2.7372 0.2096 0 7
11.0151 -6.4637 -2.7372 0.2096 0 7
11.0731 -6.3638 -2.7372 0.2096 0 7
11.1302 -6.2634 -2.7372 0.2096 0 7
11.1864 -6.1625 -2.7372 0.2096 0 7
11.2417 -6.0610 -2.7372 0.2096 0 7
11.2961 -5.9591 -2.7372 0.2096 0 7
11.3495 -5.8567 -2.7372 0.2096 0 7
11.4020 -5.7538 -2.7372 0.2096 0 7
11.4536 -5.6504 -2.7372 0.2096 0 7
11.5042 -5.5466 -2.7372 0.2096 0 7
11.5539 -5.4423 -2.7372 0.2096 0 7
11.6027 -5.3376 -2.7372 0.2096 0 7
11.6505 -5.2324 -2.7372 0.2096 0 7
11.6973 -5.1269 -2.7372 0.2096 0 7
11.7432 -5.0208 -2.7372 0.2096 0 7
11.7881 -4.9144 -2.7372 0.2096 0 7
11.8321 -4.8076 -2.7372 0.2096 0 7
11.8751 -4.7004 -2.7372 0.2096 0 7
11.9171 -4.5928 -2.7372 0.2096 0 7
11.9582 -4.4848 -2.7372 0.2096 0 7
11.9983 -4.3765 -2.7372 0.2096 0 7
12.0374 -4.2678 -2.7372 0.2096 0 7
12.0755 -4.1587 -2.7372 0.2096 0 7
12.1126 -4.0493 -2.7372 0.2096 0 7
12.1487 -3.9396 -2.7372 0.2096 0 6
12.1839 -3.8296 -2.7372 0.2096 0 6
12.2180 -3.7192 -2.7372 0.2096 0 7
12.2511 -3.6085 -2.7372 0.2096 0 6
12.2833 -3.4976 -2.7372 0.2096 0 7
12.3144 -3.3863 -2.7372 0.2096 0 7
12.3445 -3.2748 -2.7372 0.2096 0 7
12.3736 -3.1630 -2.7372 0.2096 0 7
12.4017 -3.0510 -2.7372 0.2096 0 7
12.4288 -2.9387 -2.7372 0.2096 0 7
12.4549 -2.8262 -2.7372 0.2096 0 7
12.4799 -2.7134 -2.7372 0.2096 0 7
12.5040 -2.6004 -2.7372 0.2096 0 7
12.5270 -2.4872 -2.7372 0.2096 0 7
12.5490 -2.3738 -2.7372 0.2096 0 7
12.5699 -2.2602 -2.7372 0.2096 0 7
12.5899 -2.1464 -2.7372 0.2096 0 7
12.6088 -2.0325 -2.7372 0.2096 0 7
12.6266 -1.9183 -2.7372 0.2096 0 7
12.6435 -1.8040 -2.7372 0.2096 0 7
12.6593 -1.6896 -2.7372 0.2096 0 7
12.6740 -1.5750 -2.7372 0.2096 0 7
12.6878 -1.4604 -2.7372 0.2096 0 7
12.7004 -1.3455 -2.7372 0.2096 0 7
12.7121 -1.2306 -2.7372 0.2096 0 7
12.7227 -1.1156 -2.7372 0.2096 0 7
12.7323 -1.0005 -2.7372 0.2096 0 7
12.7408 -0.8853 -2.7372 0.2096 0 7
12.7483 -0.7700 -2.7372 0.2096 0 7
12.7547 -0.6546 -2.7372 0.2096 0 7
12.7601 -0.5393 -2.7372 0.2096 0 7
12.7645 -0.4238 -2.7372 0.2096 0 7
12.7678 -0.3084 -2.7372 0.2096 0 7
12.7701 -0.1929 -2.7372 0.2096 0 7
12.7713 -0.0774 -2.7372 0.2096 0 7
12.7715 0.0382 -2.7372 0.2096 0 7
12.7706 0.1537 -2.7372 0.2096 0 7
12.7687 0.2692 -2.7372 0.2096 0 7
12.7657 0.3847 -2.7372 0.2096 0 7
12.7617 0.5001 -2.7372 0.2096 0 7
12.7567 0.6155 -2.7372 0.2096 0 7
12.7506 0.7309 -2.7372 0.2096 0 7
12.7435 0.8462 -2.7372 0.2096 0 7
12.7353 0.9614 -2.7372 0.2096 0 7
12.7261 1.0765 -2.7372 0.2096 0 7
12.7158 1.1916 -2.7372 0.2096 0 7
12.7045 1.3066 -2.7372 0.2096 0 7
12.6922 1.4214 -2.7372 0.2096 0 7
12.6788 1.5362 -2.7372 0.2096 0 7
12.6644 1.6508 -2.7372 0.2096 0 7
12.6489 1.7652 -2.7372 0.2096 0 7
12.6325 1.8796 -2.7372 0.2096 0 7
12.6150 1.9938 -2.7372 0.2096 0 7
12.5964 2.1078 -2.7372 0.2096 0 7
12.5768 2.2216 -2.7372 0.2096 0 7
12.5562 2.3353 -2.7372 0.2096 0 7
12.5346 2.4488 -2.7372 0.2096 0 7
12.5119 2.5620 -2.7372 0.2096 0 7
12.4882 2.6751 -2.7372 0.2096 0 7
12.4635 2.7879 -2.7372 0.2096 0 7
12.4378 2.9005 -2.7372 0.2096 0 7
12.4110 3.0129 -2.7372 0.2096 0 7
12.3833 3.1251 -2.7372 0.2096 0 7
12.3545 3.2369 -2.7372 0.2096 0 7
12.3247 3.3485 -2.7372 0.2096 0 6
12.2940 3.4599 -2.7372 0.2096 0 7
12.2622 3.5709 -2.7372 0.2096 0 7
12.2294 3.6817 -2.7372 0.2096 0 7
12.1956 3.7922 -2.7372 0.2096 0 7
12.1608 3.9023 -2.7372 0.2096 0 7
12.1250 4.0121 -2.7372 0.2096 0 7
12.0882 4.1216 -2.7372 0.2096 0 7
12.0504 4.2308 -2.7372 0.2096 0 7
12.0116 4.3396 -2.7372 0.2096 0 7
11.9719 4.4481 -2.7372 0.2096 0 7
11.9312 4.5562 -2.7372 0.2096 0 7
11.8895 4.6639 -2.7372 0.2096 0 7
11.8468 4.7713 -2.7372 0.2096 0 7
11.8032 4.8782 -2.7372 0.2096 0 7
11.7586 4.9848 -2.7372 0.2096 0 7
11.7130 5.0909 -2.7372 0.2096 0 7
11.6665 5.1967 -2.7372 0.2096 0 7
11.6147 5.3000 -2.7362 0.2145 0 8
11.5586 5.4013 -2.7344 0.2146 0 8
11.5017 5.5019 -2.7326 0.2148 0 8
11.4439 5.6020 -2.7308 0.2149 0 8
11.2984 5.6581 -2.7082 0.3591 0 8
10.9961 5.6317 -2.6478 0.3673 0 8
10.7097 5.6078 -2.5910 0.3907 0 8
10.6333 5.6910 -2.5848 0.2096 0 8
10.5814 5.7869 -2.5848 0.2096 0 8
10.5286 5.8824 -2.5848 0.2096 0 8
10.4750 5.9774 -2.5848 0.2096 0 8
10.4205 6.0719 -2.5848 0.2096 0 8
10.3652 6.1659 -2.5848 0.2096 0 8
10.3090 6.2594 -2.5848 0.2096 0 8
10.2519 6.3523 -2.5848 0.2096 0 8
10.1941 6.4448 -2.5848 0.2096 0 8
10.1354 6.5367 -2.5848 0.2096 0 8
10.0758 6.6282 -2.5848 0.2096 0 8
10.0155 6.7190 -2.5848 0.2096 0 8
9.9543 6.8093 -2.5848 0.2096 0 8
9.8923 6.8991 -2.5848 0.2096 0 8
9.8295 6.9883 -2.5848 0.2096 0 8
9.7659 7.0769 -2.5848 0.2096 0 8
9.7015 7.1649 -2.5848 0.2096 0 8
9.6363 7.2524 -2.5848 0.2096 0 8
9.5703 7.3393 -2.5848 0.2096 0 8
9.5035 7.4255 -2.5848 0.2096 0 8
9.4359 7.5112 -2.5848 0.2096 0 8
9.3676 7.5962 -2.5848 0.2096 0 8
9.2985 7.6806 -2.5848 0.2096 0 8
9.2287 7.7644 -2.5848 0.2096 0 8
8.9782 7.6934 -2.5340 0.5450 0 9
8.7902 7.6713 -2.5005 0.5524 0 9
8.6333 7.6730 -2.4755 0.2096 0 9
8.4981 7.6915 -2.4566 0.5669 0 9
8.3227 7.6709 -2.4258 0.5740 0 9
8.1517 7.6508 -2.3960 0.5812 0 9
7.9848 7.6311 -2.3672 0.5883 0 9
7.8218 7.6119 -2.3392 0.5953 0 9
7.6626 7.5932 -2.3120 0.6023 0 9
7.6134 7.6821 -2.3180 0.7648 0 9
7.5986 7.8072 -2.3349 0.7592 0 9
7.5837 7.9341 -2.3523 0.7536 0 9
7.5685 8.0630 -2.3701 0.7480 0 9
7.5531 8.1939 -2.3884 0.7423 0 9
7.5374 8.3268 -2.4072 0.7365 0 9
7.5215 8.4618 -2.4265 0.7306 0 9
7.5054 8.5990 -2.4462 0.7247 0 9
7.4890 8.7385 -2.4665 0.7187 0 9
7.4365 8.8379 -2.4755 0.2096 0 9
7.4074 8.9667 -2.4927 0.7066 0 9
7.5968 9.3672 -2.5848 0.2096 0 8
7.5117 9.4355 -2.5848 0.2096 0 8
7.4261 9.5030 -2.5848 0.2096 0 8
7.3398 9.5698 -2.5848 0.2096 0 8
7.2530 9.6358 -2.5848 0.2096 0 8
7.1655 9.7010 -2.5848 0.2096 0 8
7.0775 9.7654 -2.5848 0.2096 0 8
6.9889 9.8290 -2.5848 0.2096 0 8
6.8997 9.8918 -2.5848 0.2096 0 8
6.8099 9.9539 -2.5848 0.2096 0 8
6.7196 10.0150 -2.5848 0.2096 0 8
6.6288 10.0754 -2.5848 0.2096 0 8
6.5374 10.1350 -2.5848 0.2096 0 8
6.4454 10.1937 -2.5848 0.2096 0 8
6.3530 10.2516 -2.5848 0.2096 0 8
6.2600 10.3086 -2.5848 0.2096 0 8
6.1665 10.3648 -2.5848 0.2096 0 8
6.0725 10.4201 -2.5848 0.2096 0 8
5.9780 10.4746 -2.5848 0.2096 0 8
5.8830 10.5283 -2.5848 0.2096 0 8
5.7875 10.5811 -2.5848 0.2096 0 8
5.6916 10.6330 -2.5848 0.2096 0 8
5.5952 10.6840 -2.5848 0.2096 0 8
5.4983 10.7342 -2.5848 0.2096 0 8
5.4010 10.7835 -2.5848 0.2096 0 8
5.3033 10.8319 -2.5848 0.2096 0 8
5.2051 10.8794 -2.5848 0.2096 0 8
5.1065 10.9261 -2.5848 0.2096 0 8
5.0074 10.9718 -2.5848 0.2096 0 8
4.9080 11.0166 -2.5848 0.2096 0 8
4.8082 11.0606 -2.5848 0.2096 0 8
4.7079 11.1036 -2.5848 0.2096 0 8
4.6073 11.1457 -2.5848 0.2096 0 8
4.5063 11.1869 -2.5848 0.2096 0 8
4.4049 11.2273 -2.5848 0.2096 0 8
4.3032 11.2666 -2.5848 0.2096 0 8
4.2011 11.3051 -2.5848 0.2096 0 8
4.0987 11.3426 -2.5848 0.2096 0 8
3.9959 11.3792 -2.5848 0.2096 0 8
3.8929 11.4149 -2.5848 0.2096 0 8
3.7894 11.4497 -2.5848 0.2096 0 8
3.6857 11.4835 -2.5848 0.2096 0 8
3.5817 11.5163 -2.5848 0.2096 0 8
3.4774 11.5483 -2.5848 0.2096 0 8
3.3728 11.5792 -2.5848 0.2096 0 8
3.2679 11.6093 -2.5848 0.2096 0 8
3.1628 11.6383 -2.5848 0.2096 0 8
3.0574 11.6665 -2.5848 0.2096 0 8
2.9518 11.6937 -2.5848 0.2096 0 8
2.8459 11.7199 -2.5848 0.2096 0 8
2.7398 11.7451 -2.5848 0.2096 0 8
2.6334 11.7694 -2.5848 0.2096 0 8
2.5269 11.7928 -2.5848 0.2096 0 8
2.4201 11.8151 -2.5848 0.2096 0 8
2.3131 11.8365 -2.5848 0.2096 0 8
2.2060 11.8570 -2.5848 0.2096 0 8
2.0987 11.8765 -2.5848 0.2096 0 8
1.9911 11.8950 -2.5848 0.2096 0 8
1.8835 11.9125 -2.5848 0.2096 0 8
1.7756 11.9290 -2.5848 0.2096 0 8
1.6677 11.9446 -2.5848 0.2096 0 8
1.5596 11.9592 -2.5848 0.2096 0 8
1.4513 11.9728 -2.5848 0.2096 0 8
1.3430 11.9854 -2.5848 0.2096 0 8
1.2345 11.9971 -2.5848 0.2096 0 8
1.1260 12.0078 -2.5848 0.2096 0 8
1.0173 12.0175 -2.5848 0.2096 0 8
0.9086 12.0262 -2.5848 0.2096 0 8
0.7998 12.0339 -2.5848 0.2096 0 8
0.6909 12.0406 -2.5848 0.2096 0 8
0.5820 12.0464 -2.5848 0.2096 0 8
0.4730 12.0512 -2.5848 0.2096 0 8
0.3640 12.0550 -2.5848 0.2096 0 8
0.2549 12.0578 -2.5848 0.2096 0 8
0.1376 11.3787 -2.4389 0.6014 0 19
0.0368 12.0604 -2.5848 0.2096 0 8
-0.0723 12.0602 -2.5848 0.2096 0 8
-0.1814 12.0591 -2.5848 0.2096 0 8
-0.2904 12.0570 -2.5848 0.2096 0 8
-0.3995 12.0538 -2.5848 0.2096 0 8
-0.5085 12.0497 -2.5848 0.2096 0 8
-0.6175 12.0446 -2.5848 0.2096 0 8
-0.7264 12.0386 -2.5848 0.2096 0 8
-0.8352 12.0315 -2.5848 0.2096 0 8
-0.9440 12.0234 -2.5848 0.2096 0 8
-1.0527 12.0144 -2.5848 0.2096 0 8
-1.1614 12.0044 -2.5848 0.2096 0 8
-1.2699 11.9934 -2.5848 0.2096 0 8
-1.3783 11.9814 -2.5848 0.2096 0 8
-1.4866 11.9685 -2.5848 0.2096 0 8
-1.5948 11.9545 -2.5848 0.2096 0 8
-1.7029 11.9396 -2.5848 0.2096 0 8
-1.8108 11.9237 -2.5848 0.2096 0 8
-1.9186 11.9069 -2.5848 0.2096 0 8
-2.1306 12.5019 -2.7181 0.0374 0 8
-2.2547 12.5439 -2.7315 0.2094 0 8
-2.3698 12.5320 -2.7335 0.2092 0 8
-2.4848 12.5190 -2.7354 0.2091 0 8
-2.5997 12.5042 -2.7372 0.2096 0 7
-2.7127 12.4801 -2.7372 0.2096 0 7
-2.8254 12.4551 -2.7372 0.2096 0 7
-2.9380 12.4290 -2.7372 0.2096 0 7
-3.0502 12.4019 -2.7372 0.2096 0 7
-3.1623 12.3738 -2.7372 0.2096 0 7
-3.2741 12.3447 -2.7372 0.2096 0 7
-3.3856 12.3146 -2.7372 0.2096 0 7
-3.4968 12.2835 -2.7372 0.2096 0 7
-3.6078 12.2514 -2.7372 0.2096 0 7
-3.7185 12.2182 -2.7372 0.2096 0 7
-3.8288 12.1841 -2.7372 0.2096 0 7
-3.9389 12.1490 -2.7372 0.2096 0 7
-4.0486 12.1128 -2.7372 0.2096 0 7
-4.1580 12.0757 -2.7372 0.2096 0 7
-4.2670 12.0376 -2.7372 0.2096 0 7
-4.3757 11.9985 -2.7372 0.2096 0 7
-4.4841 11.9585 -2.7372 0.2096 0 7
-4.5921 11.9174 -2.7372 0.2096 0 6
-4.6997 11.8754 -2.7372 0.2096 0 6
-4.8069 11.8324 -2.7372 0.2096 0 6
-4.9137 11.7885 -2.7372 0.2096 0 6
-5.0201 11.7435 -2.7372 0.2096 0 6
-5.1261 11.6976 -2.7372 0.2096 0 6
-5.2317 11.6508 -2.7372 0.2096 0 6
-5.3369 11.6030 -2.7372 0.2096 0 6
-5.4416 11.5543 -2.7372 0.2096 0 6
-5.5459 11.5046 -2.7372 0.2096 0 6
-5.6497 11.4539 -2.7372 0.2096 0 7
-5.7531 11.4024 -2.7372 0.2096 0 7
-5.8560 11.3499 -2.7372 0.2096 0 7
-5.9584 11.2964 -2.7372 0.2096 0 7
-6.0603 11.2421 -2.7372 0.2096 0 7
-6.1618 11.1868 -2.7372 0.2096 0 6
11.5012 0.0000 -2.7372 0.2315 0 7
11.5007 0.1040 -2.7372 0.2315 0 7
11.4993 0.2080 -2.7372 0.2315 0 7
11.4969 0.3120 -2.7372 0.2315 0 7
11.4936 0.4160 -2.7372 0.2315 0 7
11.4894 0.5200 -2.7372 0.2315 0 7
11.4842 0.6239 -2.7372 0.2315 0 7
11.4781 0.7277 -2.7372 0.2315 0 7
11.4711 0.8315 -2.7372 0.2315 0 7
11.4631 0.9352 -2.7372 0.2315 0 7
11.4541 1.0389 -2.7372 0.2315 0 7
11.4443 1.1424 -2.7372 0.2315 0 7
11.4335 1.2459 -2.7372 0.2315 0 7
11.4217 1.3492 -2.7372 0.2315 0 7
11.4091 1.4525 -2.7372 0.2315 0 7
11.3955 1.5556 -2.7372 0.2315 0 7
11.3809 1.6586 -2.7372 0.2315 0 7
11.3655 1.7615 -2.7372 0.2315 0 7
11.3491 1.8642 -2.7372 0.2315 0 7
11.3318 1.9668 -2.7372 0.2315 0 7
11.3135 2.0692 -2.7372 0.2315 0 7
11.2943 2.1714 -2.7372 0.2315 0 7
11.2742 2.2735 -2.7372 0.2315 0 7
11.2532 2.3754 -2.7372 0.2315 0 7
11.2312 2.4771 -2.7372 0.2315 0 7
11.2084 2.5786 -2.7372 0.2315 0 7
11.1846 2.6798 -2.7372 0.2315 0 7
11.1599 2.7809 -2.7372 0.2315 0 7
11.1343 2.8817 -2.7372 0.2315 0 7
11.1078 2.9823 -2.7372 0.2315 0 7
11.0803 3.0826 -2.7372 0.2315 0 7
11.0520 3.1827 -2.7372 0.2315 0 6
11.0228 3.2826 -2.7372 0.2315 0 7
10.9926 3.3821 -2.7372 0.2315 0 7
10.9616 3.4814 -2.7372 0.2315 0 7
10.9297 3.5804 -2.7372 0.2315 0 7
10.8968 3.6791 -2.7372 0.2315 0 7
10.8631 3.7775 -2.7372 0.2315 0 7
10.8285 3.8756 -2.7372 0.2315 0 7
10.7930 3.9734 -2.7372 0.2315 0 7
10.7566 4.0709 -2.7372 0.2315 0 7
10.7194 4.1680 -2.7372 0.2315 0 7
10.6812 4.2648 -2.7372 0.2315 0 7
10.6422 4.3612 -2.7372 0.2315 0 7
10.6023 4.4573 -2.7372 0.2315 0 7
10.5616 4.5530 -2.7372 0.2315 0 7
10.5200 4.6483 -2.7372 0.2315 0 7
10.4775 4.7433 -2.7372 0.2315 0 7
10.4341 4.8379 -2.7372 0.2315 0 7
10.3900 4.9321 -2.7372 0.2315 0 7
10.3449 5.0258 -2.7372 0.2315 0 7
10.2964 5.1179 -2.7365 0.2370 0 8
10.2436 5.2077 -2.7349 0.2371 0 8
10.1901 5.2970 -2.7333 0.2372 0 8
10.1358 5.3858 -2.7317 0.2374 0 8
10.0808 5.4740 -2.7301 0.2375 0 8
9.8875 5.4855 -2.6911 0.3992 0 8
9.6439 5.4650 -2.6381 0.4072 0 8
9.4154 5.4486 -2.5890 0.4320 0 8
9.3507 5.5246 -2.5848 0.2315 0 8
9.3004 5.6090 -2.5848 0.2315 0 8
9.2492 5.6929 -2.5848 0.2315 0 8
9.1974 5.7763 -2.5848 0.2315 0 8
9.1448 5.8593 -2.5848 0.2315 0 8
9.0914 5.9417 -2.5848 0.2315 0 8
9.0373 6.0237 -2.5848 0.2315 0 8
8.9824 6.1052 -2.5848 0.2315 0 8
8.9268 6.1862 -2.5848 0.2315 0 8
8.8705 6.2667 -2.5848 0.2315 0 8
8.8135 6.3467 -2.5848 0.2315 0 8
8.7557 6.4261 -2.5848 0.2315 0 8
8.6972 6.5050 -2.5848 0.2315 0 8
8.6380 6.5834 -2.5848 0.2315 0 8
8.5781 6.6613 -2.5848 0.2315 0 8
8.5175 6.7386 -2.5848 0.2315 0 8
8.4562 6.8154 -2.5848 0.2315 0 8
8.3942 6.8916 -2.5848 0.2315 0 8
8.3316 6.9672 -2.5848 0.2315 0 8
8.2682 7.0423 -2.5848 0.2315 0 8
8.2042 7.1168 -2.5848 0.2315 0 8
8.1395 7.1907 -2.5848 0.2315 0 8
8.0741 7.2640 -2.5848 0.2315 0 8
8.0081 7.3368 -2.5848 0.2315 0 8
7.9414 7.4089 -2.5848 0.2315 0 8
7.8740 7.4804 -2.5848 0.2315 0 8
7.8061 7.5513 -2.5848 0.2315 0 8
7.6517 7.5372 -2.5562 0.5970 0 9
7.5693 7.5921 -2.5515 0.7627 0 9
7.5547 7.7158 -2.5700 0.7572 0 9
7.5278 7.8287 -2.5848 0.2315 0 8
7.4567 7.8965 -2.5848 0.2315 0 8
7.3850 7.9636 -2.5848 0.2315 0 8
7.3126 8.0301 -2.5848 0.2315 0 8
7.2397 8.0959 -2.5848 0.2315 0 8
7.1662 8.1611 -2.5848 0.2315 0 8
7.0921 8.2256 -2.5848 0.2315 0 8
7.0174 8.2894 -2.5848 0.2315 0 8
6.9421 8.3525 -2.5848 0.2315 0 8
6.8663 8.4149 -2.5848 0.2315 0 8
6.7899 8.4767 -2.5848 0.2315 0 8
6.7130 8.5378 -2.5848 0.2315 0 8
6.6355 8.5981 -2.5848 0.2315 0 8
6.5574 8.6578 -2.5848 0.2315 0 8
6.4788 8.7168 -2.5848 0.2315 0 8
6.3997 8.7750 -2.5848 0.2315 0 8
6.3201 8.8325 -2.5848 0.2315 0 8
6.2400 8.8893 -2.5848 0.2315 0 8
6.1593 8.9454 -2.5848 0.2315 0 8
6.0781 9.0007 -2.5848 0.2315 0 8
5.9965 9.0554 -2.5848 0.2315 0 8
5.9143 9.1092 -2.5848 0.2315 0 8
5.8317 9.1623 -2.5848 0.2315 0 8
5.7486 9.2147 -2.5848 0.2315 0 8
5.6650 9.2663 -2.5848 0.2315 0 8
5.5810 9.3172 -2.5848 0.2315 0 8
5.4965 9.3673 -2.5848 0.2315 0 8
5.4115 9.4166 -2.5848 0.2315 0 8
5.3261 9.4652 -2.5848 0.2315 0 8
5.2403 9.5130 -2.5848 0.2315 0 8
5.1541 9.5600 -2.5848 0.2315 0 8
5.0674 9.6062 -2.5848 0.2315 0 8
4.9803 9.6516 -2.5848 0.2315 0 8
4.8928 9.6963 -2.5848 0.2315 0 8
4.8049 9.7401 -2.5848 0.2315 0 8
4.7166 9.7832 -2.5848 0.2315 0 8
4.6279 9.8255 -2.5848 0.2315 0 8
4.5389 9.8669 -2.5848 0.2315 0 8
4.4494 9.9076 -2.5848 0.2315 0 8
4.3596 9.9474 -2.5848 0.2315 0 8
4.2695 9.9864 -2.5848 0.2315 0 8
4.1790 10.0246 -2.5848 0.2315 0 8
4.0881 10.0620 -2.5848 0.2315 0 8
3.9970 10.0986 -2.5848 0.2315 0 8
3.9055 10.1343 -2.5848 0.2315 0 8
3.8136 10.1693 -2.5848 0.2315 0 8
3.7215 10.2033 -2.5848 0.2315 0 8
3.6291 10.2366 -2.5848 0.2315 0 8
3.5363 10.2690 -2.5848 0.2315 0 8
3.4433 10.3005 -2.5848 0.2315 0 8
3.3500 10.3313 -2.5848 0.2315 0 8
3.2564 10.3611 -2.5848 0.2315 0 8
3.1626 10.3902 -2.5848 0.2315 0 8
3.0685 10.4183 -2.5848 0.2315 0 8
2.9741 10.4457 -2.5848 0.2315 0 8
2.8795 10.4721 -2.5848 0.2315 0 8
2.7847 10.4978 -2.5848 0.2315 0 8
2.6896 10.5225 -2.5848 0.2315 0 8
2.5943 10.5464 -2.5848 0.2315 0 8
2.4988 10.5694 -2.5848 0.2315 0 8
2.4031 10.5916 -2.5848 0.2315 0 8
2.3072 10.6129 -2.5848 0.2315 0 8
2.2111 10.6333 -2.5848 0.2315 0 8
2.1149 10.6529 -2.5848 0.2315 0 8
2.0185 10.6716 -2.5848 0.2315 0 8
1.9219 10.6894 -2.5848 0.2315 0 8
1.8251 10.7064 -2.5848 0.2315 0 8
1.7282 10.7224 -2.5848 0.2315 0 8
1.6311 10.7376 -2.5848 0.2315 0 8
1.5339 10.7519 -2.5848 0.2315 0 8
1.4366 10.7654 -2.5848 0.2315 0 8
1.3392 10.7779 -2.5848 0.2315 0 8
1.2417 10.7896 -2.5848 0.2315 0 8
1.1440 10.8004 -2.5848 0.2315 0 8
1.0463 10.8103 -2.5848 0.2315 0 8
0.9485 10.8193 -2.5848 0.2315 0 8
0.8506 10.8274 -2.5848 0.2315 0 8
0.7526 10.8347 -2.5848 0.2315 0 8
0.6546 10.8411 -2.5848 0.2315 0 8
0.5565 10.8465 -2.5848 0.2315 0 8
0.4584 10.8511 -2.5848 0.2315 0 8
0.3602 10.8548 -2.5848 0.2315 0 8
0.2620 10.8577 -2.5848 0.2315 0 8
0.1638 10.8596 -2.5848 0.2315 0 8
0.0656 10.8606 -2.5848 0.2315 0 8
-0.0327 10.8608 -2.5848 0.2315 0 8
-0.1309 10.8600 -2.5848 0.2315 0 8
-0.2291 10.8584 -2.5848 0.2315 0 8
-0.3273 10.8559 -2.5848 0.2315 0 8
-0.4255 10.8525 -2.5848 0.2315 0 8
-0.5236 10.8482 -2.5848 0.2315 0 8
-0.6218 10.8430 -2.5848 0.2315 0 8
-0.7198 10.8369 -2.5848 0.2315 0 8
-0.8178 10.8300 -2.5848 0.2315 0 8
-0.9157 10.8221 -2.5848 0.2315 0 8
-1.0136 10.8134 -2.5848 0.2315 0 8
-1.1113 10.8038 -2.5848 0.2315 0 8
-1.2090 10.7933 -2.5848 0.2315 0 8
-1.3066 10.7819 -2.5848 0.2315 0 8
-1.4040 10.7697 -2.5848 0.2315 0 8
-1.5014 10.7566 -2.5848 0.2315 0 8
-1.5986 10.7425 -2.5848 0.2315 0 8
-1.7418 11.0191 -2.6551 0.2048 0 8
-1.8935 11.3143 -2.7302 0.2342 0 8
-1.9970 11.3038 -2.7319 0.2340 0 8
-2.1005 11.2924 -2.7336 0.2339 0 8
-2.2039 11.2801 -2.7354 0.2337 0 8
-2.3073 11.2668 -2.7371 0.2336 0 8
-2.4092 11.2460 -2.7372 0.2315 0 7
-2.5109 11.2237 -2.7372 0.2315 0 7
-2.6123 11.2006 -2.7372 0.2315 0 7
-2.7135 11.1765 -2.7372 0.2315 0 7
-2.8144 11.1515 -2.7372 0.2315 0 7
-2.9152 11.1256 -2.7372 0.2315 0 7
-3.0157 11.0988 -2.7372 0.2315 0 6
-3.1160 11.0710 -2.7372 0.2315 0 6
-3.2160 11.0424 -2.7372 0.2315 0 6
-3.3157 11.0129 -2.7372 0.2315 0 6
-3.4152 10.9824 -2.7372 0.2315 0 6
-3.5144 10.9511 -2.7372 0.2315 0 7
-3.6133 10.9188 -2.7372 0.2315 0 7
-3.7119 10.8857 -2.7372 0.2315 0 7
-3.8102 10.8517 -2.7372 0.2315 0 7
-3.9082 10.8168 -2.7372 0.2315 0 7
-4.0059 10.7810 -2.7372 0.2315 0 6
-4.1032 10.7443 -2.7372 0.2315 0 6
-4.2002 10.7068 -2.7372 0.2315 0 6
-4.2969 10.6683 -2.7372 0.2315 0 6
-4.3932 10.6290 -2.7372 0.2315 0 6
-4.4892 10.5889 -2.7372 0.2315 0 7
-4.5848 10.5478 -2.7372 0.2315 0 7
-4.6800 10.5059 -2.7372 0.2315 0 7
-4.7748 10.4632 -2.7372 0.2315 0 7
-4.8692 10.4196 -2.7372 0.2315 0 7
-4.9633 10.3751 -2.7372 0.2315 0 6
-5.0569 10.3298 -2.7372 0.2315 0 6
-5.1501 10.2836 -2.7372 0.2315 0 6
-5.2429 10.2366 -2.7372 0.2315 0 6
-5.3353 10.1888 -2.7372 0.2315 0 6
-5.4273 10.1401 -2.7372 0.2315 0 6
-5.5187 10.0906 -2.7372 0.2315 0 7
-5.6098 10.0403 -2.7372 0.2315 0 7
-5.7004 9.9891 -2.7372 0.2315 0 7
-5.7905 9.9372 -2.7372 0.2315 0 7
-5.8801 9.8844 -2.7372 0.2315 0 7
-5.9693 9.8308 -2.7372 0.2315 0 6
-6.0580 9.7764 -2.7372 0.2315 0 6
-6.1461 9.7212 -2.7372 0.2315 0 6
-6.2338 9.6652 -2.7372 0.2315 0 6
-6.3210 9.6084 -2.7372 0.2315 0 6
-6.4076 9.5509 -2.7372 0.2315 0 7
-6.4937 9.4925 -2.7372 0.2315 0 7
-6.5794 9.4334 -2.7372 0.2315 0 7
-6.6644 9.3735 -2.7372 0.2315 0 7
-6.7489 9.3129 -2.7372 0.2315 0 7
-6.8329 9.2514 -2.7372 0.2315 0 7
-6.9163 9.1892 -2.7372 0.2315 0 6
-6.9991 9.1263 -2.7372 0.2315 0 6
-7.0813 9.0626 -2.7372 0.2315 0 6
-7.1630 8.9982 -2.7372 0.2315 0 6
-7.2441 8.9331 -2.7372 0.2315 0 6
-7.3246 8.8672 -2.7372 0.2315 0 6
-7.4045 8.8006 -2.7372 0.2315 0 6
-7.4838 8.7332 -2.7372 0.2315 0 6
-7.5625 8.6652 -2.7372 0.2315 0 7
-7.6406 8.5964 -2.7372 0.2315 0 7
-7.7180 8.5270 -2.7372 0.2315 0 7
-7.7948 8.4568 -2.7372 0.2315 0 7
-7.8710 8.3860 -2.7372 0.2315 0 7
-7.9465 8.3144 -2.7372 0.2315 0 7
-8.0214 8.2422 -2.7372 0.2315 0 7
-8.0956 8.1693 -2.7372 0.2315 0 7
-8.1692 8.0958 -2.7372 0.2315 0 7
-8.2420 8.0216 -2.7372 0.2315 0 7
-8.3143 7.9467 -2.7372 0.2315 0 7
-8.3858 7.8711 -2.7372 0.2315 0 7
-8.4566 7.7950 -2.7372 0.2315 0 7
-8.5268 7.7182 -2.7372 0.2315 0 7
-8.5963 7.6407 -2.7372 0.2315 0 7
-8.6650 7.5627 -2.7372 0.2315 0 7
-8.7331 7.4840 -2.7372 0.2315 0 7
-8.8004 7.4047 -2.7372 0.2315 0 7
-8.8670 7.3248 -2.7372 0.2315 0 7
-8.9329 7.2443 -2.7372 0.2315 0 7
-8.9981 7.1632 -2.7372 0.2315 0 7
-9.0625 7.0815 -2.7372 0.2315 0 7
-9.1262 6.9993 -2.7372 0.2315 0 7
-9.1891 6.9164 -2.7372 0.2315 0 7
-9.2513 6.8330 -2.7372 0.2315 0 7
-9.3127 6.7491 -2.7372 0.2315 0 7
-9.3734 6.6646 -2.7372 0.2315 0 7
-9.4333 6.5795 -2.7372 0.2315 0 7
-9.4924 6.4939 -2.7372 0.2315 0 7
-9.5507 6.4078 -2.7372 0.2315 0 7
-9.6083 6.3212 -2.7372 0.2315 0 7
-9.6651 6.2340 -2.7372 0.2315 0 7
-9.7211 6.1463 -2.7372 0.2315 0 7
-9.7763 6.0582 -2.7372 0.2315 0 7
-9.8307 5.9695 -2.7372 0.2315 0 7
-9.8843 5.8803 -2.7372 0.2315 0 7
-9.9370 5.7907 -2.7372 0.2315 0 7
-9.9890 5.7006 -2.7372 0.2315 0 7
-10.0402 5.6100 -2.7372 0.2315 0 7
-10.0905 5.5190 -2.7372 0.2315 0 7
-10.1400 5.4275 -2.7372 0.2315 0 7
-10.1887 5.3355 -2.7372 0.2315 0 7
-10.2365 5.2432 -2.7372 0.2315 0 7
-10.2835 5.1504 -2.7372 0.2315 0 7
-10.3297 5.0571 -2.7372 0.2315 0 7
-10.3750 4.9635 -2.7372 0.2315 0 7
-10.4195 4.8695 -2.7372 0.2315 0 7
-10.4631 4.7750 -2.7372 0.2315 0 7
-10.5058 4.6802 -2.7372 0.2315 0 7
-10.5477 4.5850 -2.7372 0.2315 0 7
-10.5888 4.4894 -2.7372 0.2315 0 7
-10.6290 4.3934 -2.7372 0.2315 0 7
-10.6683 4.2971 -2.7372 0.2315 0 7
-10.7067 4.2004 -2.7372 0.2315 0 7
-10.7442 4.1034 -2.7372 0.2315 0 7
-10.7809 4.0061 -2.7372 0.2315 0 7
-10.8167 3.9084 -2.7372 0.2315 0 7
-10.8516 3.8104 -2.7372 0.2315 0 7
-10.8856 3.7121 -2.7372 0.2315 0 7
-10.9188 3.6135 -2.7372 0.2315 0 7
-10.9510 3.5146 -2.7372 0.2315 0 7
-10.9823 3.4154 -2.7372 0.2315 0 7
-11.0128 3.3159 -2.7372 0.2315 0 7
-11.0423 3.2162 -2.7372 0.2315 0 7
-11.0710 3.1162 -2.7372 0.2315 0 7
-11.0987 3.0159 -2.7372 0.2315 0 7
-11.1255 2.9154 -2.7372 0.2315 0 7
-11.1514 2.8147 -2.7372 0.2315 0 7
-11.1764 2.7137 -2.7372 0.2315 0 7
-11.2005 2.6125 -2.7372 0.2315 0 7
-11.2237 2.5111 -2.7372 0.2315 0 7
-11.2459 2.4095 -2.7372 0.2315 0 7
-11.2673 2.3076 -2.7372 0.2315 0 7
-11.2877 2.2056 -2.7372 0.2315 0 7
-11.3072 2.1035 -2.7372 0.2315 0 7
-11.3257 2.0011 -2.7372 0.2315 0 7
-11.3434 1.8986 -2.7372 0.2315 0 7
-11.3601 1.7959 -2.7372 0.2315 0 7
-11.3759 1.6931 -2.7372 0.2315 0 7
-11.3907 1.5901 -2.7372 0.2315 0 7
-11.4046 1.4870 -2.7372 0.2315 0 7
-11.4176 1.3838 -2.7372 0.2315 0 7
-11.4297 1.2805 -2.7372 0.2315 0 7
-11.4408 1.1771 -2.7372 0.2315 0 7
-11.4510 1.0735 -2.7372 0.2315 0 7
-11.4602 0.9699 -2.7372 0.2315 0 7
-11.4685 0.8662 -2.7372 0.2315 0 7
-11.4759 0.7625 -2.7372 0.2315 0 7
-11.4823 0.6586 -2.7372 0.2315 0 7
-11.4878 0.5548 -2.7372 0.2315 0 7
-11.4923 0.4508 -2.7372 0.2315 0 7
-11.4959 0.3469 -2.7372 0.2315 0 7
-11.4986 0.2429 -2.7372 0.2315 0 7
-11.5003 0.1389 -2.7372 0.2315 0 7
-11.5011 0.0348 -2.7372 0.2315 0 7
-11.5010 -0.0692 -2.7372 0.2315 0 7
-11.4999 -0.1732 -2.7372 0.2315 0 7
-11.4978 -0.2772 -2.7372 0.2315 0 7
-11.4949 -0.3812 -2.7372 0.2315 0 7
-11.4909 -0.4851 -2.7372 0.2315 0 7
-11.4861 -0.5891 -2.7372 0.2315 0 7
-11.4803 -0.6929 -2.7372 0.2315 0 7
-11.4735 -0.7967 -2.7372 0.2315 0 7
-11.4658 -0.9005 -2.7372 0.2315 0 7
-11.4573 -1.0042 -2.7372 0.2315 0 7
-11.4477 -1.1077 -2.7372 0.2315 0 7
-11.4372 -1.2112 -2.7372 0.2315 0 7
-11.4258 -1.3146 -2.7372 0.2315 0 7
-11.4134 -1.4179 -2.7372 0.2315 0 7
-11.4001 -1.5211 -2.7372 0.2315 0 7
-11.3859 -1.6241 -2.7372 0.2315 0 7
-11.3708 -1.7271 -2.7372 0.2315 0 7
-11.3547 -1.8298 -2.7372 0.2315 0 7
-11.3377 -1.9325 -2.7372 0.2315 0 7
-11.3197 -2.0349 -2.7372 0.2315 0 7
-11.3009 -2.1372 -2.7372 0.2315 0 7
-11.2811 -2.2393 -2.7372 0.2315 0 7
-11.2603 -2.3413 -2.7372 0.2315 0 7
-11.2387 -2.4430 -2.7372 0.2315 0 7
-11.2161 -2.5446 -2.7372 0.2315 0 7
-11.1927 -2.6459 -2.7372 0.2315 0 7
-11.1683 -2.7471 -2.7372 0.2315 0 7
-11.1430 -2.8480 -2.7372 0.2315 0 7
-11.1168 -2.9486 -2.7372 0.2315 0 7
-11.0896 -3.0491 -2.7372 0.2315 0 7
-11.0616 -3.1492 -2.7372 0.2315 0 6
-11.0327 -3.2492 -2.7372 0.2315 0 7
-11.0028 -3.3488 -2.7372 0.2315 0 7
-10.9721 -3.4482 -2.7372 0.2315 0 7
-10.9405 -3.5473 -2.7372 0.2315 0 7
-10.9079 -3.6461 -2.7372 0.2315 0 7
-10.8745 -3.7446 -2.7372 0.2315 0 7
-10.8402 -3.8428 -2.7372 0.2315 0 7
-10.8050 -3.9407 -2.7372 0.2315 0 7
-10.7689 -4.0383 -2.7372 0.2315 0 7
-10.7319 -4.1355 -2.7372 0.2315 0 7
-10.6941 -4.2324 -2.7372 0.2315 0 7
-10.6554 -4.3290 -2.7372 0.2315 0 7
-10.6158 -4.4252 -2.7372 0.2315 0 7
-10.5753 -4.5210 -2.7372 0.2315 0 7
-10.5340 -4.6161 -2.7372 0.2315 0 7
-10.4918 -4.7115 -2.7372 0.2315 0 7
-10.4488 -4.8063 -2.7372 0.2315 0 7
-10.4049 -4.9006 -2.7372 0.2315 0 7
-10.3601 -4.9945 -2.7372 0.2315 0 7
-10.3145 -5.0880 -2.7372 0.2315 0 7
-10.2681 -5.1810 -2.7372 0.2315 0 7
-10.2208 -5.2737 -2.7372 0.2315 0 7
