ply
format ascii 1.0
element vertex 1397
property float32 x
property float32 y
property float32 z
property float32 CosAngle
property uint32 ObjIdx
property uint32 ObjTag
end_header
-2.4975 29.6047 4.4658 0.2340 0 9
-2.8562 30.5557 4.6130 0.7264 0 9
-3.2888 32.0523 4.8432 0.5364 0 9
-3.4839 31.1751 4.7152 0.5953 0 9
-3.8795 32.0832 4.8577 0.5014 0 9
-4.3831 31.4622 4.7749 0.5207 0 9
-5.2810 35.5522 5.4026 0.4253 0 9
-5.4467 34.5169 5.2526 0.0941 0 9
-5.7538 34.4370 5.2481 0.8483 0 9
-6.3774 36.1547 5.5185 0.4955 0 9
-6.3256 34.0581 5.2070 0.8024 0 9
-6.6293 33.9784 5.2037 0.9211 0 9
-6.8214 33.3552 5.1175 0.8678 0 9
-7.1445 33.3939 5.1332 0.9293 0 9
-7.7242 34.5722 5.3248 0.2641 0 9
-8.0815 34.6939 5.3546 0.7198 0 9
-8.4244 34.7410 5.3734 0.6310 0 9
-8.6552 34.3342 5.3224 0.6916 0 9
-8.9152 34.0628 5.2926 0.7857 0 9
-9.4562 34.8403 5.4265 0.6700 0 9
-9.5545 33.9839 5.3063 0.7629 0 9
-9.8481 33.8500 5.2991 0.8390 0 9
-10.0790 33.5111 5.2601 0.8642 0 9
-10.3565 33.3375 5.2473 0.8663 0 9
-10.7131 33.4158 5.2747 0.9690 0 9
-10.9664 33.1710 5.2515 0.8683 0 9
-11.2211 32.9387 5.2306 0.8812 0 9
-11.5215 32.8444 5.2319 0.8956 0 9
-11.8541 32.8388 5.2479 0.8760 0 9
-12.1833 32.8184 5.2620 0.6740 0 9
-12.5708 32.9459 5.3005 0.7421 0 9
-12.9520 33.0446 5.3350 0.8856 0 9
-13.6155 33.8337 5.4821 0.8498 0 9
-12.6129 30.5417 4.9669 0.8143 0 9
-13.3026 31.4038 5.1265 0.5247 0 9
-15.2365 35.0824 5.7493 0.7684 0 9
-15.3950 33.7629 5.5777 0.6112 0 9
-14.9695 32.0584 5.3183 0.6351 0 9
-14.9621 31.3009 5.2149 0.4074 0 9
-16.2262 32.4248 5.4501 0.2144 0 9
-14.5698 25.5505 4.4212 0.6469 0 9
-15.8231 27.1742 4.7267 0.3137 0 9
-14.6921 24.7151 4.3219 0.7417 0 9
-14.9972 24.7167 4.3457 0.8084 0 9
-15.6772 25.3182 4.4762 0.7595 0 9
-15.7472 24.9248 4.4317 0.1293 0 9
-16.1379 25.0389 4.4777 0.7633 0 9
-16.4144 24.9692 4.4916 0.2248 0 9
-16.9012 25.2100 4.5622 0.5793 0 9
-17.1668 25.1122 4.5724 0.5846 0 9
-17.3883 24.9488 4.5711 0.3364 0 9
-18.2601 25.7010 4.7390 0.8334 0 9
-18.7219 25.8527 4.7980 0.4854 0 9
-16.5646 22.4435 4.1929 0.8006 0 9
-16.9380 22.5204 4.2357 0.7917 0 9
-18.7783 24.5027 4.6403 0.7870 0 9
-17.7572 22.7414 4.3370 0.5703 0 9
-18.9455 23.8161 4.5745 0.8378 0 9
-19.5574 24.1340 4.6693 0.7822 0 9
-19.8617 24.0614 4.6898 0.3239 0 9
-20.4348 24.3046 4.7730 0.3875 0 9
-20.7507 24.2320 4.7954 0.7277 0 9
-19.3504 22.1874 4.4253 0.6919 0 9
-20.1546 22.6919 4.5621 0.4554 0 9
-20.2709 22.4114 4.5423 0.7193 0 9
-20.5469 22.3076 4.5588 0.7067 0 9
-20.3982 21.7483 4.4820 0.8552 0 9
-21.3989 22.4055 4.6571 0.6709 0 9
-22.0442 22.6673 4.7528 0.9364 0 9
-22.3147 22.5340 4.7670 0.7193 0 9
-22.5305 22.3442 4.7697 0.3482 0 9
-23.2720 22.6658 4.8831 0.6059 0 9
-23.6673 22.6373 4.9229 0.2816 0 9
-26.9462 4.5226 4.1070 0.8294 0 9
-26.0987 4.1380 3.9720 0.5350 0 9
-25.9579 3.8754 3.9451 0.6980 0 9
-24.3519 2.7395 3.6835 0.7935 0 9
-24.2847 2.5098 3.6698 0.8508 0 9
-24.1140 2.2720 3.6407 0.5694 0 9
-24.6080 2.0941 3.7123 0.4253 0 9
-24.5288 1.8642 3.6977 0.9257 0 9
-24.6557 1.6497 3.7144 0.6713 0 9
-23.5453 1.3616 3.5451 0.7094 0 9
-24.5916 1.1991 3.7009 0.9325 0 9
-23.5769 0.9360 3.5467 0.7339 0 9
-23.8319 0.7303 3.5840 0.7386 0 9
-23.8899 0.5159 3.5918 0.5184 0 9
-23.5337 0.2953 3.5377 0.8459 0 9
-23.7536 0.0832 3.5705 0.8525 0 9
-23.6608 -0.1311 3.5566 0.4521 0 9
-23.6199 -0.3444 3.5508 0.8589 0 9
-23.9309 -0.5655 3.5982 0.8779 0 9
-24.0877 -0.7872 3.6227 0.9785 0 9
-23.8246 -0.9944 3.5843 0.4656 0 9
-23.7116 -1.2045 3.5688 0.7650 0 9
-23.7863 -1.4241 3.5818 0.7534 0 9
-24.3460 -1.6787 3.6682 0.4905 0 9
-23.8430 -1.8608 3.5948 0.5772 0 9
-25.8936 -2.2566 3.9069 0.8828 0 9
-25.9030 -2.4937 3.9116 0.8526 0 9
-25.7673 -2.7160 3.8947 0.0557 0 9
-25.8265 -2.9586 3.9075 0.2585 0 9
-25.4937 -3.1543 3.8613 0.5968 0 9
-25.5967 -3.4023 3.8814 0.5450 0 9
-25.6929 -3.6519 3.9008 0.5422 0 9
-26.3107 -3.9828 3.9999 0.3997 0 9
-18.5680 -2.9827 2.8268 0.7120 0 5
-25.0953 -4.2644 3.8263 0.6755 0 9
-26.3637 -4.7256 4.0260 0.2510 0 9
-11.6803 -6.5638 2.0139 0.5586 0 9
-10.8375 -6.2198 1.8783 0.2324 0 9
-10.5170 -6.1630 1.8323 0.2382 0 9
-10.6591 -6.3764 1.8670 0.2057 0 9
-10.4254 -6.3653 1.8361 0.4426 0 9
-10.2577 -6.3910 1.8167 0.4281 0 9
-10.2460 -6.5131 1.8250 0.1508 0 9
-8.7141 -5.6506 1.5611 0.5877 0 9
-8.5546 -5.6577 1.5417 0.9797 0 9
-8.4909 -5.7266 1.5395 0.9807 0 9
-8.4571 -5.8158 1.5428 0.8216 0 9
-8.4502 -5.9243 1.5512 0.8442 0 9
-10.9756 -7.8438 2.0278 0.2042 0 9
-10.3914 -7.5692 1.9324 0.0623 0 9
-9.9503 -8.5687 1.9738 0.3836 0 9
-9.9090 -8.6904 1.9812 0.3578 0 9
-9.9029 -8.8448 1.9958 0.3162 0 9
-10.1720 -9.2518 2.0668 0.2561 0 9
-2.0192 -7.2383 1.1296 0.9205 0 5
1.1541 -21.5404 3.2425 0.9848 0 5
5.3261 -9.6186 1.6527 0.6697 0 9
5.3616 -9.4795 1.6370 0.6713 0 9
5.4401 -9.4184 1.6349 0.9629 0 9
5.5403 -9.3947 1.6394 0.8325 0 9
5.6565 -9.3964 1.6486 0.8390 0 9
5.3579 3.9483 1.0004 0.4692 0 5
5.2940 3.9756 0.9952 0.8657 0 5
20.8640 26.1487 5.0284 0.5706 0 9
18.7677 24.4145 4.6288 0.5374 0 9
18.3100 24.2701 4.5699 0.3912 0 9
17.5978 23.7701 4.4456 0.6055 0 9
17.4338 23.9994 4.4588 0.8377 0 9
17.0431 23.9135 4.4140 0.7775 0 9
16.8355 24.0800 4.4165 0.8845 0 9
16.6089 24.2194 4.4143 0.6928 0 9
16.1337 23.9887 4.3455 0.4180 0 9
15.8782 24.0762 4.3352 0.5401 0 9
15.9638 24.6890 4.4193 0.4999 0 9
15.7232 24.8060 4.4146 0.9450 0 9
15.4452 24.8618 4.3995 0.6690 0 9
15.2662 25.0768 4.4130 0.6219 0 9
15.0955 25.3088 4.4296 0.6384 0 9
14.5610 24.9223 4.3387 0.5116 0 9
14.3912 25.1512 4.3557 0.3168 0 9
14.0301 25.0428 4.3148 0.7404 0 9
14.3271 26.1242 4.4786 0.9737 0 9
14.0573 26.1911 4.4681 0.8655 0 9
13.8256 26.3283 4.4700 0.8060 0 9
13.6114 26.4998 4.4780 0.8953 0 9
13.3927 26.6647 4.4852 0.6210 0 9
13.0350 26.5483 4.4457 0.9081 0 9
12.8453 26.7714 4.4634 0.6609 0 9
12.5321 26.7357 4.4383 0.7234 0 9
12.1407 26.5223 4.3845 0.2496 0 9
11.7441 26.2813 4.3270 0.2148 0 9
11.5611 26.5129 4.3477 0.7802 0 9
11.3897 26.7783 4.3741 0.6570 0 9
11.2311 27.0829 4.4071 0.9409 0 9
10.5685 26.1509 4.2397 0.6441 0 9
10.5138 26.7082 4.3145 0.7567 0 9
9.9826 26.0476 4.1930 0.6393 0 9
9.6913 25.9884 4.1692 0.6649 0 9
9.4794 26.1398 4.1796 0.2490 0 9
9.2329 26.1970 4.1752 0.6106 0 9
9.0273 26.3718 4.1899 0.8397 0 9
8.7912 26.4608 4.1912 0.8393 0 9
8.9555 27.7930 4.3892 0.6533 0 9
8.6356 27.6542 4.3548 0.7912 0 9
8.4260 27.8665 4.3760 0.7873 0 9
8.0722 27.5947 4.3217 0.7130 0 9
7.8242 27.6730 4.3227 0.6168 0 9
7.4968 28.4725 4.4257 0.7540 0 9
6.9860 27.5415 4.2710 0.6141 0 9
6.7192 27.5321 4.2599 0.8017 0 9
6.4344 27.4400 4.2365 0.8470 0 9
6.4195 28.5353 4.3965 0.7841 0 9
6.0170 27.9230 4.2936 0.8620 0 9
5.7585 27.9484 4.2893 0.6335 0 9
5.4638 27.7872 4.2568 0.8938 0 9
5.2239 27.8974 4.2663 0.8880 0 9
5.0046 28.1302 4.2948 0.5957 0 9
5.0100 29.7163 4.5298 0.5074 0 9
4.7603 29.8814 4.5482 0.8233 0 9
4.4845 29.8872 4.5428 0.5717 0 9
4.2450 30.1465 4.5762 0.5675 0 9
3.9104 29.7143 4.5050 0.4833 0 9
3.6219 29.5882 4.4807 0.4569 0 9
3.4869 30.7917 4.6580 0.9824 0 9
3.1694 30.4478 4.6015 0.8201 0 9
2.8089 29.5809 4.4664 0.8021 0 9
2.5458 29.6574 4.4743 0.2735 0 9
2.3166 30.1886 4.5511 0.8141 0 9
2.1889 32.3582 4.8750 0.9163 0 9
1.8068 30.8504 4.6452 0.7281 0 9
1.4644 29.5848 4.4525 0.5244 0 9
1.1838 29.2770 4.4044 0.7334 0 9
0.9229 29.4114 4.4231 0.8745 0 9
0.6798 30.4409 4.5769 0.3151 0 9
0.3829 28.8218 4.3327 0.5650 0 9
0.1200 28.2959 4.2533 0.6301 0 9
-0.1384 28.8098 4.3306 0.6991 0 9
-0.4109 29.6679 4.4599 0.9609 0 9
-0.6354 27.7509 4.1725 0.5874 0 9
-0.9461 29.6172 4.4542 0.9471 0 9
-1.2131 29.5869 4.4511 0.9624 0 9
-1.4025 28.0154 4.2164 0.7371 0 9
-1.7522 29.6307 4.4617 0.4770 0 9
-2.0434 29.9556 4.5132 0.7138 0 9
-2.1453 27.7511 4.1838 0.6184 0 9
-2.5710 29.7532 4.4890 0.2234 0 9
-2.9409 30.7862 4.6487 0.1266 0 9
-3.3645 32.1468 4.8585 0.5329 0 9
-3.5556 31.2409 4.7263 0.5940 0 9
-3.9526 32.1395 4.8674 0.5004 0 9
-4.7087 33.3040 5.0559 0.5995 0 9
-5.3440 35.4794 5.3932 0.3388 0 9
-5.8245 34.4295 5.2488 0.8482 0 9
-6.4534 36.1560 5.5207 0.4953 0 9
-6.3894 34.0159 5.2025 0.8031 0 9
-6.7278 34.1142 5.2266 0.6267 0 9
-6.8839 33.3157 5.1136 0.8684 0 9
-7.2095 33.3661 5.1311 0.9296 0 9
-7.8188 34.6641 5.3414 0.5395 0 9
-8.1984 34.8746 5.3851 0.9936 0 9
-8.4793 34.6594 5.3634 0.6322 0 9
-8.6851 34.1594 5.2980 0.5416 0 9
-9.0524 34.3020 5.3326 0.4188 0 9
-9.5085 34.7534 5.4159 0.6803 0 9
-9.6151 33.9343 5.3016 0.7636 0 9
-9.9228 33.8503 5.3023 0.8385 0 9
-10.1416 33.4720 5.2572 0.8646 0 9
-10.4217 33.3083 5.2461 0.4445 0 9
-10.7752 33.3757 5.2718 0.7197 0 9
-11.0243 33.1199 5.2469 0.7596 0 9
-11.2804 32.8936 5.2270 0.8407 0 9
-11.5929 32.8341 5.2340 0.8952 0 9
-11.9297 32.8390 5.2518 0.8753 0 9
-12.2541 32.8045 5.2638 0.9106 0 9
-12.6495 32.9509 5.3054 0.7288 0 9
-13.9555 35.3929 5.7187 0.8886 0 9
-12.5115 30.9086 5.0122 0.7584 0 9
-12.6772 30.5216 4.9678 0.8142 0 9
-13.4018 31.4597 5.1400 0.5233 0 9
-15.1346 34.6549 5.6842 0.7259 0 9
-16.3123 35.5826 5.8838 0.8088 0 9
-15.0608 32.0837 5.3276 0.6339 0 9
-15.0808 31.3852 5.2340 0.4046 0 9
-15.5645 31.6553 5.3023 0.6838 0 9
-16.5513 32.9071 5.5368 0.7993 0 9
-15.6996 27.9858 4.8234 0.5626 0 9
-14.6278 25.5314 4.4230 0.6731 0 9
-14.5598 24.8882 4.3342 0.7437 0 9
-15.8680 26.5700 4.6519 0.8990 0 9
-15.0414 24.6763 4.3440 0.8087 0 9
-15.7228 25.2768 4.4745 0.7598 0 9
-15.6463 24.6540 4.3891 0.4081 0 9
-16.5214 25.5199 4.5697 0.6285 0 9
-16.4322 24.8858 4.4826 0.2253 0 9
-16.9606 25.1877 4.5644 0.5856 0 9
-17.2500 25.1239 4.5809 0.3357 0 9
-17.6291 25.1850 4.6210 0.6013 0 9
-18.3268 25.6842 4.7428 0.8327 0 9
-18.7274 25.7499 4.7860 0.4866 0 9
-16.5972 22.3923 4.1897 0.8013 0 9
-17.0071 22.5168 4.2416 0.7906 0 9
-17.4080 22.6193 4.2903 0.8033 0 9
38.3104 3.1250 4.8954 0.4046 0 5
5.3003 3.9635 0.8429 0.9518 0 5
21.0039 24.8045 4.1395 0.5562 0 9
20.5538 25.1826 4.1399 0.9617 0 9
19.6242 24.4926 3.9971 0.5326 0 9
19.0182 24.1812 3.9181 0.5773 0 9
18.8436 24.4103 3.9274 0.7971 0 9
18.7270 24.7181 3.9495 0.3594 0 9
18.5314 24.9251 3.9557 0.6450 0 9
19.3953 26.5858 4.1912 0.5010 0 9
17.8769 25.4591 3.9620 0.5595 0 9
17.1410 24.8867 3.8486 0.4147 0 9
15.5897 23.0785 3.5470 0.8754 0 9
15.5231 23.4339 3.5799 0.9015 0 9
15.5387 23.9247 3.6333 0.9646 0 9
15.2526 23.9556 3.6169 0.8544 0 9
15.1837 24.3303 3.6526 0.5569 0 9
16.2503 26.5716 3.9668 0.7791 0 9
15.4903 25.8511 3.8382 0.8410 0 9
15.2210 25.9307 3.8294 0.6152 0 9
15.1358 26.3281 3.8677 0.7591 0 9
14.9460 26.5508 3.8804 0.8237 0 9
13.7372 24.9281 3.6250 0.8986 0 9
14.0687 26.0850 3.7745 0.8163 0 9
13.8845 26.3103 3.7888 0.7340 0 9
14.0209 27.1611 3.8929 0.3810 0 9
13.9981 27.7293 3.9560 0.6782 0 9
13.3615 27.0739 3.8452 0.7371 0 9
12.4744 25.8633 3.6570 0.6960 0 9
13.3502 28.3310 3.9888 0.9977 0 9
12.9237 28.0818 3.9370 0.8828 0 9
12.8352 28.5668 3.9886 0.8370 0 9
13.3322 30.4058 4.2284 0.6921 0 9
12.0339 28.1340 3.8971 0.6097 0 9
12.4144 29.7652 4.1074 0.8656 0 9
12.0389 29.6157 4.0716 0.1757 0 9
11.2088 28.3049 3.8773 0.4258 0 9
10.6418 27.5996 3.7673 0.4932 0 9
10.8395 28.8879 3.9296 0.4828 0 9
10.9346 29.9624 4.0622 0.6999 0 9
9.6065 27.0810 3.6596 0.6089 0 9
9.4911 27.5438 3.7104 0.6902 0 9
9.3668 28.0028 3.7606 0.7948 0 9
9.2608 28.5414 3.8216 0.8179 0 9
9.0308 28.7145 3.8337 0.6169 0 9
8.6798 28.4965 3.7939 0.7886 0 9
8.4405 28.6375 3.8024 0.1879 0 9
8.0256 29.1650 3.8525 0.8549 0 9
7.7133 29.0547 3.8286 0.7174 0 9
7.4168 28.9923 3.8113 0.8165 0 9
7.1150 28.8986 3.7904 0.7510 0 9
6.7669 28.5964 3.7426 0.6145 0 9
6.4723 28.4993 3.7221 0.7539 0 9
6.1738 28.3702 3.6978 0.8425 0 9
6.3607 30.5564 3.9751 0.7248 0 9
6.1829 31.1100 4.0396 0.0773 0 9
5.9155 31.2395 4.0493 0.8773 0 9
5.6179 31.2092 4.0387 0.9851 0 9
5.2696 30.8734 3.9889 0.3525 0 9
5.1215 31.7333 4.0938 0.5488 0 9
4.7183 31.0157 3.9956 0.4430 0 9
4.4488 31.1349 4.0056 0.9493 0 9
4.3023 32.1861 4.1356 0.4728 0 9
3.9835 32.0019 4.1072 0.2990 0 9
3.6847 31.9570 4.0970 0.1081 0 9
3.4787 32.7721 4.1973 0.8079 0 9
3.1521 32.4927 4.1577 0.4224 0 9
2.8509 32.4374 4.1471 0.9182 0 9
2.3623 29.9850 3.8307 0.6240 0 9
2.0638 29.6146 3.7808 0.5368 0 9
1.8926 31.2270 3.9843 0.2426 0 9
1.6065 31.1727 3.9754 0.8612 0 9
1.3519 31.8311 4.0576 0.7358 0 9
1.0389 31.0906 3.9619 0.7841 0 9
0.7458 30.6084 3.8994 0.5298 0 9
0.4629 30.2207 3.8493 0.6428 0 9
0.1875 29.8962 3.8076 0.4201 0 9
-0.0806 29.0978 3.7059 0.6753 0 9
-0.3443 29.1396 3.7115 0.7385 0 9
-0.6193 29.6889 3.7820 0.9006 0 9
-0.8825 29.5065 3.7596 0.8484 0 9
-1.1435 29.3474 3.7405 0.4460 0 9
-1.3759 28.6501 3.6531 0.6500 0 9
-1.6329 28.6006 3.6485 0.4329 0 9
-1.9140 28.9245 3.6919 0.8399 0 9
-2.1871 29.0601 3.7115 0.6269 0 9
-2.4916 29.5346 3.7749 0.5777 0 9
-2.7396 29.3080 3.7489 0.8161 0 9
-2.9949 29.1879 3.7369 0.7649 0 9
-3.3424 29.9082 3.8328 0.2039 0 9
-3.5853 29.6506 3.8038 0.6527 0 9
-4.1843 30.0353 3.8622 0.5905 0 9
-5.4759 36.8643 4.7465 0.1880 0 9
-6.5262 35.1377 4.5516 0.9972 0 9
-6.8167 34.9392 4.5337 0.3104 0 9
-7.1165 34.7983 4.5236 0.2573 0 9
-7.3713 34.4541 4.4873 0.8289 0 9
-7.5979 34.0067 4.4378 0.7856 0 9
-7.9071 33.9452 4.4390 0.9250 0 9
-8.2568 34.0499 4.4622 0.9283 0 9
-8.2919 32.8930 4.3203 0.7770 0 9
-8.5179 32.5449 4.2845 0.7511 0 9
-8.8038 32.4366 4.2806 0.7596 0 9
-9.3320 33.1924 4.3913 0.2272 0 9
-9.5250 32.7398 4.3426 0.3610 0 9
-9.9658 33.1344 4.4067 0.6836 0 9
-10.1987 32.8296 4.3783 0.7928 0 9
-10.3210 32.1926 4.3056 0.6521 0 9
-10.6046 32.0766 4.3027 0.5047 0 9
-10.8305 31.7921 4.2775 0.7576 0 9
-11.2653 32.1141 4.3344 0.7972 0 9
-11.4436 31.7015 4.2925 0.7247 0 9
-11.7386 31.6206 4.2957 0.7980 0 9
-12.0872 31.6785 4.3183 0.2220 0 9
-12.7613 32.5582 4.4537 0.5980 0 9
-13.1809 32.7537 4.4966 0.2896 0 9
-12.6356 30.5968 4.2160 0.7557 0 9
-12.8822 30.4113 4.2063 0.7422 0 9
-14.1700 32.6269 4.5303 0.6864 0 9
-13.7972 30.9983 4.3213 0.8776 0 9
-15.1384 33.2000 4.6471 0.4487 0 9
-15.4884 33.1696 4.6623 0.2567 0 9
-15.0467 27.5322 3.9960 0.1405 0 9
-16.5378 29.0016 4.2519 0.1712 0 9
-17.1807 29.5057 4.3485 0.2277 0 9
-18.4589 31.0517 4.6007 0.5308 0 9
-15.7899 26.0231 3.8767 0.4288 0 9
-15.7166 25.3819 3.8022 0.6385 0 9
-15.9517 25.2486 3.8037 0.5720 0 9
-15.5358 24.1047 3.6523 0.5860 0 9
-15.8856 24.1647 3.6830 0.7226 0 9
-15.7070 23.4286 3.5924 0.6110 0 9
-16.3252 23.8811 3.6842 0.7375 0 9
-16.4811 23.6471 3.6710 0.8592 0 9
-16.6712 23.4646 3.6659 0.7320 0 9
-16.9418 23.3945 3.6787 0.6911 0 9
-17.0986 23.1671 3.6671 0.7157 0 9
-20.2137 26.8757 4.2829 0.9320 0 9
-18.0163 23.5084 3.7721 0.9362 0 9
-17.1488 21.9622 3.5488 0.5343 0 9
-17.3621 21.8255 3.5519 0.5513 0 9
-18.1049 22.3416 3.6624 0.3462 0 9
-18.6771 22.6263 3.7366 0.9130 0 9
-19.1137 22.7332 3.7827 0.8415 0 9
-19.0647 22.2631 3.7330 0.3967 0 9
-19.5766 22.4468 3.7933 0.3971 0 9
-19.8966 22.4015 3.8159 0.4399 0 9
-20.3763 22.5280 3.8687 0.8549 0 9
-20.6224 22.3896 3.8768 0.3947 0 9
-23.5628 25.1223 4.3867 0.3709 0 9
-22.7424 23.8122 4.1936 0.7162 0 9
-22.9369 23.5852 4.1900 0.7167 0 9
-25.1370 3.2892 3.2287 0.2481 0 9
-24.9478 3.0353 3.2008 0.6568 0 9
-25.9341 2.9175 3.3238 0.1046 0 9
-26.2889 2.7169 3.3660 0.5452 0 9
-25.2214 2.3763 3.2264 0.5562 0 9
-26.2646 2.2351 3.3571 0.5826 0 9
-25.1575 1.9119 3.2133 0.5584 0 9
-25.6881 1.7188 3.2789 0.5891 0 9
-25.2730 1.4615 3.2241 0.2835 0 9
-24.8545 1.2119 3.1692 0.5011 0 9
-25.0000 0.9925 3.1865 0.3093 0 9
-24.5105 0.7511 3.1231 0.6802 0 9
-24.5761 0.3084 3.1302 0.3986 0 9
-24.5896 0.0862 3.1317 0.6805 0 9
-24.7712 -0.1372 3.1549 0.8384 0 9
-24.8132 -0.3618 3.1605 0.4608 0 9
-24.6776 -0.5831 3.1438 0.3385 0 9
-25.1927 -0.8233 3.2102 0.7257 0 9
-25.8504 -1.0789 3.2951 0.4694 0 9
-24.3330 -1.2361 3.1030 0.4343 0 9
-24.3686 -1.4590 3.1091 0.9136 0 9
-24.3358 -1.6780 3.1067 0.6732 0 9
-24.2644 -1.8937 3.0997 0.7370 0 9
-24.8586 -2.1664 3.1780 0.8143 0 9
-24.7786 -2.3854 3.1704 0.7509 0 9
-25.3086 -2.6676 3.2411 0.8988 0 9
-24.5530 -3.0379 3.1509 0.8766 0 9
-24.0880 -3.2018 3.0948 0.7339 0 9
-24.0786 -3.4224 3.0974 0.7339 0 9
-24.6859 -3.7368 3.1798 0.8998 0 9
-18.5664 -2.9825 2.3949 0.7143 0 5
-25.9549 -4.4105 3.3530 0.4377 0 9
-24.9863 -4.4787 3.2329 0.8770 0 9
-25.7214 -4.8510 3.3336 0.9433 0 9
-28.6458 -5.6713 3.7191 0.6587 0 9
-28.7830 -5.9694 3.7438 0.7326 0 9
-8.7186 -5.6535 1.3234 0.5435 0 9
-8.5590 -5.6606 1.3069 0.9810 0 9
-8.4956 -5.7298 1.3051 0.9824 0 9
-8.4544 -5.8140 1.3068 0.8603 0 9
-8.4464 -5.9216 1.3138 0.8557 0 9
-18.1898 -16.5443 3.1315 0.9743 0 5
-2.0190 -7.2378 0.9570 0.9234 0 5
1.1540 -21.5393 2.7472 0.9880 0 5
9.8088 -27.4740 3.7154 0.5456 0 5
5.3043 -9.5792 1.3945 0.6746 0 9
5.3478 -9.4551 1.3835 0.9677 0 9
5.4275 -9.3966 1.3820 0.9681 0 9
5.5306 -9.3783 1.3866 0.8366 0 9
5.6465 -9.3799 1.3944 0.1984 0 9
29.3783 -25.3745 4.9440 0.6588 0 5
17.2579 -12.1371 2.6871 0.3499 0 12
5.3573 3.9479 0.8475 0.4704 0 5
5.2936 3.9754 0.8431 0.8681 0 5
20.9431 24.8349 4.1375 0.5565 0 9
20.5026 25.2245 4.1399 0.9617 0 9
18.9715 24.2230 3.9186 0.8751 0 9
18.7498 24.3911 3.9182 0.4466 0 9
19.4186 25.7396 4.1064 0.3906 0 9
18.4565 24.9301 3.9505 0.6458 0 9
19.3199 26.5959 4.1866 0.5016 0 9
18.0014 25.2582 3.9502 0.0895 0 9
17.8026 25.4632 3.9570 0.5602 0 9
15.9773 23.2984 3.5980 0.9711 0 9
15.5625 23.1394 3.5515 0.7680 0 9
15.4848 23.4798 3.5821 0.9010 0 9
15.4955 23.9646 3.6346 0.9640 0 9
15.2081 23.9933 3.6179 0.8542 0 9
15.1339 24.3606 3.6525 0.5569 0 9
16.1781 26.5746 3.9624 0.7800 0 9
15.4458 25.8962 3.8402 0.8406 0 9
15.1820 25.9853 3.8329 0.5952 0 9
15.0790 26.3532 3.8669 0.7595 0 9
14.8378 26.4845 3.8663 0.6952 0 9
13.6926 24.9672 3.6266 0.8982 0 9
14.0223 26.1261 3.7764 0.7374 0 9
13.8525 26.3794 3.7947 0.2227 0 9
13.9415 27.1424 3.8862 0.7038 0 9
13.5356 26.9491 3.8408 0.9969 0 9
14.1721 28.8644 4.0953 0.8147 0 9
12.4435 25.9340 3.6635 0.6948 0 9
13.2921 28.3571 3.9886 0.9977 0 9
12.8768 28.1304 3.9402 0.7016 0 9
12.7366 28.5023 3.9760 0.1448 0 9
11.9833 28.1739 3.8993 0.6093 0 9
12.3418 29.7611 4.1033 0.7656 0 9
11.4266 28.2741 3.8839 0.5525 0 9
11.2350 28.5404 3.9064 0.3092 0 9
10.5738 27.5903 3.7631 0.4938 0 9
10.8010 28.9643 3.9370 0.4819 0 9
10.8584 29.9424 4.0565 0.7009 0 9
9.5419 27.0736 3.6560 0.6095 0 9
9.4315 27.5527 3.7090 0.6905 0 9
9.3036 28.0030 3.7581 0.7954 0 9
9.2084 28.5776 3.8239 0.8174 0 9
8.6178 28.5006 3.7921 0.7890 0 9
8.4132 28.7602 3.8164 0.1872 0 9
7.9568 29.1462 3.8479 0.8560 0 9
7.6394 29.0140 3.8211 0.7188 0 9
7.3495 28.9745 3.8070 0.8174 0 9
6.9969 28.6702 3.7586 0.6097 0 9
6.7006 28.5753 3.7380 0.6153 0 9
6.4039 28.4658 3.7160 0.7552 0 9
6.1169 28.3868 3.6983 0.5694 0 9
6.2947 30.5507 3.9726 0.7252 0 9
5.8484 31.2323 4.0469 0.8778 0 9
5.5645 31.2772 4.0460 0.6145 0 9
5.3976 32.0156 4.1350 0.5224 0 9
5.0629 31.7810 4.0986 0.5481 0 9
4.6646 31.0878 4.0036 0.4421 0 9
4.4016 31.2584 4.0203 0.0663 0 9
4.2381 32.2038 4.1368 0.4727 0 9
3.9406 32.1918 4.1305 0.8300 0 9
3.6206 31.9721 4.0980 0.1081 0 9
3.4205 32.8602 4.2077 0.4212 0 9
3.0690 32.3200 4.1348 0.0306 0 9
2.7107 31.5786 4.0366 0.7850 0 9
2.2863 29.7940 3.8057 0.1222 0 9
2.0049 29.6373 3.7832 0.5365 0 9
1.8283 31.2174 3.9826 0.8398 0 9
1.5898 32.1195 4.0957 0.3584 0 9
1.2629 31.2334 3.9811 0.7909 0 9
1.0070 32.0902 4.0890 0.2326 0 9
0.6722 30.1033 3.8349 0.9742 0 9
0.4007 30.1632 3.8419 0.6441 0 9
0.1265 29.8481 3.8015 0.7835 0 9
-0.1396 29.0506 3.6999 0.6764 0 9
-0.4052 29.2564 3.7264 0.8885 0 9
-0.6794 29.6731 3.7801 0.9011 0 9
-0.9428 29.5128 3.7606 0.8503 0 9
-1.2021 29.3191 3.7372 0.4464 0 9
-1.4336 28.6353 3.6515 0.6503 0 9
-1.6920 28.6135 3.6506 0.4327 0 9
-1.9738 28.9347 3.6937 0.8395 0 9
-2.2434 29.0205 3.7071 0.6277 0 9
-2.5550 29.5685 3.7798 0.5770 0 9
-2.8605 29.9438 3.8310 0.6839 0 9
-3.0589 29.2261 3.7425 0.5335 0 9
-3.7862 33.2671 4.2642 0.7746 0 9
-3.6531 29.7037 3.8115 0.6513 0 9
-3.9707 30.0416 3.8594 0.9003 0 9
-6.5024 36.4305 4.7131 0.6071 0 9
-6.6198 35.2428 4.5670 0.3176 0 9
-6.8587 34.7780 4.5146 0.3117 0 9
-7.1578 34.6410 4.5050 0.7974 0 9
-7.4453 34.4572 4.4897 0.7691 0 9
-7.6596 33.9582 4.4335 0.8820 0 9
-8.0766 34.3564 4.4949 0.4264 0 9
-8.1027 33.1203 4.3426 0.1019 0 9
-8.3103 32.6852 4.2952 0.7419 0 9
-8.5826 32.5218 4.2838 0.4974 0 9
-9.1282 33.3635 4.4053 0.2143 0 9
-9.3675 33.0605 4.3763 0.4172 0 9
-9.5727 32.6558 4.3340 0.5425 0 9
-10.2321 33.7708 4.4941 0.6212 0 9
-10.2530 32.7690 4.3729 0.8896 0 9
-10.4190 32.2724 4.3191 0.8607 0 9
-10.6127 31.8833 4.2797 0.7572 0 9
-10.9065 31.8034 4.2820 0.2308 0 9
-11.3207 32.0632 4.3306 0.2153 0 9
-11.5112 31.6870 4.2937 0.7245 0 9
-11.8103 31.6164 4.2984 0.7975 0 9
-12.2197 31.8312 4.3424 0.5038 0 9
-12.8278 32.5329 4.4538 0.5980 0 9
-13.2367 32.7003 4.4929 0.7650 0 9
-12.6793 30.5265 4.2099 0.7568 0 9
-12.9508 30.4012 4.2086 0.7418 0 9
-14.0620 32.1987 4.4748 0.8141 0 9
-13.8683 30.9882 4.3238 0.7484 0 9
-15.2615 33.2905 4.6641 0.4353 0 9
-16.7649 29.2614 4.2950 0.2071 0 9
-16.9214 28.9250 4.2679 0.7739 0 9
-17.1699 28.7501 4.2649 0.2721 0 9
-15.8558 26.0124 3.8799 0.5225 0 9
-15.7484 25.3180 3.7974 0.6450 0 9
-15.9758 25.1733 3.7972 0.5729 0 9
-15.5622 24.0383 3.6471 0.5890 0 9
-16.3057 24.6942 3.7688 0.3432 0 9
-15.7346 23.3670 3.5878 0.6137 0 9
-16.3624 23.8313 3.6817 0.7380 0 9
-16.5235 23.6055 3.6697 0.8594 0 9
-16.7515 23.4765 3.6731 0.5835 0 9
-17.0694 23.4701 3.6961 0.7794 0 9
-17.1277 23.1080 3.6633 0.4783 0 9
-17.8009 23.5678 3.7615 0.8407 0 9
-18.0695 23.4788 3.7733 0.9359 0 9
5.2997 3.9631 0.6918 0.9544 0 5
20.2566 25.2818 3.3865 0.4460 0 9
21.1897 27.9687 3.6681 0.7284 0 9
17.0574 23.8309 3.0636 0.5958 0 9
16.7218 23.8141 3.0418 0.6051 0 9
16.4827 23.9309 3.0376 0.7069 0 9
16.3085 24.1425 3.0456 0.8298 0 9
16.2199 24.4859 3.0703 0.8136 0 9
15.9708 24.5900 3.0651 0.7932 0 9
15.8460 24.8877 3.0842 0.9072 0 9
15.6163 25.0235 3.0834 0.9202 0 9
14.8597 24.2976 2.9773 0.6824 0 9
14.7642 24.6393 3.0027 0.5035 0 9
14.5092 24.7182 2.9962 0.9851 0 9
14.3779 25.0098 3.0156 0.8737 0 9
14.3149 25.4297 3.0505 0.9699 0 9
14.0176 25.4370 3.0361 0.6281 0 9
13.7927 25.5733 3.0373 0.4843 0 9
13.5893 25.7509 3.0437 0.6130 0 9
13.3387 25.8395 3.0398 0.7994 0 9
13.2929 26.3322 3.0835 0.7789 0 9
13.0708 26.4850 3.0874 0.7354 0 9
14.4048 29.8656 3.4662 0.5743 0 9
14.2012 30.1369 3.4826 0.6876 0 9
14.2207 30.9000 3.5558 0.5669 0 9
12.1522 31.5168 3.5310 0.3244 0 9
10.2733 30.7130 3.3854 0.4293 0 9
10.3154 31.7917 3.4939 0.5711 0 9
9.9856 31.7505 3.4793 0.7232 0 9
8.3920 30.4963 3.3064 0.9647 0 9
8.1106 30.5513 3.3043 0.8692 0 9
7.7834 30.4254 3.2829 0.5956 0 9
8.2059 33.3297 3.5882 0.7730 0 9
7.3766 31.1731 3.3487 0.8837 0 9
7.1349 31.4169 3.3678 0.6756 0 9
7.3868 33.9445 3.6314 0.2753 0 9
7.0212 33.7297 3.6015 0.2680 0 9
5.9834 31.5984 3.3618 0.6309 0 9
5.6569 31.4261 3.3379 0.6129 0 9
5.3446 31.3124 3.3206 0.6161 0 9
5.1120 31.6741 3.3539 0.5402 0 9
4.9215 32.3517 3.4208 0.6882 0 9
4.6644 32.6440 3.4471 0.5046 0 9
4.3987 32.9073 3.4706 0.6343 0 9
4.1021 32.9554 3.4716 0.2644 0 9
3.8756 33.6128 3.5370 0.7140 0 9
3.1760 32.7388 3.4384 0.9665 0 5
2.6180 33.2299 3.4845 0.7561 0 9
2.2999 33.0025 3.4583 0.7695 0 9
1.9882 32.8045 3.4355 0.6254 0 9
1.6515 32.0460 3.3544 0.7667 0 9
1.0517 31.4717 3.2917 0.6377 0 9
0.7427 30.4841 3.1876 0.6670 0 9
0.4642 30.3033 3.1681 0.7942 0 9
0.1900 30.2965 3.1671 0.7928 0 9
-0.0840 30.3349 3.1711 0.4465 0 9
-0.3592 30.3992 3.1780 0.8615 0 9
-0.6367 30.5230 3.1914 0.3672 0 9
-0.8619 28.8180 3.0138 0.6081 0 9
-1.1905 30.5539 3.1964 0.9848 0 9
-1.4213 29.5956 3.0973 0.7699 0 9
-1.6994 29.7645 3.1165 0.9854 0 9
-1.9829 29.9655 3.1393 0.9177 0 9
-2.2555 29.9695 3.1417 0.7393 0 9
-2.5397 30.1046 3.1582 0.6405 0 9
-2.8186 30.1537 3.1659 0.7871 0 9
-3.1073 30.2839 3.1823 0.5864 0 9
-3.3800 30.2448 3.1813 0.6983 0 9
-3.6992 30.5919 3.2212 0.6720 0 9
-4.1620 31.9891 3.3722 0.8008 0 9
-4.5174 32.4265 3.4224 0.3184 0 9
-4.9722 33.4731 3.5375 0.8057 0 9
-7.2752 35.5746 3.7958 0.6531 0 9
-7.6698 35.8492 3.8323 0.5334 0 9
-7.9085 35.3969 3.7914 0.5412 0 9
-8.5493 36.7021 3.9394 0.6908 0 9
-8.4607 34.8905 3.7530 0.3927 0 9
-8.7054 34.5332 3.7229 0.5317 0 9
-8.8796 33.9266 3.6660 0.0122 0 9
-9.0490 33.3402 3.6113 0.6618 0 9
-9.2650 32.9542 3.5784 0.7042 0 9
-10.4438 35.8976 3.9081 0.6972 0 9
-10.4246 33.5568 3.6732 0.6268 0 9
-10.7082 33.4004 3.6666 0.8912 0 9
-10.9886 33.2380 3.6595 0.9204 0 9
-11.1755 32.8049 3.6228 0.7153 0 9
-11.2156 31.9724 3.5419 0.6970 0 9
-11.2891 31.2737 3.4757 0.3812 0 9
-11.8087 31.8092 3.5469 0.7609 0 9
-12.1477 31.8369 3.5621 0.6351 0 9
-12.5058 31.9062 3.5824 0.8964 0 9
-13.2128 31.9945 3.6185 0.9343 0 9
-13.2707 31.3286 3.5566 0.2329 0 9
-15.4395 35.5499 4.0516 0.6515 0 9
-14.0600 31.5885 3.6144 0.9579 0 9
-14.2249 31.1966 3.5842 0.9070 0 9
-14.9496 31.2748 3.6236 0.9005 0 9
-15.8651 32.4328 3.7743 0.4169 0 9
-18.2724 28.3507 3.5259 0.6229 0 9
-18.4675 28.0922 3.5143 0.1355 0 9
-16.6089 24.7739 3.1179 0.5998 0 9
-16.7997 24.5752 3.1119 0.6010 0 9
-16.6391 23.8739 3.0420 0.5077 0 9
-17.0731 24.0303 3.0815 0.7184 0 9
-16.9526 23.4094 3.0214 0.5756 0 9
-17.0736 23.1332 3.0056 0.4844 0 9
-17.3240 23.0335 3.0128 0.4884 0 9
-18.5142 24.1581 3.1817 0.5482 0 9
-18.5476 23.7536 3.1504 0.6681 0 9
-18.7371 23.5540 3.1463 0.3525 0 9
-19.2510 23.7559 3.1964 0.6486 0 9
-19.7001 23.8656 3.2350 0.3944 0 9
-19.9377 23.7134 3.2386 0.0173 0 9
-20.0369 23.3985 3.2202 0.7720 0 9
-20.4499 23.4481 3.2524 0.7778 0 9
-20.6621 23.2633 3.2525 0.8380 0 9
-20.8833 23.0885 3.2544 0.8452 0 9
-21.4110 23.2459 3.3037 0.3645 0 9
-24.9167 25.1616 3.7017 0.8003 0 9
-25.1693 2.1419 2.6406 0.2492 0 9
-25.8772 1.7314 2.7111 0.2892 0 9
-26.0221 1.2689 2.7235 0.3644 0 9
-26.2977 1.0440 2.7512 0.8377 0 9
-26.3170 0.8065 2.7523 0.5550 0 9
-25.8256 0.5577 2.7003 0.4243 0 9
-25.9513 0.3257 2.7130 0.1740 0 9
-27.6647 0.0969 2.8919 0.5938 0 9
-27.0102 -0.1496 2.8236 0.7850 0 9
-29.4350 -0.4293 3.0773 0.7106 0 9
-28.3837 -0.6707 2.9679 0.5784 0 9
-25.3166 -0.8274 2.6479 0.8362 0 9
-25.0356 -1.0449 2.6194 0.6546 0 9
-24.9907 -1.2695 2.6158 0.6526 0 9
-25.1525 -1.5059 2.6340 0.6189 0 9
-25.6412 -1.7680 2.6868 0.5685 0 9
-25.5971 -1.9977 2.6839 0.7891 0 9
-25.6866 -2.2386 2.6953 0.9136 0 9
-24.4533 -2.3541 2.5680 0.6068 0 9
-26.2929 -2.7714 2.7638 0.4825 0 9
-23.9448 -2.7431 2.5194 0.6605 0 9
-24.0066 -2.9703 2.5287 0.5631 0 9
-25.1819 -3.3472 2.6555 0.9539 0 9
-25.9527 -3.6888 2.7402 0.4911 0 9
-26.7069 -4.0427 2.8236 0.9461 0 9
-18.5647 -2.9822 1.9655 0.7162 0 5
-26.1950 -4.4513 2.7776 0.2376 0 9
-26.7601 -4.7967 2.8420 0.6133 0 9
-8.6955 -5.6385 1.0834 0.5464 0 9
-8.5612 -5.6620 1.0730 0.9833 0 9
-8.4969 -5.7306 1.0714 0.9798 0 9
-8.4645 -5.8208 1.0739 0.8615 0 9
-8.4562 -5.9285 1.0796 0.8592 0 9
-18.1888 -16.5434 2.5702 0.9769 0 5
-2.0189 -7.2374 0.7854 0.9260 0 5
1.1540 -21.5382 2.2547 0.9906 0 5
9.8079 -27.4714 3.0493 0.5471 0 5
5.2827 -9.5403 1.1400 0.6791 0 9
5.3353 -9.4330 1.1329 0.9734 0 9
5.4149 -9.3748 1.1317 0.9735 0 9
5.5198 -9.3600 1.1359 0.8517 0 9
5.6520 -9.3890 1.1456 0.2218 0 9
17.2579 -12.1371 2.2055 0.3508 0 12
5.3560 3.9470 0.6955 0.4718 0 5
5.2930 3.9749 0.6920 0.8705 0 5
18.7532 23.9443 3.1793 0.3948 0 9
20.6960 26.9229 3.5498 0.3576 0 9
20.2842 26.8870 3.5208 0.4417 0 9
20.4931 28.2109 3.6450 0.1165 0 9
16.9818 23.8275 3.0587 0.5967 0 9
16.6547 23.8214 3.0384 0.6058 0 9
16.4529 23.9919 3.0411 0.7061 0 9
16.2644 24.1831 3.0465 0.8295 0 9
16.1796 24.5332 3.0721 0.8131 0 9
16.0294 24.7905 3.0860 0.1996 0 9
15.8010 24.9287 3.0853 0.9069 0 9
15.5611 25.0482 3.0826 0.9204 0 9
14.7941 24.3012 2.9740 0.6832 0 9
14.6986 24.6435 2.9995 0.9815 0 9
14.4105 24.6647 2.9861 0.5372 0 9
14.4197 25.2010 3.0352 0.5691 0 9
13.9881 24.9678 2.9917 0.5839 0 9
13.9897 25.5090 3.0413 0.6271 0 9
13.7606 25.6384 3.0417 0.4836 0 9
13.6919 26.0736 3.0786 0.6272 0 9
13.2795 25.8537 3.0383 0.8022 0 9
13.2286 26.3378 3.0810 0.7795 0 9
13.0365 26.5513 3.0921 0.5303 0 9
13.0168 27.1287 3.1454 0.0742 0 9
14.0430 29.9590 3.4587 0.3671 0 9
12.0723 31.5003 3.5264 0.3248 0 9
10.4930 30.6538 3.3869 0.4287 0 9
9.8655 30.6171 3.3626 0.4194 0 9
9.9156 31.7533 3.4774 0.7236 0 9
8.6300 30.5232 3.3158 0.5201 0 9
8.3269 30.5022 3.3052 0.9676 0 9
8.0226 30.4693 3.2937 0.5809 0 9
7.7342 30.4914 3.2884 0.8583 0 9
7.5792 31.0561 3.3417 0.5430 0 9
7.3200 31.2170 3.3518 0.8829 0 9
7.3568 34.1406 3.6508 0.2731 0 9
5.5864 31.4005 3.3340 0.6136 0 9
5.3023 31.4501 3.3340 0.1484 0 9
5.0586 31.7537 3.3612 0.5258 0 9
4.8611 32.3971 3.4245 0.6875 0 9
4.3417 32.9912 3.4785 0.6329 0 9
4.0994 33.4892 3.5269 0.7297 0 9
3.8107 33.6510 3.5402 0.7134 0 9
2.5509 33.2416 3.4851 0.2736 0 9
1.8876 32.2299 3.3749 0.3589 0 9
1.3934 34.4612 3.6053 0.2063 0 9
0.9860 31.4222 3.2863 0.6387 0 9
0.6797 30.4388 3.1827 0.6850 0 9
0.4021 30.2710 3.1647 0.7951 0 9
0.1280 30.1907 3.1560 0.8459 0 9
-0.1462 30.4308 3.1811 0.6303 0 9
-0.4211 30.4083 3.1790 0.8613 0 9
-0.7015 30.6404 3.2038 0.3580 0 9
-0.9211 28.8335 3.0157 0.6077 0 9
-1.1891 29.0019 3.0343 0.6236 0 9
-1.4987 29.9368 3.1334 0.6260 0 9
-1.7584 29.7355 3.1138 0.5592 0 9
-2.0433 29.9544 3.1386 0.9179 0 9
-2.3185 29.9918 3.1446 0.7386 0 9
-2.6055 30.1534 3.1638 0.6393 0 9
-2.8815 30.1638 3.1675 0.8032 0 9
-3.1689 30.2779 3.1824 0.8868 0 9
-3.4433 30.2537 3.1830 0.5565 0 9
-3.7684 30.6414 3.2272 0.6708 0 9
-4.2565 32.2040 3.3957 0.8988 0 9
-4.5567 32.2285 3.4025 0.7418 0 9
-5.0438 33.4863 3.5400 0.8052 0 9
-7.0126 35.5582 3.7887 0.6543 0 9
-7.3566 35.6034 3.8004 0.5258 0 9
-7.7030 35.6498 3.8126 0.1361 0 9
-7.9843 35.3979 3.7933 0.5379 0 9
-8.6072 36.6136 3.9317 0.6633 0 9
-8.5516 34.9551 3.7618 0.5847 0 9
-8.7700 34.4931 3.7205 0.5320 0 9
-9.1009 33.2638 3.6050 0.6630 0 9
-9.3259 32.9136 3.5761 0.7127 0 9
-10.4817 35.7566 3.8951 0.6499 0 9
-10.4768 33.4842 3.6676 0.7453 0 9
-10.7711 33.3630 3.6649 0.8849 0 9
-11.0571 33.2183 3.6598 0.9204 0 9
-10.9946 32.0603 3.5430 0.6968 0 9
-11.1018 31.4431 3.4858 0.2551 0 9
-11.3532 31.2520 3.4758 0.3812 0 9
-11.8593 31.7475 3.5427 0.7618 0 9
-12.1583 31.6713 3.5463 0.6071 0 9
-12.4564 31.5908 3.5498 0.5688 0 9
-13.3010 32.0232 3.6248 0.4353 0 9
-13.5909 31.9038 3.6251 0.8379 0 9
-13.8820 31.7866 3.6259 0.7198 0 9
-14.1197 31.5499 3.6133 0.7545 0 9
-14.2804 31.1503 3.5822 0.9075 0 9
-15.5152 33.0514 3.8168 0.4822 0 9
-15.5977 32.4609 3.7647 0.6527 0 9
-15.9720 32.4840 3.7840 0.4093 0 9
-17.8479 29.2806 3.5847 0.2749 0 9
-18.3073 28.2785 3.5215 0.6236 0 9
-18.4917 28.0048 3.5081 0.1358 0 9
-16.6519 24.7292 3.1165 0.6001 0 9
-16.8149 24.4903 3.1054 0.5254 0 9
-16.6639 23.8061 3.0377 0.5084 0 9
-17.1211 23.9944 3.0813 0.7184 0 9
-17.0052 23.3818 3.0223 0.5754 0 9
-17.1294 23.1104 3.0071 0.4842 0 9
-18.2819 24.2045 3.1709 0.5001 0 9
-18.8985 24.5560 3.2392 0.6681 0 9
5.2991 3.9627 0.5414 0.9565 0 5
19.6495 24.9839 2.6006 0.5456 0 9
19.3484 25.0641 2.5906 0.7797 0 9
19.1790 25.3148 2.5985 0.9754 0 9
18.1602 24.4259 2.4903 0.4924 0 9
17.8637 24.4864 2.4799 0.8007 0 9
17.6601 24.6729 2.4825 0.3355 0 9
19.9265 28.3782 2.8371 0.2487 0 9
17.8632 25.9353 2.5766 0.6723 0 9
17.0166 25.6885 2.5211 0.7950 0 9
16.7906 25.8522 2.5222 0.8348 0 9
19.7046 30.9479 3.0018 0.6997 0 9
16.4811 26.4094 2.5470 0.9093 0 9
16.1640 26.4303 2.5348 0.7985 0 9
16.7501 27.9536 2.6663 0.8231 0 9
15.2982 26.0622 2.4726 0.5197 0 9
14.9772 26.0522 2.4587 0.3004 0 9
14.9805 26.6121 2.4986 0.5065 0 9
14.7112 26.6956 2.4939 0.5331 0 9
14.3327 26.5745 2.4704 0.5779 0 9
15.2906 28.9747 2.6805 0.5486 0 9
15.0018 29.7175 2.7237 0.8569 0 9
10.8923 31.6102 2.7355 0.4984 0 9
10.2331 31.5379 2.7128 0.4307 0 9
9.7266 31.9331 2.7312 0.3636 0 9
9.5980 33.6849 2.8657 0.3888 0 9
8.1140 30.5639 2.5873 0.5994 0 9
7.7944 30.4683 2.5731 0.9621 0 9
3.1759 32.7371 2.6911 0.9686 0 5
2.7907 31.7519 2.6079 0.5735 0 9
2.4114 30.6075 2.5120 0.6429 0 9
2.1285 30.5429 2.5050 0.6237 0 9
1.8447 30.4361 2.4948 0.6270 0 9
1.5454 29.9863 2.4567 0.7995 0 9
1.2882 30.3296 2.4838 0.6163 0 9
1.0158 30.3980 2.4885 0.8812 0 9
0.7238 29.7059 2.4312 0.3067 0 9
0.4547 29.6821 2.4288 0.4490 0 9
0.1860 29.6503 2.4260 0.7275 0 9
-0.0824 29.7480 2.4339 0.7795 0 9
-0.3522 29.8095 2.4391 0.3988 0 9
-0.6259 30.0053 2.4555 0.7240 0 9
-0.9322 31.1651 2.5510 0.9016 0 9
-1.2037 30.8934 2.5296 0.4392 0 9
-1.5178 31.6039 2.5888 0.7178 0 9
-1.8699 32.7514 2.6840 0.5395 0 9
-2.0430 30.8743 2.5316 0.7947 0 9
-2.3201 30.8280 2.5294 0.8261 0 9
-2.6336 31.2186 2.5633 0.8256 0 9
-2.9136 31.1697 2.5614 0.9528 0 9
-3.2071 31.2561 2.5707 0.6905 0 9
-3.5385 31.6636 2.6068 0.3298 0 9
-3.9565 32.7203 2.6966 0.5800 0 9
-4.2368 32.5640 2.6868 0.7699 0 9
-4.6429 33.3269 2.7531 0.6361 0 9
-4.8424 32.5992 2.6965 0.7857 0 9
-5.1506 32.6403 2.7036 0.2049 0 9
-7.8721 36.7949 3.0786 0.5884 0 9
-8.1686 36.5611 3.0651 0.3492 0 9
-8.4929 36.4599 3.0629 0.4381 0 9
-9.5557 36.5100 3.0878 0.3134 0 9
-9.5024 35.0106 2.9681 0.5002 0 9
-9.9712 34.2734 2.9205 0.8307 0 9
-10.3104 34.2804 2.9289 0.5237 0 9
-10.7306 34.5417 2.9594 0.7179 0 9
-11.4482 35.7084 3.0681 0.8609 0 9
-11.8124 35.7298 3.0790 0.3893 0 9
-11.7727 34.5580 2.9870 0.2486 0 9
-12.5057 35.6501 3.0911 0.7456 0 9
-12.1776 33.7351 2.9345 0.4344 0 9
-12.6102 33.9682 2.9645 0.6929 0 9
-12.5922 33.0020 2.8900 0.7414 0 9
-12.7868 32.6232 2.8669 0.7022 0 9
-12.9844 32.2652 2.8456 0.5452 0 9
-13.4741 32.6272 2.8882 0.7264 0 9
-13.6736 32.2797 2.8682 0.4248 0 9
-14.1937 32.6814 2.9152 0.7996 0 9
-14.4053 32.3644 2.8984 0.6867 0 9
-14.7216 32.2858 2.9032 0.6518 0 9
-16.0149 33.5034 3.0383 0.4306 0 9
-17.8128 25.0715 2.5163 0.1662 0 9
-18.3000 25.2701 2.5528 0.2691 0 9
-19.8328 26.3692 2.6996 0.4332 0 9
-20.5884 26.8646 2.7693 0.6166 0 9
-20.9122 26.7820 2.7801 0.5708 0 9
-21.0090 26.4100 2.7611 0.9699 0 9
-20.3464 25.1076 2.6441 0.2445 0 9
-20.7259 25.1084 2.6638 0.7416 0 9
-20.6611 24.5737 2.6268 0.5350 0 9
-20.9348 24.4470 2.6334 0.5207 0 9
-21.2944 24.4165 2.6507 0.5453 0 9
-21.8734 24.6271 2.6950 0.6582 0 9
-22.2753 24.6274 2.7169 0.1519 0 9
-21.6456 23.5006 2.6141 0.6062 0 9
-22.6286 24.1263 2.7064 0.8820 0 9
-22.0899 23.1291 2.6168 0.5938 0 9
-22.2680 22.8973 2.6133 0.5947 0 9
-27.7445 -0.9067 2.2712 0.9766 0 9
-27.9282 -1.1656 2.2870 0.3915 0 9
-27.1499 -2.6137 2.2316 0.3756 0 9
-26.3680 -3.0206 2.1715 0.5895 0 9
-26.3148 -3.2559 2.1694 0.4290 0 9
-26.2670 -3.4914 2.1680 0.5650 0 9
-26.4033 -3.7529 2.1820 0.5012 0 9
-25.8877 -3.9187 2.1422 0.7974 0 9
-18.5631 -2.9819 1.5383 0.7178 0 5
-8.6690 -5.6213 0.8453 0.5264 0 9
-8.5625 -5.6629 0.8399 0.9802 0 9
-8.4971 -5.7308 0.8386 0.9818 0 9
-8.4742 -5.8276 0.8415 0.8646 0 9
-8.4827 -5.9471 0.8476 0.1803 0 9
-18.1878 -16.5426 2.0116 0.9790 0 5
-2.0188 -7.2370 0.6147 0.9279 0 5
1.1539 -21.5370 1.7646 0.9927 0 5
9.8069 -27.4688 2.3864 0.5483 0 5
5.2718 -9.5206 0.8904 0.6950 0 9
5.3235 -9.4121 0.8847 0.9776 0 9
5.4021 -9.3526 0.8837 0.9714 0 9
5.5056 -9.3358 0.8868 0.8493 0 9
5.6214 -9.3382 0.8918 0.2083 0 9
34.7895 -16.4249 3.1477 0.5539 0 5
5.3548 3.9461 0.5442 0.4729 0 5
5.2923 3.9744 0.5415 0.8724 0 5
19.5488 24.9601 2.5940 0.5474 0 9
19.3007 25.1078 2.5911 0.7796 0 9
18.5282 24.5594 2.5171 0.0741 0 9
18.0635 24.3993 2.4838 0.5435 0 9
17.7951 24.4969 2.4773 0.7903 0 9
17.6280 24.7343 2.4851 0.3311 0 9
17.8286 25.9981 2.5792 0.6716 0 9
19.3135 28.7168 2.8315 0.4830 0 9
17.0044 25.7838 2.5270 0.6415 0 9
16.7322 25.8772 2.5213 0.8350 0 9
19.0333 30.0283 2.9088 0.0445 0 9
16.4131 26.4198 2.5448 0.9100 0 9
16.1092 26.4616 2.5347 0.6547 0 9
15.4185 25.8504 2.4627 0.5225 0 9
15.2550 26.1102 2.4742 0.6529 0 9
15.0259 26.2605 2.4754 0.6472 0 9
14.9528 26.6898 2.5031 0.5056 0 9
14.6915 26.7885 2.4998 0.0916 0 9
14.2638 26.5759 2.4678 0.4586 0 9
15.1068 28.7680 2.6585 0.4168 0 9
14.9704 29.8059 2.7290 0.1441 0 9
10.8134 31.5896 2.7318 0.4990 0 9
10.1417 31.4742 2.7056 0.1632 0 9
9.9720 31.9339 2.7372 0.1025 0 9
9.6830 32.0234 2.7373 0.3628 0 9
9.8765 33.7624 2.8782 0.3871 0 9
8.0293 30.4947 2.5801 0.5330 0 9
7.7409 30.5176 2.5760 0.8554 0 9
3.0255 31.8617 2.6186 0.5685 0 9
2.6238 30.5661 2.5101 0.5462 0 9
2.3469 30.5832 2.5096 0.6226 0 9
2.0653 30.5312 2.5037 0.6240 0 9
1.7855 30.4866 2.4986 0.6260 0 9
1.4844 29.9901 2.4567 0.8025 0 9
1.2273 30.3533 2.4855 0.7923 0 9
0.9541 30.4043 2.4888 0.8811 0 9
0.6734 30.1584 2.4681 0.7016 0 9
0.4049 30.4848 2.4944 0.3404 0 9
0.1256 29.6387 2.4250 0.7278 0 9
-0.1427 29.7032 2.4303 0.6103 0 9
-0.4143 29.9137 2.4477 0.7266 0 9
-0.7094 30.9832 2.5357 0.5385 0 9
-0.9960 31.1775 2.5522 0.9012 0 9
-1.2691 30.9534 2.5347 0.4264 0 9
-1.5825 31.6100 2.5895 0.7176 0 9
-1.8281 30.9148 2.5338 0.7408 0 9
-2.0993 30.7754 2.5238 0.2169 0 9
-2.3840 30.8388 2.5307 0.8166 0 9
-2.6981 31.2248 2.5643 0.8253 0 9
-2.9627 31.0141 2.5491 0.7247 0 9
-3.2588 31.1362 2.5614 0.9472 0 9
-3.7503 32.9513 2.7134 0.3464 0 9
-4.0179 32.6699 2.6931 0.7678 0 9
-4.3026 32.5527 2.6866 0.2241 0 9
-4.7510 33.6027 2.7767 0.8413 0 9
-4.9092 32.5928 2.6968 0.7856 0 9
-5.2418 32.7850 2.7165 0.2032 0 9
-7.6529 37.0377 3.0944 0.0846 0 9
-7.9519 36.8017 3.0805 0.5881 0 9
-8.5851 38.0615 3.1924 0.6290 0 9
-8.9052 37.8814 3.1839 0.5701 0 9
-9.5869 36.3274 3.0740 0.3148 0 9
-9.5635 34.9544 2.9650 0.5603 0 9
-10.0341 34.2300 2.9185 0.8313 0 9
-10.4793 34.5866 2.9569 0.7509 0 9
-10.8056 34.5350 2.9607 0.7176 0 9
-11.5079 35.6452 3.0646 0.9128 0 9
-11.8300 34.4962 2.9838 0.5862 0 9
-12.5681 35.5963 3.0886 0.7310 0 9
-12.2684 33.7713 2.9398 0.3927 0 9
-12.6765 33.9354 2.9639 0.6931 0 9
-12.6436 32.9356 2.8865 0.7424 0 9
-12.8572 32.6073 2.8678 0.7020 0 9
-13.0260 32.1796 2.8404 0.5462 0 9
-13.5408 32.6006 2.8883 0.7813 0 9
-13.7705 32.3253 2.8748 0.2851 0 9
-14.0829 32.2466 2.8790 0.6136 0 9
-14.4605 32.3116 2.8963 0.8822 0 9
-14.8094 32.3044 2.9076 0.6508 0 9
-16.1209 33.5497 3.0454 0.2824 0 9
-18.1443 25.4284 2.5558 0.6449 0 9
-18.3940 25.2914 2.5587 0.2685 0 9
-20.1120 27.1343 2.7634 0.4877 0 9
-19.8851 26.3271 2.6994 0.3660 0 9
-20.7029 26.9006 2.7773 0.4505 0 9
5.2985 3.9622 0.3916 0.9581 0 5
19.6609 26.4444 1.9503 0.6409 0 9
19.4540 26.6664 1.9536 0.4023 0 9
18.3737 25.6700 1.8684 0.4838 0 9
17.9821 26.1079 1.8762 0.4478 0 9
17.5935 26.0447 1.8602 0.5255 0 9
17.0926 27.9487 1.9390 0.5152 0 9
16.8076 28.0496 1.9353 0.9591 0 9
8.0978 30.5029 1.8678 0.5918 0 9
7.7970 30.4786 1.8620 0.8548 0 9
3.1757 32.7353 1.9465 0.9702 0 5
2.0258 33.4256 1.9819 0.5952 0 9
1.1049 33.0645 1.9580 0.7357 0 9
0.7717 31.6747 1.8752 0.5471 0 9
0.4824 31.4919 1.8641 0.2027 0 9
0.1971 31.4273 1.8601 0.6578 0 9
-0.0869 31.3740 1.8569 0.6606 0 9
-0.3801 32.1718 1.9042 0.5321 0 9
-0.7062 33.8526 2.0040 0.5144 0 9
-0.9877 33.0219 1.9553 0.8316 0 9
-1.2767 32.7672 1.9408 0.6546 0 9
-1.6303 33.9470 2.0115 0.1029 0 9
-1.9102 33.4577 1.9834 0.9849 0 9
-2.2234 33.6004 1.9930 0.6370 0 9
-2.5423 33.7810 2.0050 0.9862 0 9
-3.2334 34.5903 2.0561 0.7656 0 9
-3.5719 34.8115 2.0711 0.3497 0 9
-3.8893 34.8027 2.0726 0.4764 0 9
-4.1512 34.3302 2.0466 0.6490 0 9
-11.4639 35.7574 2.2224 0.4016 0 9
-11.7948 35.6766 2.2239 0.4019 0 9
-12.6873 37.2428 2.3286 0.4204 0 9
-13.1892 37.5987 2.3582 0.0752 0 9
-13.2346 36.6632 2.3070 0.2269 0 9
-13.5221 36.4247 2.2995 0.7109 0 9
-13.8542 36.3095 2.3001 0.7160 0 9
-20.1076 26.7346 1.9799 0.9878 0 9
-27.7141 -0.9057 1.6411 0.9829 0 9
-27.8904 -1.1641 1.6521 0.4077 0 9
-18.5615 -2.9817 1.1126 0.7190 0 5
-8.6323 -5.5975 0.6089 0.4865 0 9
-8.5542 -5.6575 0.6070 0.9776 0 9
-8.4867 -5.7238 0.6059 0.9605 0 9
-8.4756 -5.8285 0.6088 0.8606 0 9
-8.5265 -5.9778 0.6163 0.1819 0 9
-18.1869 -16.5417 1.4550 0.9806 0 5
-2.0187 -7.2367 0.4447 0.9295 0 5
1.1538 -21.5359 1.2764 0.9944 0 5
9.8060 -27.4662 1.7261 0.5492 0 5
5.2612 -9.5015 0.6428 0.7013 0 9
5.3118 -9.3913 0.6386 0.9740 0 9
5.3889 -9.3297 0.6377 0.9753 0 9
5.4903 -9.3098 0.6397 0.8735 0 9
5.6009 -9.3042 0.6427 0.8693 0 9
5.3536 3.9452 0.3936 0.4737 0 5
5.2917 3.9739 0.3917 0.8739 0 5
19.5886 26.4592 1.9484 0.6415 0 9
19.4251 26.7408 1.9562 0.4018 0 9
18.4750 25.9227 1.8840 0.3767 0 9
18.2023 26.0350 1.8801 0.1625 0 9
17.8695 26.0577 1.8700 0.5536 0 9
17.5283 26.0624 1.8589 0.5854 0 9
17.0052 27.9332 1.9355 0.9505 0 9
16.8033 28.1721 1.9414 0.4916 0 9
8.0188 30.4548 1.8639 0.9547 0 9
7.7443 30.5312 1.8642 0.8658 0 9
2.2771 33.6615 1.9968 0.4245 0 9
2.0735 35.4037 2.0990 0.0529 0 9
1.0384 33.0896 1.9594 0.0851 0 9
0.7068 31.6507 1.8737 0.5484 0 9
0.4206 31.6597 1.8739 0.4890 0 9
0.1332 31.4148 1.8593 0.6580 0 9
-0.1510 31.4242 1.8599 0.1739 0 9
-0.4463 32.2278 1.9076 0.5311 0 9
-0.7761 33.8982 2.0068 0.5137 0 9
-1.0546 33.0136 1.9549 0.9876 0 9
-1.4161 34.5384 2.0459 0.4593 0 9
-1.6976 33.9084 2.0094 0.5749 0 9
-1.9774 33.4401 1.9826 0.9444 0 9
-2.2973 33.6784 1.9979 0.6367 0 9
-3.3074 34.6221 2.0584 0.7648 0 9
-3.6616 34.9853 2.0819 0.3479 0 9
-3.8963 34.2345 2.0392 0.6513 0 9
-11.6738 37.3097 2.3137 0.4724 0 9
-11.5198 35.6820 2.2191 0.9264 0 9
-12.2665 36.8518 2.2987 0.3670 0 9
-12.6476 36.8803 2.3075 0.1885 0 5
-13.1933 37.3667 2.3453 0.3768 0 9
-13.2723 36.5347 2.3006 0.2799 0 9
-13.5960 36.3968 2.2995 0.7109 0 9
-14.1885 36.9596 2.3431 0.5548 0 9
-20.1571 26.6873 1.9794 0.9886 0 9
5.2980 3.9618 0.2422 0.9592 0 5
17.0617 27.8983 1.1973 0.4930 0 9
16.8047 28.0446 1.1970 0.5210 0 9
8.0693 30.3955 1.1514 0.9464 0 9
7.7906 30.4538 1.1509 0.8595 0 9
3.1755 32.7336 1.2041 0.9713 0 5
-0.9881 33.0352 1.2100 0.9925 0 9
-11.4654 35.7622 1.3749 0.3372 0 9
-11.7805 35.6335 1.3741 0.9580 0 9
-20.1173 26.7475 1.2253 0.9931 0 9
-20.4531 26.6881 1.2310 0.5098 0 9
-27.7283 -0.9062 1.0157 0.9934 0 9
-27.7819 -1.1595 1.0180 0.4272 0 9
-18.5600 -2.9815 0.6883 0.7199 0 5
-8.7742 -5.5775 0.3806 0.5247 0 9
-8.6068 -5.5810 0.3756 0.9785 0 9
-8.5388 -5.6473 0.3748 0.9614 0 9
-8.4770 -5.7173 0.3744 0.8575 0 9
-8.4710 -5.8253 0.3764 0.8529 0 9
-8.5517 -5.9954 0.3824 0.2374 0 9
-18.1859 -16.5408 0.9001 0.9817 0 5
-2.0186 -7.2363 0.2750 0.9305 0 5
1.1538 -21.5346 0.7896 0.9954 0 5
9.8051 -27.4636 1.0677 0.5499 0 5
5.2568 -9.4935 0.3973 0.7049 0 9
5.3035 -9.3767 0.3944 0.9825 0 9
5.3797 -9.3138 0.3938 0.9840 0 9
5.4761 -9.2858 0.3947 0.8849 0 9
5.5860 -9.2793 0.3965 0.8896 0 9
5.3525 3.9443 0.2434 0.4744 0 5
5.2911 3.9734 0.2423 0.8750 0 5
16.9868 27.9030 1.1960 0.9418 0 9
16.8024 28.1706 1.2009 0.5402 0 9
8.0024 30.3927 1.1507 0.9470 0 9
7.7364 30.5000 1.1520 0.8899 0 9
-1.0555 33.0408 1.2103 0.9965 0 9
-11.5260 35.7012 1.3735 0.9277 0 9
-12.6441 36.8702 1.4271 0.1887 0 5
-20.1669 26.7002 1.2251 0.9934 0 9
22.0246 13.8297 0.3661 0.3568 0 5
5.2974 3.9613 0.0931 0.9599 0 5
17.0348 27.8542 0.4596 0.4843 0 9
16.7591 27.9686 0.4590 0.9395 0 9
8.0526 30.3328 0.4418 0.9341 0 9
7.7708 30.3764 0.4414 0.9068 0 9
3.1753 32.7309 0.4629 0.9719 0 5
-0.9872 33.0061 0.4648 0.9917 0 9
-11.4534 35.7249 0.5281 0.8848 0 9
-11.8048 35.7067 0.5294 0.4651 0 9
-20.1312 26.7660 0.4714 0.9848 0 9
-20.4977 26.7463 0.4743 0.4642 0 9
-27.7487 -0.9068 0.3908 0.9979 0 9
-27.8161 -1.1610 0.3919 0.9013 0 9
-18.5589 -2.9813 0.2645 0.7203 0 5
-8.7339 -5.5519 0.1457 0.4819 0 9
-8.5905 -5.5704 0.1441 0.9605 0 9
-8.5200 -5.6348 0.1438 0.9628 0 9
-8.4695 -5.7122 0.1438 0.8592 0 9
-8.4624 -5.8195 0.1446 0.8547 0 9
-8.5642 -6.0042 0.1472 0.2363 0 9
-18.1840 -16.5391 0.3460 0.9823 0 5
-2.0185 -7.2360 0.1057 0.9311 0 5
1.1536 -21.5323 0.3035 0.9961 0 5
9.8035 -27.4591 0.4104 0.5502 0 5
5.2577 -9.4951 0.1528 0.7052 0 9
5.2998 -9.3702 0.1515 0.9837 0 9
5.3753 -9.3062 0.1513 0.9792 0 9
5.4660 -9.2687 0.1515 0.8870 0 9
5.5747 -9.2606 0.1521 0.8919 0 9
5.7590 -9.3738 0.1549 0.3116 0 9
5.3513 3.9435 0.0936 0.4747 0 5
5.2904 3.9730 0.0931 0.8756 0 5
16.9510 27.8443 0.4589 0.9540 0 9
16.7405 28.0669 0.4600 0.5761 0 9
7.9848 30.3260 0.4414 0.9268 0 9
7.7160 30.4194 0.4418 0.9060 0 9
3.1133 32.7853 0.4636 0.2327 0 5
-1.0545 33.0083 0.4649 0.9916 0 9
-11.5141 35.6644 0.5275 0.8857 0 9
-12.6394 36.8566 0.5485 0.1888 0 5
-20.1784 26.7155 0.4713 0.9852 0 9
22.0181 13.8256 -0.2196 0.3570 0 5
5.2968 3.9609 -0.0559 0.9600 0 5
17.0537 27.8851 -0.2760 0.5321 0 9
16.7386 27.9344 -0.2750 0.9625 0 9
8.0399 30.2848 -0.2646 0.5569 0 9
7.7385 30.2498 -0.2637 0.9087 0 9
7.5199 30.5430 -0.2656 0.3184 0 9
3.1749 32.7273 -0.2777 0.9720 0 5
-0.9851 32.9351 -0.2783 0.9979 0 9
-10.0648 37.0826 -0.3245 0.4946 760 12
-10.2375 36.4130 -0.3194 0.5025 760 12
-11.4161 35.6085 -0.3158 0.8459 0 9
-11.7858 35.6494 -0.3171 0.3355 0 9
-19.9673 27.0539 -0.2840 0.5649 0 9
-20.1119 26.7403 -0.2826 0.9966 0 9
-23.3306 16.6018 -0.2418 0.3579 763 12
-27.9263 -0.6599 -0.2359 0.7734 0 9
-27.7495 -0.9069 -0.2345 0.9286 0 9
-27.8375 -1.1619 -0.2353 0.3637 0 9
-18.5577 -2.9811 -0.1588 0.7204 0 5
-8.7040 -5.5329 -0.0871 0.4648 0 9
-8.5690 -5.5565 -0.0863 0.9630 0 9
-8.4969 -5.6195 -0.0860 0.9524 0 9
-8.4481 -5.6978 -0.0861 0.8560 0 9
-8.4419 -5.8053 -0.0865 0.8568 0 9
-8.5707 -6.0088 -0.0884 0.2361 0 9
-18.1821 -16.5373 -0.2076 0.9824 0 5
-2.0184 -7.2356 -0.0634 0.9312 0 5
1.1535 -21.5300 -0.1821 0.9962 0 5
9.8020 -27.4549 -0.2462 0.9795 0 5
5.2604 -9.4999 -0.0917 0.7212 0 9
5.3005 -9.3714 -0.0909 0.7274 0 9
5.3707 -9.2983 -0.0907 0.9801 0 9
5.4555 -9.2510 -0.0907 0.8977 0 9
5.5635 -9.2421 -0.0911 0.8938 0 9
5.7076 -9.2902 -0.0921 0.3097 0 9
10.9656 -10.5622 -0.1286 0.4919 0 12
10.8969 -10.3076 -0.1267 0.4840 0 12
11.1728 -10.3788 -0.1288 0.4760 0 12
34.6777 -16.7573 -0.3253 0.5567 0 5
5.3501 3.9426 -0.0561 0.4749 0 5
5.2898 3.9725 -0.0559 0.8757 0 5
19.8752 28.4277 -0.2929 0.7314 0 5
16.9487 27.8405 -0.2753 0.9603 0 9
16.6914 27.9845 -0.2752 0.9598 0 9
7.9668 30.2574 -0.2642 0.8940 0 9
7.6835 30.2912 -0.2639 0.9079 0 9
3.1119 32.7704 -0.2780 0.2328 0 5
-1.0520 32.9329 -0.2783 0.9974 0 9
-10.1041 36.9302 -0.3234 0.4964 760 12
-10.2756 36.2653 -0.3183 0.5042 760 12
-11.4814 35.5630 -0.3156 0.9353 0 9
-12.6377 36.8516 -0.3290 0.8280 0 5
-19.9647 26.9357 -0.2832 0.5665 0 9
-20.1690 26.7030 -0.2826 0.9649 0 9
22.0115 13.8215 -0.8051 0.3569 0 5
5.2962 3.9605 -0.2048 0.9597 0 5
17.1115 27.9796 -1.0159 0.5058 0 9
16.7505 27.9542 -1.0094 0.9821 0 9
16.6033 28.2857 -1.0160 0.6624 0 9
8.0544 30.3395 -0.9723 0.6664 0 9
7.7285 30.2108 -0.9659 0.9319 0 9
7.4681 30.3329 -0.9676 0.9532 0 9
3.1746 32.7238 -1.0184 0.9717 0 5
-0.9841 32.9030 -1.0196 0.8099 0 9
-1.2831 32.9304 -1.0208 0.7135 0 9
-10.2719 36.5356 -1.1756 0.8641 760 5
-11.3701 35.4650 -1.1536 0.8062 0 9
-11.6976 35.3825 -1.1543 0.9629 0 9
-19.8091 26.8395 -1.0333 0.9932 0 9
-20.0487 26.6563 -1.0332 0.8595 0 9
-13.9968 9.0357 -0.5160 0.0719 0 5
-27.8095 -0.6571 -0.8617 0.7666 0 9
-27.7448 -0.9067 -0.8599 0.9055 0 9
-27.9647 -1.1672 -0.8670 0.4010 0 9
-18.5566 -2.9809 -0.5822 0.7201 0 5
-8.6705 -5.5116 -0.3182 0.4637 0 9
-8.5453 -5.5411 -0.3155 0.9454 0 9
-8.4720 -5.6031 -0.3146 0.9548 0 9
-8.4266 -5.6833 -0.3148 0.8521 0 9
-8.4195 -5.7899 -0.3165 0.8476 0 9
-8.5410 -5.9880 -0.3231 0.1031 0 9
-18.1801 -16.5355 -0.7612 0.9821 0 5
-2.0183 -7.2353 -0.2327 0.9308 0 5
1.1534 -21.5278 -0.6678 0.9959 0 5
9.8010 -27.4520 -0.9029 0.9792 0 5
5.2716 -9.5202 -0.3371 0.7193 0 9
5.3144 -9.3960 -0.3344 0.7469 0 9
5.3704 -9.2978 -0.3326 0.9718 0 9
5.4426 -9.2290 -0.3319 0.9739 0 9
5.5481 -9.2164 -0.3332 0.8969 0 9
5.6563 -9.2066 -0.3347 0.8905 0 9
5.8647 -9.3551 -0.3420 0.3233 0 9
10.9656 -10.5622 -0.4716 0.4917 0 12
10.8969 -10.3076 -0.4646 0.4838 0 12
11.1728 -10.3788 -0.4724 0.4758 0 12
34.6711 -16.7541 -1.1928 0.5566 0 5
5.3489 3.9417 -0.2058 0.4748 0 5
5.2892 3.9720 -0.2049 0.8755 0 5
19.8723 28.4236 -1.0743 0.7312 0 5
16.9959 27.9180 -1.0124 0.5073 0 9
16.7001 27.9991 -1.0098 0.9484 0 9
7.9717 30.2760 -0.9698 0.5671 0 9
7.6610 30.2027 -0.9652 0.9326 0 9
7.4169 30.3911 -0.9690 0.4152 0 9
3.1104 32.7556 -1.0192 0.2328 0 5
-1.0502 32.8759 -1.0189 0.9943 0 9
-1.3527 32.9919 -1.0228 0.7121 0 9
-11.4312 35.4078 -1.1525 0.9735 0 9
-11.8089 35.4770 -1.1582 0.3801 0 9
-12.6361 36.8469 -1.2066 0.8277 0 5
-19.8599 26.7943 -1.0331 0.9934 0 9
-20.1278 26.6485 -1.0344 0.8195 0 9
39.7190 2.8786 -2.1320 0.9478 0 5
22.0050 13.8174 -1.3911 0.3567 0 5
5.2956 3.9600 -0.3540 0.9589 0 5
18.6415 27.5962 -1.7829 0.9585 0 19
16.7934 28.0258 -1.7492 0.9222 0 9
16.5682 28.2259 -1.7522 0.4347 0 9
7.7204 30.1793 -1.6677 0.9813 0 9
7.4479 30.2510 -1.6679 0.9114 0 9
7.2478 30.6288 -1.6851 0.4133 0 9
6.1200 30.7935 -1.6808 0.7166 0 19
5.8470 30.8780 -1.6825 0.6305 0 19
3.1742 32.7202 -1.7600 0.9709 0 5
-0.9848 32.9254 -1.7635 0.8057 0 9
-1.2799 32.8477 -1.7599 0.9808 0 9
-8.7956 34.8910 -1.9266 0.5201 0 19
-9.1162 34.8307 -1.9275 0.6817 0 19
-10.2721 36.5362 -2.0319 0.8633 760 5
-11.3331 35.3495 -1.9874 0.8609 0 9
-11.6461 35.2268 -1.9863 0.9348 0 9
-12.5576 36.8619 -2.0848 0.5496 0 5
-19.7434 26.7506 -1.7800 0.9836 0 9
