ply
format ascii 1.0
element vertex 1360
property float32 x
property float32 y
property float32 z
property float32 CosAngle
property uint32 ObjIdx
property uint32 ObjTag
end_header
-1.4404 -26.3226 -2.6058 0.0984 0 8
-1.2023 -26.3346 -2.6058 0.0984 0 8
-0.9641 -26.3444 -2.6058 0.0984 0 8
-0.7258 -26.3520 -2.6058 0.0984 0 8
-0.4874 -26.3575 -2.6058 0.0984 0 8
-0.2490 -26.3608 -2.6058 0.0984 0 8
-0.0106 -26.3620 -2.6058 0.0984 0 8
0.2278 -26.3610 -2.6058 0.0984 0 8
0.4662 -26.3579 -2.6058 0.0984 0 8
0.7046 -26.3526 -2.6058 0.0984 0 8
0.9429 -26.3451 -2.6058 0.0984 0 8
1.1811 -26.3355 -2.6058 0.0984 0 8
1.4192 -26.3238 -2.6058 0.0984 0 8
1.6573 -26.3099 -2.6058 0.0984 0 8
1.8951 -26.2938 -2.6058 0.0984 0 8
2.1329 -26.2756 -2.6058 0.0984 0 8
2.3704 -26.2552 -2.6058 0.0984 0 8
2.6078 -26.2327 -2.6058 0.0984 0 8
2.8449 -26.2081 -2.6058 0.0984 0 8
3.0818 -26.1812 -2.6058 0.0984 0 8
3.3185 -26.1523 -2.6058 0.0984 0 8
3.5549 -26.1212 -2.6058 0.0984 0 8
3.7909 -26.0880 -2.6058 0.0984 0 8
4.0267 -26.0527 -2.6058 0.0984 0 8
4.2622 -26.0152 -2.6058 0.0984 0 8
4.4973 -25.9756 -2.6058 0.0984 0 8
4.7320 -25.9338 -2.6058 0.0984 0 8
4.9664 -25.8900 -2.6058 0.0984 0 8
5.2003 -25.8440 -2.6058 0.0984 0 8
5.4339 -25.7959 -2.6058 0.0984 0 8
5.6669 -25.7457 -2.6058 0.0984 0 8
5.8995 -25.6934 -2.6058 0.0984 0 8
6.1317 -25.6390 -2.6058 0.0984 0 8
6.3633 -25.5825 -2.6058 0.0984 0 8
6.5944 -25.5239 -2.6058 0.0984 0 8
6.8250 -25.4632 -2.6058 0.0984 0 8
7.0550 -25.4004 -2.6058 0.0984 0 8
7.2844 -25.3356 -2.6058 0.0984 0 8
7.5133 -25.2687 -2.6058 0.0984 0 8
7.7415 -25.1997 -2.6058 0.0984 0 8
7.9691 -25.1287 -2.6058 0.0984 0 8
8.1960 -25.0556 -2.6058 0.0984 0 8
8.4223 -24.9804 -2.6058 0.0984 0 8
8.6479 -24.9032 -2.6058 0.0984 0 8
8.8727 -24.8240 -2.6058 0.0984 0 8
6.2606 -17.0283 -1.7933 0.8080 0 5
6.4519 -17.0702 -1.8038 0.2370 0 19
6.5875 -16.9635 -1.7988 0.9643 0 19
6.7565 -16.9430 -1.8030 0.9621 0 19
6.9205 -16.9082 -1.8059 0.9597 0 19
10.2061 -24.3062 -2.6058 0.0984 0 8
10.4255 -24.2129 -2.6058 0.0984 0 8
10.6440 -24.1176 -2.6058 0.0984 0 8
10.8617 -24.0204 -2.6058 0.0984 0 8
11.0785 -23.9212 -2.6058 0.0984 0 8
11.2944 -23.8200 -2.6058 0.0984 0 8
11.5094 -23.7169 -2.6058 0.0984 0 8
11.7234 -23.6118 -2.6058 0.0984 0 8
11.9365 -23.5048 -2.6058 0.0984 0 8
12.1486 -23.3959 -2.6058 0.0984 0 8
12.3596 -23.2851 -2.6058 0.0984 0 8
12.5697 -23.1723 -2.6058 0.0984 0 8
12.7788 -23.0577 -2.6058 0.0984 0 8
12.9868 -22.9412 -2.6058 0.0984 0 8
13.1937 -22.8228 -2.6058 0.0984 0 8
13.3996 -22.7026 -2.6058 0.0984 0 8
13.6044 -22.5804 -2.6058 0.0984 0 8
13.8080 -22.4565 -2.6058 0.0984 0 8
14.0106 -22.3307 -2.6058 0.0984 0 8
14.2120 -22.2031 -2.6058 0.0984 0 8
14.4122 -22.0736 -2.6058 0.0984 0 8
14.6112 -21.9424 -2.6058 0.0984 0 8
14.8091 -21.8093 -2.6058 0.0984 0 8
15.0057 -21.6745 -2.6058 0.0984 0 8
15.2011 -21.5379 -2.6058 0.0984 0 8
15.3953 -21.3995 -2.6058 0.0984 0 8
15.5882 -21.2594 -2.6058 0.0984 0 8
15.7798 -21.1176 -2.6058 0.0984 0 8
15.9702 -20.9740 -2.6058 0.0984 0 8
16.1592 -20.8287 -2.6058 0.0984 0 8
16.3469 -20.6817 -2.6058 0.0984 0 8
16.5333 -20.5330 -2.6058 0.0984 0 8
16.7183 -20.3827 -2.6058 0.0984 0 8
16.9020 -20.2306 -2.6058 0.0984 0 8
17.0843 -20.0769 -2.6058 0.0984 0 8
17.2651 -19.9216 -2.6058 0.0984 0 8
17.4446 -19.7646 -2.6058 0.0984 0 8
17.6226 -19.6061 -2.6058 0.0984 0 8
17.7992 -19.4459 -2.6058 0.0984 0 8
17.9744 -19.2841 -2.6058 0.0984 0 8
18.1481 -19.1208 -2.6058 0.0984 0 8
18.3202 -18.9559 -2.6058 0.0984 0 8
18.4909 -18.7894 -2.6058 0.0984 0 8
18.6601 -18.6214 -2.6058 0.0984 0 8
18.8277 -18.4519 -2.6058 0.0984 0 8
18.9939 -18.2808 -2.6058 0.0984 0 8
19.1584 -18.1083 -2.6058 0.0984 0 8
19.3214 -17.9343 -2.6058 0.0984 0 8
19.4828 -17.7588 -2.6058 0.0984 0 8
19.6426 -17.5819 -2.6058 0.0984 0 8
19.8008 -17.4035 -2.6058 0.0984 0 8
19.9574 -17.2237 -2.6058 0.0984 0 8
20.1124 -17.0425 -2.6058 0.0984 0 8
20.2657 -16.8599 -2.6058 0.0984 0 8
20.4173 -16.6760 -2.6058 0.0984 0 8
20.5673 -16.4906 -2.6058 0.0984 0 8
20.7156 -16.3039 -2.6058 0.0984 0 8
20.8622 -16.1159 -2.6058 0.0984 0 8
21.0071 -15.9266 -2.6058 0.0984 0 8
21.1503 -15.7359 -2.6058 0.0984 0 8
21.2918 -15.5440 -2.6058 0.0984 0 8
21.4315 -15.3508 -2.6058 0.0984 0 8
6.0823 -4.2739 -0.7348 0.4283 0 5
6.0882 -4.1963 -0.7309 0.8947 0 5
21.8400 -14.7638 -2.6058 0.0984 0 8
21.9727 -14.5656 -2.6058 0.0984 0 8
22.3014 -14.4950 -2.6291 0.6483 0 8
22.6692 -14.4440 -2.6570 0.6415 0 8
23.0448 -14.3920 -2.6856 0.6347 0 8
23.4286 -14.3388 -2.7151 0.6278 0 8
23.8209 -14.2844 -2.7455 0.6208 0 8
24.0155 -14.1074 -2.7531 0.1086 0 8
24.1691 -13.9052 -2.7562 0.1085 0 8
24.3114 -13.6959 -2.7582 0.0984 0 7
24.4343 -13.4754 -2.7582 0.0984 0 7
24.5551 -13.2539 -2.7582 0.0984 0 7
24.6740 -13.0313 -2.7582 0.0984 0 7
24.7909 -12.8076 -2.7582 0.0984 0 7
24.9057 -12.5829 -2.7582 0.0984 0 7
25.0185 -12.3571 -2.7582 0.0984 0 7
25.1292 -12.1303 -2.7582 0.0984 0 7
25.2379 -11.9026 -2.7582 0.0984 0 7
25.3445 -11.6738 -2.7582 0.0984 0 7
25.4490 -11.4441 -2.7582 0.0984 0 7
25.5515 -11.2135 -2.7582 0.0984 0 7
25.6519 -10.9820 -2.7582 0.0984 0 7
25.7501 -10.7495 -2.7582 0.0984 0 7
25.8463 -10.5162 -2.7582 0.0984 0 7
25.9403 -10.2820 -2.7582 0.0984 0 7
26.0323 -10.0470 -2.7582 0.0984 0 7
26.1221 -9.8111 -2.7582 0.0984 0 7
26.2097 -9.5745 -2.7582 0.0984 0 7
26.2953 -9.3371 -2.7582 0.0984 0 7
26.3786 -9.0989 -2.7582 0.0984 0 7
26.4598 -8.8599 -2.7582 0.0984 0 7
26.5389 -8.6202 -2.7582 0.0984 0 7
26.6158 -8.3799 -2.7582 0.0984 0 7
26.6905 -8.1388 -2.7582 0.0984 0 7
26.7630 -7.8971 -2.7582 0.0984 0 7
26.8333 -7.6547 -2.7582 0.0984 0 7
26.9014 -7.4117 -2.7582 0.0984 0 7
26.9674 -7.1681 -2.7582 0.0984 0 7
27.0311 -6.9239 -2.7582 0.0984 0 7
27.0926 -6.6792 -2.7582 0.0984 0 7
17.0727 -4.0455 -1.7343 0.9943 0 19
27.2090 -6.1881 -2.7582 0.0984 0 7
27.2638 -5.9417 -2.7582 0.0984 0 7
18.4770 -3.8521 -1.8657 0.9928 0 19
27.3669 -5.4477 -2.7582 0.0984 0 7
16.0791 -3.0498 -1.6177 0.7876 0 9
16.0347 -2.8914 -1.6105 0.9511 0 9
16.1074 -2.7543 -1.6153 0.9503 0 9
21.3103 -3.4459 -2.1338 0.6195 0 19
22.7637 -3.4700 -2.2761 0.1150 0 19
22.7404 -3.2563 -2.2707 0.6053 0 19
24.0719 -3.2251 -2.4007 0.7913 0 19
26.2588 -3.2766 -2.6157 0.2422 0 8
25.4817 -2.9458 -2.5356 0.9826 0 19
26.2906 -2.7986 -2.6134 0.0984 0 14
26.3148 -2.5607 -2.6134 0.0984 0 14
26.3369 -2.3227 -2.6134 0.0984 0 14
18.1741 -1.4373 -1.8021 0.8226 0 19
18.1616 -1.2711 -1.7996 0.5461 0 19
19.4504 -1.1846 -1.9262 0.7030 0 19
20.6612 -1.0709 -2.0450 0.4676 0 19
21.0131 -0.8987 -2.0790 0.5233 0 19
22.3650 -0.7539 -2.2120 0.5157 0 19
23.7585 -0.5859 -2.3492 0.5079 0 19
25.1955 -0.3933 -2.4908 0.5002 0 19
26.4385 -0.1736 -2.6134 0.0984 0 14
26.4390 0.0655 -2.6134 0.0984 0 8
27.9019 0.3215 -2.7582 0.0984 0 7
27.8979 0.5739 -2.7582 0.0984 0 7
27.8916 0.8261 -2.7582 0.0984 0 6
27.8829 1.0784 -2.7582 0.0984 0 7
27.8720 1.3305 -2.7582 0.0984 0 7
27.8589 1.5825 -2.7582 0.0984 0 7
27.8434 1.8344 -2.7582 0.0984 0 7
27.8257 2.0862 -2.7582 0.0984 0 7
27.8057 2.3377 -2.7582 0.0984 0 7
27.7834 2.5891 -2.7582 0.0984 0 7
27.7589 2.8403 -2.7582 0.0984 0 7
27.7320 3.0912 -2.7582 0.0984 0 7
27.7029 3.3419 -2.7582 0.0984 0 7
27.6716 3.5923 -2.7582 0.0984 0 7
27.6380 3.8424 -2.7582 0.0984 0 7
27.6021 4.0922 -2.7582 0.0984 0 7
27.5639 4.3417 -2.7582 0.0984 0 7
27.5236 4.5908 -2.7582 0.0984 0 7
27.4809 4.8395 -2.7582 0.0984 0 7
27.4360 5.0879 -2.7582 0.0984 0 7
27.3889 5.3358 -2.7582 0.0984 0 7
27.3395 5.5833 -2.7582 0.0984 0 7
27.2879 5.8303 -2.7582 0.0984 0 7
27.2340 6.0769 -2.7582 0.0984 0 7
27.1780 6.3229 -2.7582 0.0984 0 7
27.1197 6.5685 -2.7582 0.0984 0 7
27.0592 6.8135 -2.7582 0.0984 0 7
26.9964 7.0579 -2.7582 0.0984 0 7
26.9315 7.3018 -2.7582 0.0984 0 7
26.8644 7.5450 -2.7582 0.0984 0 7
26.7950 7.7877 -2.7582 0.0984 0 7
26.7235 8.0297 -2.7582 0.0984 0 7
26.6498 8.2711 -2.7582 0.0984 0 7
26.5739 8.5118 -2.7582 0.0984 0 7
26.4958 8.7517 -2.7582 0.0984 0 7
26.4156 8.9910 -2.7582 0.0984 0 7
26.3332 9.2295 -2.7582 0.0984 0 7
26.2486 9.4673 -2.7582 0.0984 0 7
26.1619 9.7043 -2.7582 0.0984 0 7
26.0731 9.9405 -2.7582 0.0984 0 7
25.9735 10.1726 -2.7573 0.1025 0 8
25.8432 10.3921 -2.7533 0.1027 0 8
17.5887 7.2582 -1.8808 0.0726 0 10
17.5740 7.4389 -1.8863 0.1830 0 10
16.1452 7.0070 -1.7397 0.3088 0 10
15.9201 7.0810 -1.7223 0.2803 0 10
15.4406 7.0357 -1.6772 0.3176 0 10
15.0460 7.0209 -1.6412 0.4474 0 10
14.8315 7.0849 -1.6247 0.6208 0 10
14.7906 7.2303 -1.6273 0.6230 0 10
14.7610 7.3820 -1.6314 0.6075 0 10
14.7333 7.5355 -1.6358 0.6048 0 10
14.7061 7.6902 -1.6404 0.6001 0 10
14.6804 7.8466 -1.6454 0.5955 0 10
14.6556 8.0046 -1.6507 0.5939 0 10
14.6324 8.1646 -1.6563 0.5869 0 10
14.6114 8.3271 -1.6624 0.4846 0 10
22.7847 13.2594 -2.6058 0.0984 0 8
22.6639 13.4650 -2.6058 0.0984 0 8
22.5411 13.6694 -2.6058 0.0984 0 8
22.4166 13.8727 -2.6058 0.0984 0 8
22.2902 14.0749 -2.6058 0.0984 0 8
22.1620 14.2759 -2.6058 0.0984 0 8
22.0320 14.4757 -2.6058 0.0984 0 8
21.9002 14.6744 -2.6058 0.0984 0 8
21.7666 14.8719 -2.6058 0.0984 0 8
21.6312 15.0681 -2.6058 0.0984 0 8
21.4940 15.2631 -2.6058 0.0984 0 8
21.3551 15.4569 -2.6058 0.0984 0 8
21.2144 15.6494 -2.6058 0.0984 0 8
21.0720 15.8406 -2.6058 0.0984 0 8
20.9279 16.0306 -2.6058 0.0984 0 8
20.7821 16.2192 -2.6058 0.0984 0 8
20.6345 16.4065 -2.6058 0.0984 0 8
20.4853 16.5924 -2.6058 0.0984 0 8
20.3344 16.7770 -2.6058 0.0984 0 8
20.1818 16.9602 -2.6058 0.0984 0 8
20.0276 17.1421 -2.6058 0.0984 0 8
19.8718 17.3225 -2.6058 0.0984 0 8
19.7143 17.5015 -2.6058 0.0984 0 8
19.5552 17.6791 -2.6058 0.0984 0 8
19.3945 17.8552 -2.6058 0.0984 0 8
19.2322 18.0299 -2.6058 0.0984 0 8
19.0684 18.2031 -2.6058 0.0984 0 8
18.9030 18.3748 -2.6058 0.0984 0 8
18.7360 18.5450 -2.6058 0.0984 0 8
18.5675 18.7137 -2.6058 0.0984 0 8
18.3975 18.8808 -2.6058 0.0984 0 8
18.2260 19.0465 -2.6058 0.0984 0 8
18.0530 19.2105 -2.6058 0.0984 0 8
17.8785 19.3730 -2.6058 0.0984 0 8
17.7026 19.5339 -2.6058 0.0984 0 8
17.5252 19.6932 -2.6058 0.0984 0 8
17.3464 19.8509 -2.6058 0.0984 0 8
17.1661 20.0070 -2.6058 0.0984 0 8
16.9845 20.1614 -2.6058 0.0984 0 8
16.8015 20.3142 -2.6058 0.0984 0 8
16.6171 20.4653 -2.6058 0.0984 0 8
16.4313 20.6147 -2.6058 0.0984 0 8
16.2442 20.7625 -2.6058 0.0984 0 8
16.0557 20.9086 -2.6058 0.0984 0 8
15.8660 21.0529 -2.6058 0.0984 0 8
15.6749 21.1956 -2.6058 0.0984 0 8
15.4826 21.3365 -2.6058 0.0984 0 8
15.2890 21.4756 -2.6058 0.0984 0 8
15.0942 21.6130 -2.6058 0.0984 0 8
14.8981 21.7486 -2.6058 0.0984 0 8
14.7008 21.8825 -2.6058 0.0984 0 8
14.5023 22.0145 -2.6058 0.0984 0 8
14.3026 22.1448 -2.6058 0.0984 0 8
14.1017 22.2732 -2.6058 0.0984 0 8
13.8997 22.3999 -2.6058 0.0984 0 8
13.6965 22.5247 -2.6058 0.0984 0 8
13.4923 22.6476 -2.6058 0.0984 0 8
13.2869 22.7687 -2.6058 0.0984 0 8
13.0804 22.8879 -2.6058 0.0984 0 8
12.8729 23.0053 -2.6058 0.0984 0 8
12.6643 23.1208 -2.6058 0.0984 0 8
12.4547 23.2344 -2.6058 0.0984 0 8
12.2440 23.3461 -2.6058 0.0984 0 8
12.0324 23.4558 -2.6058 0.0984 0 8
11.8198 23.5637 -2.6058 0.0984 0 8
11.6062 23.6696 -2.6058 0.0984 0 8
11.3916 23.7736 -2.6058 0.0984 0 8
11.1762 23.8757 -2.6058 0.0984 0 8
10.9598 23.9758 -2.6058 0.0984 0 8
10.7425 24.0739 -2.6058 0.0984 0 8
10.5243 24.1701 -2.6058 0.0984 0 8
10.3053 24.2643 -2.6058 0.0984 0 8
10.0854 24.3565 -2.6058 0.0984 0 8
9.8647 24.4467 -2.6058 0.0984 0 8
9.6432 24.5349 -2.6058 0.0984 0 8
9.4210 24.6209 -2.6058 0.0984 0 8
9.1979 24.7054 -2.6058 0.0984 0 8
8.9741 24.7875 -2.6058 0.0984 0 8
8.7495 24.8677 -2.6058 0.0984 0 8
8.5243 24.9458 -2.6058 0.0984 0 8
8.2983 25.0219 -2.6058 0.0984 0 8
5.3684 16.6910 -1.7331 0.7531 0 19
5.1938 16.6636 -1.7253 0.9778 0 19
5.0673 16.7909 -1.7337 0.6344 0 19
7.3879 25.3056 -2.6058 0.0984 0 8
7.1587 25.3714 -2.6058 0.0984 0 8
6.9289 25.4351 -2.6058 0.0984 0 8
6.6986 25.4967 -2.6058 0.0984 0 8
6.4678 25.5563 -2.6058 0.0984 0 8
6.2364 25.6137 -2.6058 0.0984 0 8
6.0045 25.6691 -2.6058 0.0984 0 8
5.7721 25.7223 -2.6058 0.0984 0 8
5.5392 25.7735 -2.6058 0.0984 0 8
5.3059 25.8225 -2.6058 0.0984 0 8
5.0721 25.8695 -2.6058 0.0984 0 8
4.8380 25.9143 -2.6058 0.0984 0 8
4.6034 25.9570 -2.6058 0.0984 0 8
4.3685 25.9975 -2.6058 0.0984 0 8
4.1332 26.0360 -2.6058 0.0984 0 8
3.8975 26.0723 -2.6058 0.0984 0 8
3.6616 26.1065 -2.6058 0.0984 0 8
3.4253 26.1385 -2.6058 0.0984 0 8
3.1888 26.1684 -2.6058 0.0984 0 8
2.9520 26.1962 -2.6058 0.0984 0 8
0.8535 8.2439 -0.8192 0.1675 0 5
0.7740 8.1986 -0.8140 0.9799 0 5
2.2402 26.2667 -2.6058 0.0984 0 8
2.0026 26.2858 -2.6058 0.0984 0 8
1.7647 26.3029 -2.6058 0.0984 0 8
1.5268 26.3178 -2.6058 0.0984 0 8
1.2887 26.3305 -2.6058 0.0984 0 8
1.0505 26.3411 -2.6058 0.0984 0 8
0.8123 26.3495 -2.6058 0.0984 0 8
0.5739 26.3558 -2.6058 0.0984 0 8
0.3355 26.3599 -2.6058 0.0984 0 8
0.0971 26.3618 -2.6058 0.0984 0 8
-0.1413 26.3616 -2.6058 0.0984 0 8
-0.3797 26.3593 -2.6058 0.0984 0 8
-0.6181 26.3548 -2.6058 0.0984 0 8
-0.8564 26.3481 -2.6058 0.0984 0 8
-1.0947 26.3393 -2.6058 0.0984 0 8
-1.3328 26.3283 -2.6058 0.0984 0 8
-1.5709 26.3152 -2.6058 0.0984 0 8
-1.8088 26.2999 -2.6058 0.0984 0 8
-2.0466 26.2824 -2.6058 0.0984 0 8
-2.2842 26.2629 -2.6058 0.0984 0 8
-2.5217 26.2411 -2.6058 0.0984 0 8
-2.7589 26.2172 -2.6058 0.0984 0 8
-2.9959 26.1912 -2.6058 0.0984 0 8
-3.2326 26.1631 -2.6058 0.0984 0 8
-3.4691 26.1328 -2.6058 0.0984 0 8
-3.7053 26.1003 -2.6058 0.0984 0 8
-3.9412 26.0657 -2.6058 0.0984 0 8
-4.1768 26.0290 -2.6058 0.0984 0 8
-4.4120 25.9902 -2.6058 0.0984 0 8
-4.6469 25.9492 -2.6058 0.0984 0 8
-4.8814 25.9061 -2.6058 0.0984 0 8
-5.1155 25.8609 -2.6058 0.0984 0 8
-5.3492 25.8136 -2.6058 0.0984 0 8
-5.5824 25.7642 -2.6058 0.0984 0 8
-5.8152 25.7126 -2.6058 0.0984 0 8
-6.0475 25.6590 -2.6058 0.0984 0 8
-6.2793 25.6032 -2.6058 0.0984 0 8
22.6748 -0.0000 -2.7582 0.1208 0 7
22.6739 0.2051 -2.7582 0.1208 0 7
22.6711 0.4101 -2.7582 0.1208 0 7
22.6664 0.6151 -2.7582 0.1208 0 7
22.6599 0.8201 -2.7582 0.1208 0 7
22.6516 1.0250 -2.7582 0.1208 0 7
22.6414 1.2298 -2.7582 0.1208 0 7
22.6294 1.4345 -2.7582 0.1208 0 7
22.6155 1.6392 -2.7582 0.1208 0 7
22.5997 1.8436 -2.7582 0.1208 0 7
22.5821 2.0479 -2.7582 0.1208 0 7
22.5627 2.2521 -2.7582 0.1208 0 7
22.5414 2.4560 -2.7582 0.1208 0 7
22.5182 2.6598 -2.7582 0.1208 0 7
22.4933 2.8634 -2.7582 0.1208 0 7
22.4664 3.0667 -2.7582 0.1208 0 7
22.4378 3.2697 -2.7582 0.1208 0 7
22.4073 3.4725 -2.7582 0.1208 0 7
22.3750 3.6750 -2.7582 0.1208 0 7
22.3408 3.8773 -2.7582 0.1208 0 7
22.3049 4.0791 -2.7582 0.1208 0 7
22.2670 4.2807 -2.7582 0.1208 0 7
22.2274 4.4819 -2.7582 0.1208 0 7
22.1860 4.6828 -2.7582 0.1208 0 7
22.1427 4.8832 -2.7582 0.1208 0 7
22.0977 5.0833 -2.7582 0.1208 0 7
22.0508 5.2829 -2.7582 0.1208 0 7
22.0021 5.4821 -2.7582 0.1208 0 7
21.9516 5.6809 -2.7582 0.1208 0 7
21.8993 5.8792 -2.7582 0.1208 0 7
21.8453 6.0770 -2.7582 0.1208 0 7
21.7894 6.2743 -2.7582 0.1208 0 7
21.7318 6.4711 -2.7582 0.1208 0 7
21.6724 6.6674 -2.7582 0.1208 0 7
21.6112 6.8631 -2.7582 0.1208 0 7
21.5482 7.0583 -2.7582 0.1208 0 6
21.4835 7.2529 -2.7582 0.1208 0 7
21.4170 7.4469 -2.7582 0.1208 0 7
21.3488 7.6403 -2.7582 0.1208 0 7
21.2788 7.8331 -2.7582 0.1208 0 7
21.2071 8.0252 -2.7582 0.1208 0 7
21.1337 8.2167 -2.7582 0.1208 0 7
21.0585 8.4074 -2.7582 0.1208 0 7
17.5223 7.1801 -2.3034 0.1175 0 10
16.8015 7.0628 -2.2170 0.2389 0 10
16.2273 6.9948 -2.1495 0.3020 0 10
15.7212 6.9459 -2.0907 0.3090 0 10
15.1368 6.8520 -2.0211 0.3221 0 10
14.6276 6.7816 -1.9613 0.3143 0 10
14.2341 6.7562 -1.9166 0.3467 0 10
13.9584 6.7807 -1.8877 0.2246 0 10
14.0250 6.9705 -1.9051 0.1808 0 10
13.9765 7.1048 -1.9072 0.1806 0 10
13.9247 7.2376 -1.9090 0.1834 0 10
13.8687 7.3686 -1.9103 0.1833 0 10
13.8118 7.4993 -1.9118 0.1832 0 10
13.7570 7.6315 -1.9137 0.1765 0 10
13.7101 7.7684 -1.9168 0.1762 0 10
13.6623 7.9054 -1.9201 0.1759 0 10
13.6125 8.0418 -1.9232 0.1791 0 10
13.5570 8.1753 -1.9257 0.1789 0 10
13.5005 8.3087 -1.9283 0.1786 0 10
18.1415 11.3924 -2.6058 0.1208 0 8
18.0377 11.5560 -2.6058 0.1208 0 8
17.9324 11.7186 -2.6058 0.1208 0 8
17.8257 11.8803 -2.6058 0.1208 0 8
17.7175 12.0411 -2.6058 0.1208 0 8
17.6079 12.2008 -2.6058 0.1208 0 8
17.4969 12.3596 -2.6058 0.1208 0 8
17.3844 12.5173 -2.6058 0.1208 0 8
17.2704 12.6740 -2.6058 0.1208 0 8
17.1551 12.8297 -2.6058 0.1208 0 8
17.0384 12.9843 -2.6058 0.1208 0 8
16.9202 13.1379 -2.6058 0.1208 0 8
16.8007 13.2904 -2.6058 0.1208 0 8
16.6799 13.4418 -2.6058 0.1208 0 8
16.5576 13.5921 -2.6058 0.1208 0 8
16.4340 13.7413 -2.6058 0.1208 0 8
16.3091 13.8893 -2.6058 0.1208 0 8
16.1828 14.0363 -2.6058 0.1208 0 8
16.0552 14.1821 -2.6058 0.1208 0 8
15.9263 14.3267 -2.6058 0.1208 0 8
15.7960 14.4701 -2.6058 0.1208 0 8
15.6645 14.6124 -2.6058 0.1208 0 8
15.5317 14.7535 -2.6058 0.1208 0 8
15.3977 14.8933 -2.6058 0.1208 0 8
15.2623 15.0320 -2.6058 0.1208 0 8
15.1258 15.1694 -2.6058 0.1208 0 8
14.9879 15.3056 -2.6058 0.1208 0 8
14.8489 15.4405 -2.6058 0.1208 0 8
14.7087 15.5742 -2.6058 0.1208 0 8
14.5672 15.7065 -2.6058 0.1208 0 8
14.4246 15.8376 -2.6058 0.1208 0 8
14.2807 15.9675 -2.6058 0.1208 0 8
14.1357 16.0960 -2.6058 0.1208 0 8
13.9896 16.2231 -2.6058 0.1208 0 8
13.8423 16.3490 -2.6058 0.1208 0 8
13.6939 16.4735 -2.6058 0.1208 0 8
13.5443 16.5967 -2.6058 0.1208 0 8
13.3937 16.7185 -2.6058 0.1208 0 8
13.2419 16.8389 -2.6058 0.1208 0 8
13.0891 16.9580 -2.6058 0.1208 0 8
12.9352 17.0757 -2.6058 0.1208 0 8
12.7802 17.1920 -2.6058 0.1208 0 8
12.6242 17.3069 -2.6058 0.1208 0 8
12.4672 17.4203 -2.6058 0.1208 0 8
12.3091 17.5324 -2.6058 0.1208 0 8
12.1501 17.6430 -2.6058 0.1208 0 8
11.9900 17.7522 -2.6058 0.1208 0 8
11.8289 17.8599 -2.6058 0.1208 0 8
11.6669 17.9661 -2.6058 0.1208 0 8
11.5040 18.0709 -2.6058 0.1208 0 8
11.3401 18.1742 -2.6058 0.1208 0 8
11.1752 18.2760 -2.6058 0.1208 0 8
11.0095 18.3763 -2.6058 0.1208 0 8
10.8428 18.4752 -2.6058 0.1208 0 8
10.6753 18.5725 -2.6058 0.1208 0 8
10.5069 18.6683 -2.6058 0.1208 0 8
10.3376 18.7625 -2.6058 0.1208 0 8
10.1675 18.8552 -2.6058 0.1208 0 8
9.9966 18.9464 -2.6058 0.1208 0 8
9.8248 19.0361 -2.6058 0.1208 0 8
9.6523 19.1241 -2.6058 0.1208 0 8
9.4789 19.2106 -2.6058 0.1208 0 8
9.3048 19.2956 -2.6058 0.1208 0 8
9.1299 19.3790 -2.6058 0.1208 0 8
8.9543 19.4607 -2.6058 0.1208 0 8
8.7779 19.5409 -2.6058 0.1208 0 8
8.6008 19.6195 -2.6058 0.1208 0 8
8.4230 19.6965 -2.6058 0.1208 0 8
8.2445 19.7719 -2.6058 0.1208 0 8
8.0654 19.8456 -2.6058 0.1208 0 8
7.8856 19.9178 -2.6058 0.1208 0 8
7.7051 19.9883 -2.6058 0.1208 0 8
7.5240 20.0571 -2.6058 0.1208 0 8
7.3423 20.1243 -2.6058 0.1208 0 8
7.1600 20.1899 -2.6058 0.1208 0 8
6.9771 20.2539 -2.6058 0.1208 0 8
6.7937 20.3161 -2.6058 0.1208 0 8
5.3862 16.6051 -2.1235 0.3287 0 19
5.2101 16.5714 -2.1131 0.9801 0 19
5.0827 16.6922 -2.1225 0.6361 0 19
6.0544 20.5486 -2.6058 0.1208 0 8
5.8683 20.6025 -2.6058 0.1208 0 8
5.6817 20.6547 -2.6058 0.1208 0 8
5.4947 20.7052 -2.6058 0.1208 0 8
5.3072 20.7541 -2.6058 0.1208 0 8
5.1193 20.8012 -2.6058 0.1208 0 8
4.9310 20.8467 -2.6058 0.1208 0 8
4.7422 20.8904 -2.6058 0.1208 0 8
4.5531 20.9325 -2.6058 0.1208 0 8
4.3636 20.9728 -2.6058 0.1208 0 8
4.1738 21.0114 -2.6058 0.1208 0 8
3.9836 21.0483 -2.6058 0.1208 0 8
3.7930 21.0834 -2.6058 0.1208 0 8
3.6022 21.1169 -2.6058 0.1208 0 8
3.4111 21.1486 -2.6058 0.1208 0 8
3.2197 21.1786 -2.6058 0.1208 0 8
3.0280 21.2068 -2.6058 0.1208 0 8
2.8361 21.2334 -2.6058 0.1208 0 8
2.6439 21.2581 -2.6058 0.1208 0 8
2.4516 21.2812 -2.6058 0.1208 0 8
2.2590 21.3025 -2.6058 0.1208 0 8
0.7939 8.1921 -1.0012 0.9780 0 5
1.8733 21.3399 -2.6058 0.1208 0 8
1.6802 21.3559 -2.6058 0.1208 0 8
1.4870 21.3702 -2.6058 0.1208 0 8
1.2937 21.3828 -2.6058 0.1208 0 8
1.1003 21.3937 -2.6058 0.1208 0 8
0.9067 21.4027 -2.6058 0.1208 0 8
0.7131 21.4101 -2.6058 0.1208 0 8
0.5195 21.4156 -2.6058 0.1208 0 8
0.3258 21.4194 -2.6058 0.1208 0 8
0.1320 21.4215 -2.6058 0.1208 0 8
-0.0617 21.4218 -2.6058 0.1208 0 8
-0.2555 21.4204 -2.6058 0.1208 0 8
-0.4492 21.4172 -2.6058 0.1208 0 8
-0.6428 21.4123 -2.6058 0.1208 0 8
-0.8365 21.4056 -2.6058 0.1208 0 8
-1.0300 21.3971 -2.6058 0.1208 0 8
-1.2235 21.3870 -2.6058 0.1208 0 8
-1.4169 21.3750 -2.6058 0.1208 0 8
-1.6101 21.3613 -2.6058 0.1208 0 8
-1.8033 21.3459 -2.6058 0.1208 0 8
-1.9962 21.3287 -2.6058 0.1208 0 8
-2.1891 21.3098 -2.6058 0.1208 0 8
-2.3817 21.2891 -2.6058 0.1208 0 8
-2.5741 21.2667 -2.6058 0.1208 0 8
-2.7664 21.2426 -2.6058 0.1208 0 8
-2.9584 21.2167 -2.6058 0.1208 0 8
-3.1501 21.1890 -2.6058 0.1208 0 8
-3.3416 21.1597 -2.6058 0.1208 0 8
-3.5329 21.1286 -2.6058 0.1208 0 8
-3.7238 21.0958 -2.6058 0.1208 0 8
-3.9144 21.0612 -2.6058 0.1208 0 8
-4.1048 21.0250 -2.6058 0.1208 0 8
-4.2947 20.9870 -2.6058 0.1208 0 8
-4.4844 20.9473 -2.6058 0.1208 0 8
-4.6736 20.9059 -2.6058 0.1208 0 8
-4.8625 20.8628 -2.6058 0.1208 0 8
-5.0510 20.8179 -2.6058 0.1208 0 8
-5.2391 20.7714 -2.6058 0.1208 0 8
-5.4267 20.7232 -2.6058 0.1208 0 8
-5.6139 20.6732 -2.6058 0.1208 0 8
-5.8007 20.6216 -2.6058 0.1208 0 8
-5.9869 20.5683 -2.6058 0.1208 0 8
-6.1727 20.5133 -2.6058 0.1208 0 8
-6.3580 20.4567 -2.6058 0.1208 0 8
-6.5427 20.3983 -2.6058 0.1208 0 8
-6.7269 20.3383 -2.6058 0.1208 0 8
-6.9106 20.2766 -2.6058 0.1208 0 8
-7.0937 20.2133 -2.6058 0.1208 0 8
-7.2762 20.1483 -2.6058 0.1208 0 8
-7.4581 20.0817 -2.6058 0.1208 0 8
-7.6395 20.0134 -2.6058 0.1208 0 8
-7.8201 19.9435 -2.6058 0.1208 0 8
-8.0002 19.8720 -2.6058 0.1208 0 8
-8.1796 19.7988 -2.6058 0.1208 0 8
-8.3583 19.7240 -2.6058 0.1208 0 8
-8.5364 19.6476 -2.6058 0.1208 0 8
-8.7137 19.5696 -2.6058 0.1208 0 8
-8.8903 19.4900 -2.6058 0.1208 0 8
-9.0662 19.4088 -2.6058 0.1208 0 8
-9.2414 19.3260 -2.6058 0.1208 0 8
-9.4158 19.2417 -2.6058 0.1208 0 8
-9.5894 19.1557 -2.6058 0.1208 0 8
-9.7623 19.0682 -2.6058 0.1208 0 8
-9.9343 18.9791 -2.6058 0.1208 0 8
-10.1056 18.8885 -2.6058 0.1208 0 8
-10.2760 18.7964 -2.6058 0.1208 0 8
-10.4456 18.7026 -2.6058 0.1208 0 8
-10.6143 18.6074 -2.6058 0.1208 0 8
-10.7821 18.5107 -2.6058 0.1208 0 8
-10.9491 18.4124 -2.6058 0.1208 0 8
-11.1152 18.3126 -2.6058 0.1208 0 8
-11.2804 18.2113 -2.6058 0.1208 0 8
-11.4446 18.1086 -2.6058 0.1208 0 8
-11.6079 18.0043 -2.6058 0.1208 0 8
-11.7702 17.8986 -2.6058 0.1208 0 8
-11.9316 17.7914 -2.6058 0.1208 0 8
-12.0921 17.6828 -2.6058 0.1208 0 8
-12.2515 17.5727 -2.6058 0.1208 0 8
-12.4099 17.4612 -2.6058 0.1208 0 8
-12.5673 17.3482 -2.6058 0.1208 0 8
-12.7237 17.2339 -2.6058 0.1208 0 8
-12.8791 17.1181 -2.6058 0.1208 0 8
-13.0333 17.0009 -2.6058 0.1208 0 8
-13.1866 16.8823 -2.6058 0.1208 0 8
-13.3387 16.7624 -2.6058 0.1208 0 8
-13.4898 16.6411 -2.6058 0.1208 0 8
-13.6397 16.5184 -2.6058 0.1208 0 8
-13.7886 16.3943 -2.6058 0.1208 0 8
-13.9363 16.2690 -2.6058 0.1208 0 8
-14.0828 16.1423 -2.6058 0.1208 0 8
-14.2282 16.0142 -2.6058 0.1208 0 8
-14.3725 15.8849 -2.6058 0.1208 0 8
-14.5156 15.7543 -2.6058 0.1208 0 8
-14.6574 15.6224 -2.6058 0.1208 0 8
-14.7981 15.4892 -2.6058 0.1208 0 8
-14.9376 15.3547 -2.6058 0.1208 0 8
-15.0759 15.2190 -2.6058 0.1208 0 8
-15.2129 15.0820 -2.6058 0.1208 0 8
-15.3487 14.9438 -2.6058 0.1208 0 8
-15.4832 14.8044 -2.6058 0.1208 0 8
-15.6165 14.6637 -2.6058 0.1208 0 8
-15.7484 14.5219 -2.6058 0.1208 0 8
-15.8791 14.3789 -2.6058 0.1208 0 8
-16.0085 14.2347 -2.6058 0.1208 0 8
-16.1366 14.0893 -2.6058 0.1208 0 8
-16.2634 13.9428 -2.6058 0.1208 0 8
-16.3888 13.7951 -2.6058 0.1208 0 8
-16.5129 13.6464 -2.6058 0.1208 0 8
-16.6356 13.4965 -2.6058 0.1208 0 8
-16.7570 13.3455 -2.6058 0.1208 0 8
-16.8770 13.1934 -2.6058 0.1208 0 8
-16.9957 13.0402 -2.6058 0.1208 0 8
-17.1129 12.8859 -2.6058 0.1208 0 8
-17.2287 12.7306 -2.6058 0.1208 0 8
-17.3432 12.5743 -2.6058 0.1208 0 8
-17.4562 12.4169 -2.6058 0.1208 0 8
-17.5678 12.2586 -2.6058 0.1208 0 8
-17.6779 12.0992 -2.6058 0.1208 0 8
-17.7866 11.9388 -2.6058 0.1208 0 8
-17.8939 11.7774 -2.6058 0.1208 0 8
-17.9997 11.6151 -2.6058 0.1208 0 8
-18.1040 11.4519 -2.6058 0.1208 0 8
-18.2068 11.2877 -2.6058 0.1208 0 8
-18.3081 11.1225 -2.6058 0.1208 0 8
-18.4080 10.9565 -2.6058 0.1208 0 8
-18.5063 10.7896 -2.6058 0.1208 0 8
-18.6031 10.6218 -2.6058 0.1208 0 8
-18.6984 10.4531 -2.6058 0.1208 0 8
-18.7922 10.2836 -2.6058 0.1208 0 8
-18.8845 10.1132 -2.6058 0.1208 0 8
-18.9751 9.9420 -2.6058 0.1208 0 8
-19.0643 9.7700 -2.6058 0.1208 0 8
-19.1519 9.5971 -2.6058 0.1208 0 8
-19.2379 9.4235 -2.6058 0.1208 0 8
-19.3223 9.2492 -2.6058 0.1208 0 8
-19.4052 9.0740 -2.6058 0.1208 0 8
-19.4864 8.8982 -2.6058 0.1208 0 8
-19.5661 8.7216 -2.6058 0.1208 0 8
-19.6442 8.5443 -2.6058 0.1208 0 8
-19.7207 8.3662 -2.6058 0.1208 0 8
-19.7955 8.1875 -2.6058 0.1208 0 8
-19.8688 8.0082 -2.6058 0.1208 0 8
-19.9404 7.8282 -2.6058 0.1208 0 8
-20.0104 7.6475 -2.6058 0.1208 0 8
-20.0787 7.4662 -2.6058 0.1208 0 8
-20.1454 7.2843 -2.6058 0.1208 0 8
-20.2105 7.1018 -2.6058 0.1208 0 8
-20.2739 6.9187 -2.6058 0.1208 0 8
-20.3356 6.7351 -2.6058 0.1208 0 8
-20.3957 6.5509 -2.6058 0.1208 0 8
-18.9157 5.8874 -2.4098 0.9097 0 5
-18.9362 5.7064 -2.4058 0.4037 0 5
-20.5659 5.9952 -2.6058 0.1208 0 8
-20.6193 5.8089 -2.6058 0.1208 0 8
-20.6710 5.6222 -2.6058 0.1208 0 8
-20.7210 5.4350 -2.6058 0.1208 0 8
-20.7693 5.2474 -2.6058 0.1208 0 8
-20.8159 5.0594 -2.6058 0.1208 0 8
-20.8608 4.8709 -2.6058 0.1208 0 8
-21.1444 4.7359 -2.6358 0.3512 0 8
-21.7007 4.6548 -2.6998 0.3429 0 8
-22.1573 4.5435 -2.7513 0.1261 0 8
-22.2229 4.3479 -2.7545 0.1260 0 8
-22.2870 4.1515 -2.7577 0.1258 0 8
-22.3280 3.9506 -2.7582 0.1208 0 7
-22.3628 3.7485 -2.7582 0.1208 0 7
-22.3958 3.5461 -2.7582 0.1208 0 7
-22.4269 3.3434 -2.7582 0.1208 0 7
-22.4563 3.1404 -2.7582 0.1208 0 7
-22.4837 2.9372 -2.7582 0.1208 0 7
-22.5094 2.7337 -2.7582 0.1208 0 7
-22.5332 2.5300 -2.7582 0.1208 0 7
-22.5551 2.3261 -2.7582 0.1208 0 7
-22.5753 2.1221 -2.7582 0.1208 0 7
-22.5935 1.9178 -2.7582 0.1208 0 7
-22.6100 1.7134 -2.7582 0.1208 0 7
-22.6245 1.5088 -2.7582 0.1208 0 6
-22.6372 1.3042 -2.7582 0.1208 0 7
-22.6481 1.0994 -2.7582 0.1208 0 7
-22.6571 0.8945 -2.7582 0.1208 0 7
-22.6643 0.6896 -2.7582 0.1208 0 7
-22.6696 0.4846 -2.7582 0.1208 0 7
-22.6731 0.2795 -2.7582 0.1208 0 7
-22.6747 0.0744 -2.7582 0.1208 0 7
-22.6744 -0.1306 -2.7582 0.1208 0 7
-22.6723 -0.3357 -2.7582 0.1208 0 7
-22.6683 -0.5407 -2.7582 0.1208 0 7
-22.6625 -0.7457 -2.7582 0.1208 0 7
-22.6548 -0.9506 -2.7582 0.1208 0 7
-22.6453 -1.1555 -2.7582 0.1208 0 7
-22.6339 -1.3603 -2.7582 0.1208 0 7
-22.6207 -1.5649 -2.7582 0.1208 0 7
-22.6056 -1.7694 -2.7582 0.1208 0 7
-22.5887 -1.9738 -2.7582 0.1208 0 7
-22.5699 -2.1780 -2.7582 0.1208 0 7
-22.5493 -2.3820 -2.7582 0.1208 0 7
-22.5268 -2.5859 -2.7582 0.1208 0 7
-22.5025 -2.7895 -2.7582 0.1208 0 7
-22.4764 -2.9929 -2.7582 0.1208 0 7
-22.4484 -3.1961 -2.7582 0.1208 0 7
-22.4186 -3.3989 -2.7582 0.1208 0 7
-22.3869 -3.6016 -2.7582 0.1208 0 7
-22.3534 -3.8039 -2.7582 0.1208 0 7
-22.3181 -4.0059 -2.7582 0.1208 0 7
-22.2810 -4.2076 -2.7582 0.1208 0 7
-22.2420 -4.4089 -2.7582 0.1208 0 7
-22.2012 -4.6099 -2.7582 0.1208 0 7
-22.1586 -4.8105 -2.7582 0.1208 0 7
-22.1142 -5.0107 -2.7582 0.1208 0 7
-22.0680 -5.2105 -2.7582 0.1208 0 7
-22.0200 -5.4099 -2.7582 0.1208 0 6
-21.9701 -5.6088 -2.7582 0.1208 0 7
-21.9185 -5.8073 -2.7582 0.1208 0 7
-21.2893 -5.8471 -2.6856 0.1624 0 8
-20.6651 -5.8772 -2.6134 0.1208 0 8
-20.6111 -6.0638 -2.6134 0.1208 0 14
-19.4767 -5.9220 -2.4763 0.9679 0 19
-18.1705 -5.7049 -2.3167 0.5363 0 19
-18.0558 -5.8488 -2.3087 0.8261 0 19
-16.6800 -5.5703 -2.1391 0.9736 0 19
-16.3228 -5.6156 -2.0998 0.1804 0 19
-15.2730 -5.4094 -1.9709 0.9769 0 19
-15.3339 -5.5876 -1.9852 0.1597 0 19
-13.8993 -5.2077 -1.8055 0.5808 0 19
-13.8546 -5.3343 -1.8059 0.7951 0 19
-19.9792 -7.9006 -2.6134 0.1208 0 14
-19.9069 -8.0810 -2.6134 0.1208 0 14
-19.8330 -8.2607 -2.6134 0.1208 0 14
-19.7575 -8.4397 -2.6134 0.1208 0 14
-19.1760 -8.3972 -2.5464 0.6241 0 19
-19.0638 -8.5544 -2.5417 0.7620 0 19
-19.5212 -8.9726 -2.6134 0.1208 0 8
-17.6593 -8.3111 -2.3741 0.9896 0 19
-13.6945 -6.5970 -1.8490 0.6555 0 5
-16.3531 -8.0608 -2.2178 0.6583 0 19
-16.2644 -8.2007 -2.2157 0.7325 0 19
-20.1536 -10.3913 -2.7582 0.1208 0 7
-14.9625 -7.8869 -2.0574 0.6783 0 19
-14.8595 -8.0051 -2.0531 0.7141 0 19
-19.8642 -10.9342 -2.7582 0.1208 0 7
-19.7645 -11.1134 -2.7582 0.1208 0 7
-13.4918 -7.7478 -1.8925 0.9927 0 19
-19.5603 -11.4691 -2.7582 0.1208 0 7
-19.4558 -11.6455 -2.7582 0.1208 0 7
-19.3497 -11.8210 -2.7582 0.1208 0 7
-12.1202 -7.5558 -1.7374 0.7289 0 19
-12.0666 -7.6748 -1.7395 0.6623 0 19
-19.0218 -12.3416 -2.7582 0.1208 0 7
-18.9094 -12.5131 -2.7582 0.1208 0 7
-18.7955 -12.6837 -2.7582 0.1208 0 7
-18.6800 -12.8531 -2.7582 0.1208 0 7
-18.5630 -13.0215 -2.7582 0.1208 0 7
-18.4445 -13.1889 -2.7582 0.1208 0 7
-18.3244 -13.3552 -2.7582 0.1208 0 7
-18.2029 -13.5203 -2.7582 0.1208 0 7
-18.0799 -13.6844 -2.7582 0.1208 0 7
-17.9554 -13.8474 -2.7582 0.1208 0 7
-17.8294 -14.0092 -2.7582 0.1208 0 7
-17.7020 -14.1699 -2.7582 0.1208 0 7
-17.5731 -14.3294 -2.7582 0.1208 0 7
-17.4428 -14.4877 -2.7582 0.1208 0 7
-17.3110 -14.6449 -2.7582 0.1208 0 7
-17.1779 -14.8009 -2.7582 0.1208 0 7
-17.0433 -14.9556 -2.7582 0.1208 0 7
-16.9074 -15.1091 -2.7582 0.1208 0 7
-16.7700 -15.2614 -2.7582 0.1208 0 7
-16.6313 -15.4125 -2.7582 0.1208 0 7
-16.4913 -15.5623 -2.7582 0.1208 0 7
-16.3498 -15.7108 -2.7582 0.1208 0 7
-16.2071 -15.8580 -2.7582 0.1208 0 7
-16.0630 -16.0039 -2.7582 0.1208 0 7
-15.9176 -16.1485 -2.7582 0.1208 0 7
-15.7709 -16.2918 -2.7582 0.1208 0 6
-15.6229 -16.4338 -2.7582 0.1208 0 7
-15.4737 -16.5744 -2.7582 0.1208 0 7
-15.3231 -16.7137 -2.7582 0.1208 0 7
-15.1713 -16.8516 -2.7582 0.1208 0 7
-15.0183 -16.9881 -2.7582 0.1208 0 7
-14.8641 -17.1232 -2.7582 0.1208 0 7
-4.5134 -5.2954 -0.8464 0.3213 0 9
-4.3537 -5.2025 -0.8252 0.3383 0 9
-4.2901 -5.2218 -0.8221 0.9760 0 9
-4.2340 -5.2496 -0.8204 0.9698 0 9
-4.1774 -5.2765 -0.8186 0.9719 0 9
-4.1211 -5.3032 -0.8170 0.9739 0 9
-4.0765 -5.3448 -0.8177 0.8987 0 9
-4.0455 -5.4049 -0.8212 0.9062 0 9
-4.0134 -5.4644 -0.8247 0.9024 0 9
-4.0016 -5.5527 -0.8326 0.6020 0 9
-4.0000 -5.6578 -0.8429 0.5831 0 9
-12.9051 -18.6083 -2.7546 0.1333 0 8
-12.7266 -18.7101 -2.7525 0.1334 0 8
-12.5429 -18.8035 -2.7495 0.7610 0 8
-12.2798 -18.7747 -2.7289 0.7667 0 8
-12.0205 -18.7462 -2.7088 0.7724 0 8
-11.7649 -18.7181 -2.6893 0.7780 0 8
-11.5130 -18.6903 -2.6702 0.7836 0 8
-11.2646 -18.6629 -2.6517 0.7891 0 8
-11.0195 -18.6358 -2.6335 0.7945 0 8
-10.7778 -18.6091 -2.6159 0.7998 0 8
-10.5681 -18.6337 -2.6058 0.1208 0 8
-10.3992 -18.7285 -2.6058 0.1208 0 8
-10.2294 -18.8218 -2.6058 0.1208 0 8
-10.0587 -18.9135 -2.6058 0.1208 0 8
-9.8873 -19.0037 -2.6058 0.1208 0 8
-9.7150 -19.0924 -2.6058 0.1208 0 8
-9.5419 -19.1794 -2.6058 0.1208 0 8
-9.3681 -19.2649 -2.6058 0.1208 0 8
-9.1935 -19.3489 -2.6058 0.1208 0 8
-9.0181 -19.4312 -2.6058 0.1208 0 8
-8.8420 -19.5120 -2.6058 0.1208 0 8
-8.6652 -19.5912 -2.6058 0.1208 0 8
-8.4876 -19.6687 -2.6058 0.1208 0 8
-8.3094 -19.7447 -2.6058 0.1208 0 8
-8.1305 -19.8190 -2.6058 0.1208 0 8
-7.9509 -19.8918 -2.6058 0.1208 0 8
-7.7707 -19.9628 -2.6058 0.1208 0 8
-7.5898 -20.0323 -2.6058 0.1208 0 8
-7.4083 -20.1001 -2.6058 0.1208 0 8
-7.2262 -20.1663 -2.6058 0.1208 0 8
-7.0436 -20.2308 -2.6058 0.1208 0 8
-6.8603 -20.2937 -2.6058 0.1208 0 8
-6.6765 -20.3549 -2.6058 0.1208 0 8
-6.4921 -20.4145 -2.6058 0.1208 0 8
-6.3072 -20.4724 -2.6058 0.1208 0 8
-6.1218 -20.5286 -2.6058 0.1208 0 8
-5.9359 -20.5831 -2.6058 0.1208 0 8
-5.7495 -20.6359 -2.6058 0.1208 0 8
-5.5626 -20.6871 -2.6058 0.1208 0 8
-5.3753 -20.7365 -2.6058 0.1208 0 8
-5.1876 -20.7843 -2.6058 0.1208 0 8
-4.9994 -20.8304 -2.6058 0.1208 0 8
-4.8108 -20.8748 -2.6058 0.1208 0 8
-4.6218 -20.9174 -2.6058 0.1208 0 8
-4.4324 -20.9583 -2.6058 0.1208 0 8
-4.2427 -20.9976 -2.6058 0.1208 0 8
-4.0526 -21.0351 -2.6058 0.1208 0 8
-3.8622 -21.0709 -2.6058 0.1208 0 8
-3.6715 -21.1049 -2.6058 0.1208 0 8
-3.4805 -21.1373 -2.6058 0.1208 0 8
-3.2892 -21.1679 -2.6058 0.1208 0 8
-3.0976 -21.1968 -2.6058 0.1208 0 8
-2.9058 -21.2239 -2.6058 0.1208 0 8
-2.7137 -21.2493 -2.6058 0.1208 0 8
-2.5214 -21.2730 -2.6058 0.1208 0 8
-2.3289 -21.2950 -2.6058 0.1208 0 8
-2.1362 -21.3151 -2.6058 0.1208 0 8
-1.9434 -21.3336 -2.6058 0.1208 0 8
-1.7503 -21.3503 -2.6058 0.1208 0 8
-1.5572 -21.3652 -2.6058 0.1208 0 8
-1.3639 -21.3785 -2.6058 0.1208 0 8
-1.1705 -21.3899 -2.6058 0.1208 0 8
-0.9770 -21.3996 -2.6058 0.1208 0 8
-0.7834 -21.4076 -2.6058 0.1208 0 8
-0.5898 -21.4138 -2.6058 0.1208 0 8
-0.3961 -21.4183 -2.6058 0.1208 0 8
-0.2024 -21.4210 -2.6058 0.1208 0 8
-0.0086 -21.4219 -2.6058 0.1208 0 8
0.1851 -21.4211 -2.6058 0.1208 0 8
0.3789 -21.4186 -2.6058 0.1208 0 8
0.5725 -21.4143 -2.6058 0.1208 0 8
0.7662 -21.4082 -2.6058 0.1208 0 8
0.9598 -21.4004 -2.6058 0.1208 0 8
1.1533 -21.3909 -2.6058 0.1208 0 8
1.3467 -21.3795 -2.6058 0.1208 0 8
1.5400 -21.3665 -2.6058 0.1208 0 8
1.7332 -21.3517 -2.6058 0.1208 0 8
1.9262 -21.3351 -2.6058 0.1208 0 8
2.1191 -21.3169 -2.6058 0.1208 0 8
2.3118 -21.2968 -2.6058 0.1208 0 8
2.5043 -21.2750 -2.6058 0.1208 0 8
2.6966 -21.2515 -2.6058 0.1208 0 8
2.8887 -21.2263 -2.6058 0.1208 0 8
3.0805 -21.1993 -2.6058 0.1208 0 8
3.2721 -21.1705 -2.6058 0.1208 0 8
3.4635 -21.1401 -2.6058 0.1208 0 8
3.6545 -21.1079 -2.6058 0.1208 0 8
3.8453 -21.0740 -2.6058 0.1208 0 8
4.0357 -21.0383 -2.6058 0.1208 0 8
4.2258 -21.0010 -2.6058 0.1208 0 8
4.4156 -20.9619 -2.6058 0.1208 0 8
4.6050 -20.9211 -2.6058 0.1208 0 8
4.7940 -20.8786 -2.6058 0.1208 0 8
4.9826 -20.8344 -2.6058 0.1208 0 8
5.1709 -20.7885 -2.6058 0.1208 0 8
5.3587 -20.7409 -2.6058 0.1208 0 8
5.5460 -20.6916 -2.6058 0.1208 0 8
5.7329 -20.6405 -2.6058 0.1208 0 8
5.9194 -20.5879 -2.6058 0.1208 0 8
6.1053 -20.5335 -2.6058 0.1208 0 8
6.2908 -20.4774 -2.6058 0.1208 0 8
6.4757 -20.4197 -2.6058 0.1208 0 8
6.6601 -20.3603 -2.6058 0.1208 0 8
6.8440 -20.2992 -2.6058 0.1208 0 8
7.0273 -20.2365 -2.6058 0.1208 0 8
6.1022 -17.0725 -2.2054 0.2239 0 5
6.2313 -16.9487 -2.1966 0.9705 0 5
6.4519 -17.0702 -2.2198 0.2364 0 19
6.5875 -16.9635 -2.2136 0.9619 0 19
6.7565 -16.9430 -2.2188 0.9597 0 19
6.9205 -16.9082 -2.2224 0.9573 0 19
8.2935 -19.7514 -2.6058 0.1208 0 8
8.4718 -19.6755 -2.6058 0.1208 0 8
8.6494 -19.5981 -2.6058 0.1208 0 8
8.8263 -19.5191 -2.6058 0.1208 0 8
9.0025 -19.4385 -2.6058 0.1208 0 8
9.1779 -19.3563 -2.6058 0.1208 0 8
9.3526 -19.2725 -2.6058 0.1208 0 8
9.5265 -19.1871 -2.6058 0.1208 0 8
9.6996 -19.1002 -2.6058 0.1208 0 8
9.8720 -19.0116 -2.6058 0.1208 0 8
10.0435 -18.9216 -2.6058 0.1208 0 8
10.2142 -18.8300 -2.6058 0.1208 0 8
10.3841 -18.7368 -2.6058 0.1208 0 8
10.5531 -18.6422 -2.6058 0.1208 0 8
10.7213 -18.5460 -2.6058 0.1208 0 8
10.8886 -18.4482 -2.6058 0.1208 0 8
11.0550 -18.3490 -2.6058 0.1208 0 8
11.2205 -18.2483 -2.6058 0.1208 0 8
11.3851 -18.1460 -2.6058 0.1208 0 8
11.5487 -18.0423 -2.6058 0.1208 0 8
11.7114 -17.9372 -2.6058 0.1208 0 8
11.8732 -17.8305 -2.6058 0.1208 0 8
12.0339 -17.7224 -2.6058 0.1208 0 8
12.1937 -17.6128 -2.6058 0.1208 0 8
12.3525 -17.5018 -2.6058 0.1208 0 8
12.5103 -17.3894 -2.6058 0.1208 0 8
12.6671 -17.2755 -2.6058 0.1208 0 8
12.8228 -17.1603 -2.6058 0.1208 0 8
12.9775 -17.0436 -2.6058 0.1208 0 8
13.1311 -16.9255 -2.6058 0.1208 0 8
13.2836 -16.8061 -2.6058 0.1208 0 8
13.4351 -16.6853 -2.6058 0.1208 0 8
13.5854 -16.5631 -2.6058 0.1208 0 8
13.7347 -16.4395 -2.6058 0.1208 0 8
13.8828 -16.3146 -2.6058 0.1208 0 8
14.0298 -16.1884 -2.6058 0.1208 0 8
14.1756 -16.0609 -2.6058 0.1208 0 8
14.3203 -15.9320 -2.6058 0.1208 0 8
14.4638 -15.8018 -2.6058 0.1208 0 8
14.6061 -15.6704 -2.6058 0.1208 0 8
14.7472 -15.5376 -2.6058 0.1208 0 8
14.9047 -15.4218 -2.6089 0.6464 0 8
15.1412 -15.3856 -2.6258 0.7968 0 8
15.3840 -15.3520 -2.6437 0.7914 0 8
15.6301 -15.3180 -2.6621 0.7860 0 8
15.8796 -15.2835 -2.6809 0.7804 0 8
16.1327 -15.2484 -2.7003 0.7748 0 8
16.3894 -15.2128 -2.7201 0.7692 0 8
16.6500 -15.1766 -2.7405 0.7635 0 8
16.8550 -15.0867 -2.7516 0.1334 0 8
17.0036 -14.9449 -2.7537 0.1333 0 8
17.1511 -14.8018 -2.7558 0.1332 0 8
17.2976 -14.6574 -2.7579 0.1331 0 8
17.4311 -14.5018 -2.7582 0.1208 0 7
17.5616 -14.3435 -2.7582 0.1208 0 7
17.6906 -14.1841 -2.7582 0.1208 0 7
17.8181 -14.0235 -2.7582 0.1208 0 7
17.9443 -13.8618 -2.7582 0.1208 0 7
18.0689 -13.6989 -2.7582 0.1208 0 7
18.1920 -13.5350 -2.7582 0.1208 0 7
18.3137 -13.3699 -2.7582 0.1208 0 7
18.4339 -13.2037 -2.7582 0.1208 0 7
6.0816 -4.2734 -0.9042 0.4273 0 5
6.0878 -4.1960 -0.8994 0.8926 0 5
18.7853 -12.6988 -2.7582 0.1208 0 7
18.8994 -12.5284 -2.7582 0.1208 0 7
19.0119 -12.3569 -2.7582 0.1208 0 7
19.1229 -12.1845 -2.7582 0.1208 0 7
19.2323 -12.0110 -2.7582 0.1208 0 7
19.3401 -11.8366 -2.7582 0.1208 0 6
19.4464 -11.6612 -2.7582 0.1208 0 7
19.5511 -11.4848 -2.7582 0.1208 0 7
19.6541 -11.3076 -2.7582 0.1208 0 7
19.7556 -11.1293 -2.7582 0.1208 0 7
19.8554 -10.9502 -2.7582 0.1208 0 7
19.9537 -10.7702 -2.7582 0.1208 0 7
20.0503 -10.5893 -2.7582 0.1208 0 7
20.1452 -10.4075 -2.7582 0.1208 0 7
20.2385 -10.2249 -2.7582 0.1208 0 7
20.3301 -10.0415 -2.7582 0.1208 0 7
20.4201 -9.8572 -2.7582 0.1208 0 7
20.5084 -9.6721 -2.7582 0.1208 0 7
20.5951 -9.4862 -2.7582 0.1208 0 7
20.6800 -9.2996 -2.7582 0.1208 0 7
20.7633 -9.1122 -2.7582 0.1208 0 7
20.8448 -8.9240 -2.7582 0.1208 0 7
20.9247 -8.7351 -2.7582 0.1208 0 7
21.0029 -8.5455 -2.7582 0.1208 0 7
21.0793 -8.3552 -2.7582 0.1208 0 7
21.1540 -8.1642 -2.7582 0.1208 0 6
21.2270 -7.9726 -2.7582 0.1208 0 7
21.2982 -7.7803 -2.7582 0.1208 0 7
21.3677 -7.5873 -2.7582 0.1208 0 7
21.4354 -7.3938 -2.7582 0.1208 0 7
21.5014 -7.1996 -2.7582 0.1208 0 7
21.5657 -7.0049 -2.7582 0.1208 0 7
21.6281 -6.8095 -2.7582 0.1208 0 7
14.2854 -4.3561 -1.8167 0.9924 0 19
21.7478 -6.4172 -2.7582 0.1208 0 7
21.8049 -6.2203 -2.7582 0.1208 0 7
15.5520 -4.2848 -1.9623 0.6817 0 19
15.6877 -4.1699 -1.9745 0.9926 0 19
21.9656 -5.6264 -2.7582 0.1208 0 7
16.6870 -4.1139 -2.0906 0.4686 0 19
17.0727 -4.0455 -2.1343 0.9918 0 19
22.1102 -5.0285 -2.7582 0.1208 0 7
22.1548 -4.8283 -2.7582 0.1208 0 7
18.4770 -3.8521 -2.2959 0.9904 0 19
16.1900 -3.2228 -2.0080 0.1800 0 9
15.9979 -3.0344 -1.9807 0.7692 0 9
15.9707 -2.8799 -1.9740 0.9673 0 9
16.0339 -2.7418 -1.9787 0.9643 0 9
21.2091 -3.4296 -2.6134 0.1208 0 14
21.2392 -3.2376 -2.6134 0.1208 0 14
21.2676 -3.0454 -2.6134 0.1208 0 14
14.0101 -1.8770 -1.7194 0.1208 0 19
14.0265 -1.7502 -1.7194 0.1208 0 19
15.3704 -1.7769 -1.8821 0.7998 0 19
15.3505 -1.6341 -1.8778 0.9786 0 19
21.3836 -2.0809 -2.6134 0.1208 0 14
16.7469 -1.4769 -2.0450 0.9755 0 19
18.1741 -1.4373 -2.2176 0.8205 0 19
18.1616 -1.2711 -2.2146 0.5448 0 19
19.5320 -1.1896 -2.3803 0.9701 0 19
20.9717 -1.0870 -2.5545 0.8354 0 19
21.0131 -0.8987 -2.5584 0.5220 0 19
21.4724 -0.7238 -2.6134 0.1208 0 14
21.5661 -0.5318 -2.6241 0.1662 0 8
22.6720 -0.3539 -2.7582 0.1208 0 7
22.6743 -0.1489 -2.7582 0.1208 0 7
22.6747 0.0562 -2.7582 0.1208 0 7
22.6733 0.2613 -2.7582 0.1208 0 7
22.6700 0.4663 -2.7582 0.1208 0 7
22.6648 0.6713 -2.7582 0.1208 0 7
22.6578 0.8763 -2.7582 0.1208 0 7
22.6490 1.0812 -2.7582 0.1208 0 7
22.6383 1.2860 -2.7582 0.1208 0 7
22.6257 1.4907 -2.7582 0.1208 0 7
22.6113 1.6952 -2.7582 0.1208 0 7
22.5951 1.8996 -2.7582 0.1208 0 7
22.5770 2.1039 -2.7582 0.1208 0 7
22.5570 2.3080 -2.7582 0.1208 0 7
22.5352 2.5119 -2.7582 0.1208 0 7
22.5116 2.7156 -2.7582 0.1208 0 7
22.4861 2.9191 -2.7582 0.1208 0 7
22.4588 3.1224 -2.7582 0.1208 0 7
22.4296 3.3254 -2.7582 0.1208 0 7
22.3986 3.5281 -2.7582 0.1208 0 7
22.3658 3.7305 -2.7582 0.1208 0 7
22.3311 3.9326 -2.7582 0.1208 0 7
22.2947 4.1344 -2.7582 0.1208 0 7
22.2564 4.3359 -2.7582 0.1208 0 7
22.2162 4.5370 -2.7582 0.1208 0 7
22.1743 4.7377 -2.7582 0.1208 0 7
22.1305 4.9381 -2.7582 0.1208 0 7
22.0850 5.1381 -2.7582 0.1208 0 7
22.0376 5.3376 -2.7582 0.1208 0 7
21.9884 5.5367 -2.7582 0.1208 0 7
21.9375 5.7353 -2.7582 0.1208 0 7
21.8847 5.9335 -2.7582 0.1208 0 7
21.8301 6.1312 -2.7582 0.1208 0 7
21.7738 6.3283 -2.7582 0.1208 0 7
21.7157 6.5250 -2.7582 0.1208 0 7
21.6558 6.7211 -2.7582 0.1208 0 7
21.5941 6.9167 -2.7582 0.1208 0 7
21.5307 7.1117 -2.7582 0.1208 0 7
21.4655 7.3061 -2.7582 0.1208 0 7
21.3985 7.5000 -2.7582 0.1208 0 7
21.3298 7.6932 -2.7582 0.1208 0 7
21.2593 7.8858 -2.7582 0.1208 0 7
21.1872 8.0777 -2.7582 0.1208 0 7
21.1132 8.2690 -2.7582 0.1208 0 7
21.0376 8.4596 -2.7582 0.1208 0 7
17.2509 7.1188 -2.2701 0.3915 0 10
16.6276 7.0383 -2.1963 0.2523 0 10
16.0859 6.9812 -2.1330 0.3086 0 10
15.5849 6.9319 -2.0748 0.2845 0 10
14.9961 6.8332 -2.0046 0.2035 0 10
14.5173 6.7742 -1.9487 0.3560 0 10
14.1311 6.7503 -1.9050 0.3491 0 10
13.9495 6.8192 -1.8887 0.1316 0 10
14.0118 7.0073 -1.9057 0.1808 0 10
13.9630 7.1415 -1.9078 0.1806 0 10
13.9094 7.2736 -1.9093 0.1834 0 10
13.8532 7.4045 -1.9107 0.1833 0 10
13.7961 7.5352 -1.9122 0.1831 0 10
13.7442 7.6690 -1.9145 0.1764 0 10
13.6971 7.8060 -1.9177 0.1761 0 10
13.6490 7.9430 -1.9210 0.1759 0 10
13.5974 8.0784 -1.9239 0.1790 0 10
13.5416 8.2119 -1.9264 0.1788 0 10
13.4804 8.3424 -1.9284 0.4686 0 10
18.1132 11.4373 -2.6058 0.1208 0 8
18.0090 11.6007 -2.6058 0.1208 0 8
17.9033 11.7631 -2.6058 0.1208 0 8
17.7962 11.9245 -2.6058 0.1208 0 8
17.6876 12.0850 -2.6058 0.1208 0 8
17.5776 12.2444 -2.6058 0.1208 0 8
17.4662 12.4029 -2.6058 0.1208 0 8
17.3533 12.5604 -2.6058 0.1208 0 8
17.2390 12.7168 -2.6058 0.1208 0 8
17.1233 12.8722 -2.6058 0.1208 0 8
17.0061 13.0265 -2.6058 0.1208 0 8
16.8876 13.1798 -2.6058 0.1208 0 8
16.7677 13.3320 -2.6058 0.1208 0 8
16.6465 13.4831 -2.6058 0.1208 0 8
16.5239 13.6331 -2.6058 0.1208 0 8
16.3999 13.7820 -2.6058 0.1208 0 8
16.2746 13.9297 -2.6058 0.1208 0 8
16.1479 14.0763 -2.6058 0.1208 0 8
16.0200 14.2218 -2.6058 0.1208 0 8
15.8907 14.3661 -2.6058 0.1208 0 8
15.7601 14.5092 -2.6058 0.1208 0 8
15.6282 14.6512 -2.6058 0.1208 0 8
15.4951 14.7919 -2.6058 0.1208 0 8
15.3607 14.9315 -2.6058 0.1208 0 8
15.2250 15.0698 -2.6058 0.1208 0 8
15.0881 15.2069 -2.6058 0.1208 0 8
14.9500 15.3427 -2.6058 0.1208 0 8
14.8106 15.4773 -2.6058 0.1208 0 8
14.6700 15.6106 -2.6058 0.1208 0 8
14.5282 15.7426 -2.6058 0.1208 0 8
14.3852 15.8734 -2.6058 0.1208 0 8
14.2411 16.0028 -2.6058 0.1208 0 8
14.0958 16.1310 -2.6058 0.1208 0 8
13.9493 16.2578 -2.6058 0.1208 0 8
13.8017 16.3833 -2.6058 0.1208 0 8
13.6530 16.5074 -2.6058 0.1208 0 8
13.5031 16.6302 -2.6058 0.1208 0 8
13.3522 16.7517 -2.6058 0.1208 0 8
13.2001 16.8717 -2.6058 0.1208 0 8
13.0470 16.9904 -2.6058 0.1208 0 8
12.8928 17.1077 -2.6058 0.1208 0 8
12.7375 17.2236 -2.6058 0.1208 0 8
12.5813 17.3381 -2.6058 0.1208 0 8
12.4239 17.4512 -2.6058 0.1208 0 8
12.2656 17.5629 -2.6058 0.1208 0 8
12.1063 17.6731 -2.6058 0.1208 0 8
11.9459 17.7818 -2.6058 0.1208 0 8
11.7846 17.8891 -2.6058 0.1208 0 8
11.6223 17.9950 -2.6058 0.1208 0 8
11.4591 18.0994 -2.6058 0.1208 0 8
11.2950 18.2023 -2.6058 0.1208 0 8
11.1299 18.3037 -2.6058 0.1208 0 8
10.9639 18.4036 -2.6058 0.1208 0 8
10.7970 18.5020 -2.6058 0.1208 0 8
10.6292 18.5989 -2.6058 0.1208 0 8
10.4606 18.6943 -2.6058 0.1208 0 8
10.2911 18.7881 -2.6058 0.1208 0 8
10.1208 18.8804 -2.6058 0.1208 0 8
9.9496 18.9712 -2.6058 0.1208 0 8
9.7776 19.0604 -2.6058 0.1208 0 8
9.6048 19.1480 -2.6058 0.1208 0 8
9.4313 19.2341 -2.6058 0.1208 0 8
9.2569 19.3186 -2.6058 0.1208 0 8
9.0818 19.4015 -2.6058 0.1208 0 8
8.9060 19.4829 -2.6058 0.1208 0 8
8.7294 19.5626 -2.6058 0.1208 0 8
8.5521 19.6408 -2.6058 0.1208 0 8
8.3741 19.7173 -2.6058 0.1208 0 8
8.1955 19.7922 -2.6058 0.1208 0 8
8.0161 19.8656 -2.6058 0.1208 0 8
7.8362 19.9372 -2.6058 0.1208 0 8
7.6555 20.0073 -2.6058 0.1208 0 8
7.4743 20.0757 -2.6058 0.1208 0 8
7.2924 20.1425 -2.6058 0.1208 0 8
7.1099 20.2076 -2.6058 0.1208 0 8
6.9269 20.2711 -2.6058 0.1208 0 8
6.7433 20.3329 -2.6058 0.1208 0 8
5.3323 16.5789 -2.1184 0.7563 0 19
5.1700 16.5876 -2.1135 0.9362 0 19
5.0789 16.8293 -2.1383 0.1654 0 19
6.0034 20.5635 -2.6058 0.1208 0 8
5.8172 20.6170 -2.6058 0.1208 0 8
5.6305 20.6687 -2.6058 0.1208 0 8
5.4434 20.7188 -2.6058 0.1208 0 8
5.2557 20.7672 -2.6058 0.1208 0 8
5.0677 20.8139 -2.6058 0.1208 0 8
4.8793 20.8589 -2.6058 0.1208 0 8
4.6904 20.9021 -2.6058 0.1208 0 8
4.5012 20.9437 -2.6058 0.1208 0 8
4.3116 20.9835 -2.6058 0.1208 0 8
4.1217 21.0217 -2.6058 0.1208 0 8
3.9314 21.0581 -2.6058 0.1208 0 8
3.7408 21.0928 -2.6058 0.1208 0 8
3.5498 21.1258 -2.6058 0.1208 0 8
3.3586 21.1570 -2.6058 0.1208 0 8
3.1672 21.1865 -2.6058 0.1208 0 8
2.9754 21.2143 -2.6058 0.1208 0 8
2.7834 21.2403 -2.6058 0.1208 0 8
2.5912 21.2646 -2.6058 0.1208 0 8
2.3988 21.2872 -2.6058 0.1208 0 8
0.8530 8.2386 -1.0075 0.1672 0 5
0.7739 8.1977 -1.0016 0.9776 0 5
1.8204 21.3444 -2.6058 0.1208 0 8
1.6273 21.3600 -2.6058 0.1208 0 8
1.4340 21.3739 -2.6058 0.1208 0 8
1.2407 21.3860 -2.6058 0.1208 0 8
1.0472 21.3963 -2.6058 0.1208 0 8
0.8537 21.4049 -2.6058 0.1208 0 8
0.6600 21.4118 -2.6058 0.1208 0 8
0.4664 21.4169 -2.6058 0.1208 0 8
0.2727 21.4202 -2.6058 0.1208 0 8
0.0789 21.4218 -2.6058 0.1208 0 8
-0.1148 21.4216 -2.6058 0.1208 0 8
-0.3086 21.4197 -2.6058 0.1208 0 8
-0.5023 21.4160 -2.6058 0.1208 0 8
-0.6959 21.4106 -2.6058 0.1208 0 8
-0.8895 21.4034 -2.6058 0.1208 0 8
-1.0831 21.3945 -2.6058 0.1208 0 8
-1.2765 21.3839 -2.6058 0.1208 0 8
-1.4699 21.3714 -2.6058 0.1208 0 8
-1.6631 21.3573 -2.6058 0.1208 0 8
-1.8562 21.3414 -2.6058 0.1208 0 8
-2.0491 21.3237 -2.6058 0.1208 0 8
-2.2419 21.3043 -2.6058 0.1208 0 8
-2.4345 21.2831 -2.6058 0.1208 0 8
-2.6269 21.2603 -2.6058 0.1208 0 8
-2.8190 21.2356 -2.6058 0.1208 0 8
-3.0110 21.2093 -2.6058 0.1208 0 8
-3.2027 21.1812 -2.6058 0.1208 0 8
-3.3941 21.1513 -2.6058 0.1208 0 8
-3.5852 21.1198 -2.6058 0.1208 0 8
-3.7761 21.0865 -2.6058 0.1208 0 8
-3.9666 21.0515 -2.6058 0.1208 0 8
-4.1569 21.0147 -2.6058 0.1208 0 8
-4.3468 20.9763 -2.6058 0.1208 0 8
-4.5363 20.9361 -2.6058 0.1208 0 8
-4.7255 20.8942 -2.6058 0.1208 0 8
-4.9142 20.8506 -2.6058 0.1208 0 8
-5.1026 20.8053 -2.6058 0.1208 0 8
19.0797 -0.0000 -2.7582 0.1431 0 7
19.0789 0.1725 -2.7582 0.1431 0 7
19.0766 0.3451 -2.7582 0.1431 0 7
19.0727 0.5176 -2.7582 0.1431 0 7
19.0672 0.6901 -2.7582 0.1431 0 7
19.0602 0.8625 -2.7582 0.1431 0 7
19.0516 1.0348 -2.7582 0.1431 0 7
19.0415 1.2071 -2.7582 0.1431 0 7
19.0298 1.3793 -2.7582 0.1431 0 7
19.0165 1.5513 -2.7582 0.1431 0 7
19.0017 1.7232 -2.7582 0.1431 0 7
18.9854 1.8950 -2.7582 0.1431 0 7
18.9675 2.0666 -2.7582 0.1431 0 7
18.9480 2.2381 -2.7582 0.1431 0 7
18.9270 2.4094 -2.7582 0.1431 0 7
18.9044 2.5805 -2.7582 0.1431 0 7
18.8803 2.7513 -2.7582 0.1431 0 7
18.8546 2.9220 -2.7582 0.1431 0 7
18.8274 3.0924 -2.7582 0.1431 0 7
18.7987 3.2625 -2.7582 0.1431 0 7
18.7684 3.4324 -2.7582 0.1431 0 7
18.7366 3.6020 -2.7582 0.1431 0 7
18.7033 3.7713 -2.7582 0.1431 0 7
18.6684 3.9403 -2.7582 0.1431 0 7
18.6320 4.1090 -2.7582 0.1431 0 7
18.5941 4.2773 -2.7582 0.1431 0 7
18.5546 4.4453 -2.7582 0.1431 0 7
18.5137 4.6129 -2.7582 0.1431 0 7
18.4712 4.7802 -2.7582 0.1431 0 7
18.4272 4.9470 -2.7582 0.1431 0 7
18.3817 5.1135 -2.7582 0.1431 0 7
18.3347 5.2795 -2.7582 0.1431 0 7
18.2862 5.4451 -2.7582 0.1431 0 7
18.2362 5.6103 -2.7582 0.1431 0 7
18.1847 5.7750 -2.7582 0.1431 0 7
18.1318 5.9392 -2.7582 0.1431 0 7
18.0773 6.1030 -2.7582 0.1431 0 7
18.0214 6.2662 -2.7582 0.1431 0 7
17.9640 6.4289 -2.7582 0.1431 0 7
17.9051 6.5911 -2.7582 0.1431 0 6
17.8447 6.7528 -2.7582 0.1431 0 7
17.7829 6.9139 -2.7582 0.1431 0 7
17.7197 7.0745 -2.7582 0.1431 0 7
17.4328 7.1434 -2.7235 0.2606 0 10
17.3171 7.2796 -2.7156 0.2699 0 10
16.4474 7.0897 -2.5892 0.2716 0 10
15.8176 6.9885 -2.4999 0.1381 0 10
15.3550 6.9508 -2.4366 0.2974 0 10
14.7686 6.8469 -2.3533 0.8214 0 10
14.1536 6.7180 -2.2649 0.3885 0 10
13.7252 6.6674 -2.2059 0.7712 0 10
13.6095 6.7640 -2.1970 0.9451 0 10
13.5950 6.9108 -2.2047 0.9371 0 10
13.5768 7.0568 -2.2120 0.9340 0 10
13.5555 7.2022 -2.2190 0.9133 0 10
13.5388 7.3511 -2.2271 0.8326 0 10
13.5348 7.5082 -2.2375 0.3148 0 10
13.5366 7.6701 -2.2492 0.3131 0 10
13.5389 7.8340 -2.2612 0.3114 0 10
13.5417 8.0000 -2.2737 0.3097 0 10
13.5389 8.1644 -2.2855 0.6288 0 10
13.5277 8.3254 -2.2963 0.6259 0 10
15.2651 9.5861 -2.6058 0.1431 0 8
15.1778 9.7238 -2.6058 0.1431 0 8
15.0893 9.8607 -2.6058 0.1431 0 8
14.9995 9.9967 -2.6058 0.1431 0 8
14.9084 10.1320 -2.6058 0.1431 0 8
14.8162 10.2664 -2.6058 0.1431 0 8
14.7227 10.4000 -2.6058 0.1431 0 8
14.6281 10.5327 -2.6058 0.1431 0 8
14.5322 10.6646 -2.6058 0.1431 0 8
14.4352 10.7956 -2.6058 0.1431 0 8
14.3370 10.9257 -2.6058 0.1431 0 8
14.2376 11.0549 -2.6058 0.1431 0 8
14.1370 11.1832 -2.6058 0.1431 0 8
14.0353 11.3106 -2.6058 0.1431 0 8
13.9324 11.4371 -2.6058 0.1431 0 8
13.8284 11.5626 -2.6058 0.1431 0 8
13.7233 11.6872 -2.6058 0.1431 0 8
13.6170 11.8108 -2.6058 0.1431 0 8
13.5096 11.9335 -2.6058 0.1431 0 8
13.4012 12.0552 -2.6058 0.1431 0 8
13.2916 12.1759 -2.6058 0.1431 0 8
