ply
format ascii 1.0
element vertex 1388
property float32 x
property float32 y
property float32 z
property float32 CosAngle
property uint32 ObjIdx
property uint32 ObjTag
end_header
21.8244 -5.2928 3.3756 0.3446 0 9
20.2461 -4.7164 3.1248 0.3096 0 9
20.1119 -4.4937 3.0976 0.8442 0 9
19.2143 -4.1109 2.9535 0.6635 0 9
19.1424 -3.9147 2.9369 0.6681 0 9
19.0838 -3.7231 2.9227 0.6668 0 9
19.1356 -3.5538 2.9255 0.6908 0 9
19.2455 -3.3943 2.9375 0.8378 0 9
19.4836 -3.2548 2.9692 0.4619 0 9
19.4617 -3.0704 2.9616 0.7944 0 9
19.5536 -2.9037 2.9714 0.7889 0 9
19.7746 -2.7539 3.0011 0.9027 0 9
25.9939 -3.3805 3.9402 0.5297 0 9
19.8701 -2.4015 3.0085 0.9450 0 9
19.8952 -2.2220 3.0091 0.4013 0 9
18.9786 -1.9459 2.8677 0.7508 0 9
18.9791 -1.7726 2.8653 0.9483 0 9
19.2508 -1.6224 2.9039 0.9984 0 9
19.1028 -1.4359 2.8795 0.5155 0 9
19.2688 -1.2731 2.9027 0.5001 0 9
19.8259 -1.1298 2.9850 0.9457 0 9
19.9940 -0.9580 3.0088 0.3491 0 9
19.5131 -0.7580 2.9353 0.4985 0 9
20.1176 -0.5992 3.0253 0.9797 0 9
20.1076 -0.4168 3.0231 0.9813 0 9
20.2525 -0.2365 3.0445 0.5474 0 9
19.8949 -0.0523 2.9905 0.8606 0 9
19.9853 0.1284 3.0041 0.7134 0 9
20.2876 0.3139 3.0499 0.6726 0 9
20.4505 0.5016 3.0749 0.6649 0 9
23.9560 0.8045 3.6030 0.1942 0 9
23.8523 1.0172 3.5886 0.6865 0 9
34.9140 1.8057 5.2551 0.9326 0 9
35.6323 2.1663 5.3659 0.5103 0 9
35.4515 2.4775 5.3419 0.3232 0 9
34.4392 2.7202 5.1928 0.7078 0 9
35.3154 3.1112 5.3290 0.7285 0 9
35.1403 3.4165 5.3070 0.9722 0 9
35.2890 3.7536 5.3344 0.8250 0 9
34.4069 3.9750 5.2063 0.2498 0 9
34.7596 4.6547 5.2715 0.4613 0 9
36.6782 5.2499 5.5694 0.3598 0 9
13.0478 9.3506 2.4129 0.6014 0 5
19.3693 32.8546 5.7329 0.4257 0 9
18.8521 32.6492 5.6670 0.7554 0 9
18.7595 33.1785 5.7292 0.1809 0 9
18.3528 33.1560 5.6964 0.5248 0 9
17.3168 31.9637 5.4644 0.5718 0 9
16.8415 31.7696 5.4049 0.4626 0 9
16.3615 31.5507 5.3423 0.5415 0 9
16.3891 32.3162 5.4466 0.6102 0 9
16.5622 33.4036 5.6044 0.6189 0 9
15.9429 32.8994 5.4953 0.8857 0 9
15.6996 33.1586 5.5147 0.7425 0 9
15.4564 33.4236 5.5352 0.8577 0 9
15.1906 33.6448 5.5489 0.8839 0 9
15.0537 34.1626 5.6116 0.4773 0 9
14.8930 34.6442 5.6683 0.7242 0 9
13.8814 33.9728 5.5164 0.4275 0 9
14.0978 35.4144 5.7296 0.7790 0 9
13.4409 34.6741 5.5899 0.7871 0 9
13.4542 35.6629 5.7294 0.9406 0 9
13.2148 37.0451 5.9121 0.5775 0 9
12.6616 36.5357 5.8123 0.6886 0 9
12.1701 36.1721 5.7367 0.4768 0 9
11.8316 36.2483 5.7315 0.6357 0 9
11.4823 36.2882 5.7212 0.4970 0 9
11.1896 36.5084 5.7397 0.0522 0 9
10.5175 35.4577 5.5593 0.8237 0 9
10.5881 36.9179 5.7730 0.2697 0 9
6.2064 22.4034 3.4944 0.2238 0 9
5.9442 22.2370 3.4599 0.6624 0 9
8.8332 34.2853 5.3219 0.7217 0 9
5.5604 22.4203 3.4722 0.2959 0 9
5.2946 22.2065 3.4315 0.4940 0 9
5.0838 22.2116 3.4251 0.7024 0 9
4.8786 22.2387 3.4223 0.3742 0 9
5.0477 24.0470 3.6934 0.4736 0 9
4.3490 21.6932 3.3257 0.5387 0 9
4.1487 21.7119 3.3226 0.5392 0 9
3.8822 21.3641 3.2639 0.1471 0 9
3.6588 21.2244 3.2374 0.6668 0 9
3.5725 21.9062 3.3363 0.8064 0 9
3.2530 21.1507 3.2166 0.7466 0 9
3.0807 21.3120 3.2368 0.5626 0 9
2.8795 21.2783 3.2276 0.5095 0 9
2.7584 21.8712 3.3136 0.7066 0 9
2.4418 20.8814 3.1602 0.4973 0 9
2.3067 21.4038 3.2359 0.8769 0 9
2.0482 20.7669 3.1367 0.7756 0 9
1.8284 20.4295 3.0831 0.0318 0 9
21.1754 0.0000 2.6969 0.2094 0 9
23.4242 0.2120 2.9834 0.4379 0 9
34.5279 0.6250 4.3982 0.6361 0 9
34.6487 0.9409 4.4144 0.7459 0 9
33.6700 1.2194 4.2910 0.8834 0 9
34.9126 1.5808 4.4510 0.5070 0 9
34.9284 1.8984 4.4550 0.6337 0 9
35.3543 2.2427 4.5117 0.3138 0 9
36.8372 2.6716 4.7039 0.6351 0 9
36.5392 2.9827 4.6691 0.3958 0 9
36.4253 3.3054 4.6582 0.6096 0 9
36.5204 3.6476 4.6743 0.5206 0 9
18.4117 30.7768 4.5676 0.3024 0 9
17.8453 31.0938 4.5659 0.6654 0 9
17.6157 31.3475 4.5796 0.6339 0 9
17.6891 32.1561 4.6741 0.7781 0 9
17.6342 32.7548 4.7378 0.9301 0 9
17.3464 32.9308 4.7403 0.7631 0 9
17.7726 34.4933 4.9419 0.4009 0 9
16.6919 33.1289 4.7246 0.9601 0 9
16.4565 33.4107 4.7433 0.9695 0 9
16.0561 33.3560 4.7147 0.9454 0 9
15.8215 33.6444 4.7351 0.4039 0 9
15.4987 33.7477 4.7297 0.4268 0 9
15.2418 33.9960 4.7449 0.7331 0 9
15.1620 34.6549 4.8176 0.9979 0 9
14.4356 33.8250 4.6838 0.9055 0 9
14.4727 34.7804 4.7978 0.9708 0 9
14.3776 35.4531 4.8724 0.8955 0 9
14.0308 35.5175 4.8636 0.5424 0 9
13.7835 35.8371 4.8901 0.5307 0 9
13.5059 36.0868 4.9073 0.9511 0 9
13.3154 36.5830 4.9582 0.9497 0 9
12.5280 37.5622 5.0429 0.2302 0 9
12.0507 37.2509 4.9863 0.2971 0 9
10.8947 34.7482 4.6379 0.3444 0 9
10.0705 33.1682 4.4147 0.7966 0 9
10.0625 34.2539 4.5469 0.5919 0 9
9.7780 34.4346 4.5589 0.0725 0 9
9.1417 33.3392 4.4028 0.6050 0 9
8.8362 33.4077 4.4011 0.8100 0 9
8.1379 31.9336 4.1970 0.4819 0 9
7.4684 30.4558 3.9937 0.6095 0 9
7.1595 30.3820 3.9754 0.5563 0 9
4.9916 22.0755 2.8825 0.6582 0 9
4.7594 21.9709 2.8631 0.3141 0 9
6.1818 29.8395 3.8810 0.4958 0 9
5.8887 29.7791 3.8661 0.7976 0 9
5.6700 30.1021 3.9012 0.7839 0 9
5.4675 30.5438 3.9519 0.7439 0 9
5.4785 32.2874 4.1709 0.3408 0 9
5.2143 32.5118 4.1936 0.0401 0 9
3.4704 22.9657 2.9581 0.7566 0 9
3.1639 22.3013 2.8687 0.4724 0 9
2.9696 22.3871 2.8762 0.3276 0 9
2.9580 23.9608 3.0748 0.7394 0 9
2.7417 23.9926 3.0756 0.7435 0 9
2.4454 23.2640 2.9792 0.6609 0 9
2.2383 23.3216 2.9839 0.8723 0 9
1.8389 21.1738 2.7068 0.5676 0 9
1.6532 21.2667 2.7167 0.7389 0 9
1.4575 21.2338 2.7107 0.5398 0 9
1.3138 22.0618 2.8148 0.7054 0 9
1.0779 21.3548 2.7232 0.3703 0 9
0.8396 20.2784 2.5849 0.7519 0 9
0.6573 20.3212 2.5894 0.7505 0 9
0.4613 19.8079 2.5234 0.4606 0 9
0.2832 19.8940 2.5339 0.6242 0 9
0.1027 19.8080 2.5228 0.6274 0 9
-0.0811 20.9766 2.6716 0.8406 0 9
-0.2711 20.9837 2.6727 0.9097 0 9
-0.4581 20.8503 2.6561 0.6371 0 9
-0.6510 20.9829 2.6736 0.7537 0 9
-0.8363 20.8621 2.6591 0.7617 0 9
-1.0289 20.9311 2.6690 0.7536 0 9
-1.2325 21.1654 2.7002 0.7069 0 9
-1.4407 21.4020 2.7319 0.8309 0 9
-1.6234 21.2442 2.7135 0.4568 0 9
-1.8389 21.5020 2.7485 0.3663 0 9
-2.0742 21.9147 2.8035 0.5586 0 9
-2.2584 21.7605 2.7863 0.2237 0 9
-3.0017 24.5807 3.1538 0.9150 0 9
-3.2459 24.7188 3.1752 0.3023 0 9
-3.4446 24.5118 3.1525 0.5704 0 9
-3.9262 24.6879 3.1837 0.4178 0 9
-4.1414 24.6036 3.1776 0.5821 0 9
-4.3789 24.6496 3.1885 0.5708 0 9
-10.4233 25.1421 3.4663 0.3919 0 9
-10.7176 23.9894 3.3463 0.3278 0 9
-10.8188 23.6391 3.3110 0.4102 0 9
-10.7953 23.0347 3.2399 0.4634 0 9
-10.9936 22.9157 3.2370 0.4639 0 9
-11.2716 22.9601 3.2575 0.1628 0 9
-11.5061 22.9113 3.2653 0.8121 0 9
-11.6818 22.7456 3.2566 0.7504 0 9
-11.4181 21.7456 3.1281 0.7780 0 9
-11.5466 21.5150 3.1098 0.3562 0 9
-11.8629 21.6322 3.1421 0.7432 0 9
-12.1153 21.6260 3.1570 0.4164 0 9
-11.9216 20.8357 3.0573 0.4630 0 9
-12.3419 21.1244 3.1159 0.4147 0 9
-12.7191 21.3246 3.1623 0.8241 0 9
-13.2980 21.8435 3.2569 0.1087 0 9
-14.2223 22.8927 3.4324 0.7045 0 9
-13.9657 22.0324 3.3223 0.5679 0 9
-14.1590 21.8965 3.3210 0.9973 0 9
-14.3306 21.7281 3.3150 0.9742 0 9
-20.0370 29.7900 4.5724 0.7678 0 9
-14.4727 21.1023 3.2589 0.2079 0 9
-14.6801 20.9949 3.2627 0.3967 0 9
-15.0081 21.0556 3.2931 0.7673 0 9
-15.3788 21.1678 3.3323 0.0676 0 9
-15.6172 21.0918 3.3424 0.3605 0 9
-15.5713 20.6367 3.2925 0.7207 0 9
-17.0970 22.2372 3.5724 0.1433 0 9
-17.7017 22.5976 3.6559 0.6167 0 9
-18.1541 22.7480 3.7067 0.8642 0 9
-18.4417 22.6842 3.7233 0.8604 0 9
-23.3249 28.1662 4.6576 0.7570 0 9
-23.7448 28.1506 4.6903 0.4615 0 9
-24.0470 27.9910 4.6998 0.5677 0 9
-24.7112 28.2429 4.7795 0.5485 0 9
-26.6753 5.4187 3.4667 0.9873 0 5
-37.9890 -4.0913 4.8662 0.5192 0 9
-36.7497 -4.2946 4.7123 0.3463 0 9
-36.5359 -4.6051 4.6900 0.6903 0 9
-34.2200 -4.9440 4.4035 0.5424 0 9
-33.9104 -5.2129 4.3695 0.8506 0 9
-33.7962 -5.5089 4.3611 0.5602 0 9
-33.9017 -5.8415 4.3813 0.7317 0 9
-15.3280 -2.7842 1.9841 0.3748 0 9
-15.2798 -2.9185 1.9812 0.7589 0 9
-15.1093 -3.0279 1.9626 0.6185 0 9
-15.0222 -3.1521 1.9549 0.1036 0 9
-14.8879 -3.2649 1.9412 0.6298 0 9
-14.4424 -3.3045 1.8869 0.7609 0 9
-14.4450 -3.4429 1.8912 0.8383 0 9
-14.4429 -3.5808 1.8951 0.8395 0 9
-14.2199 -3.6625 1.8701 0.3850 0 9
-14.0878 -3.7647 1.8572 0.4519 0 9
-13.9727 -3.8698 1.8465 0.8487 0 9
-13.9034 -3.9864 1.8421 0.8728 0 9
-13.8441 -4.1053 1.8391 0.8809 0 9
-13.7554 -4.2148 1.8323 0.7661 0 9
-13.5468 -4.2854 1.8096 0.7987 0 9
-13.5069 -4.4076 1.8095 0.7988 0 9
-13.4772 -4.5333 1.8109 0.2906 0 9
-34.3696 -11.9081 4.6326 0.5404 0 9
-13.5174 -4.8209 1.8278 0.8318 0 9
-13.4835 -4.9468 1.8292 0.8229 0 9
-14.4728 -5.4588 1.9700 0.7211 0 9
-14.2827 -5.5353 1.9509 0.7927 0 9
-14.2420 -5.6683 1.9522 0.7716 0 9
-14.2229 -5.8103 1.9567 0.7847 0 9
-14.7477 -6.1810 2.0365 0.8458 0 9
-14.5782 -6.2657 2.0209 0.9697 0 9
-14.5498 -6.4101 2.0249 0.9902 0 9
-14.5006 -6.5457 2.0262 0.9758 0 9
-15.7403 -7.2775 2.2086 0.9826 0 9
-16.0423 -7.5941 2.2605 0.3881 0 9
-13.8828 -6.8821 1.9734 0.5278 0 9
-17.4030 -8.8243 2.4851 0.4036 0 9
-14.2484 -7.3876 2.0441 0.5208 0 9
-13.8324 -7.3314 1.9938 0.4946 0 9
-13.7419 -7.4435 1.9904 0.4996 0 9
-14.1944 -7.8556 2.0662 0.6133 0 9
-14.1476 -7.9978 2.0698 0.6609 0 9
-13.9078 -8.3684 2.0672 0.3609 0 9
-14.0202 -8.6098 2.0954 0.8354 0 9
-6.9687 -5.4008 1.1229 0.8089 0 5
-6.9416 -5.4811 1.1264 0.5660 0 5
-21.8410 -19.9736 3.7694 0.8529 0 5
-1.9181 -18.0200 2.3080 0.9741 0 5
3.1955 -4.9560 0.7510 0.2020 0 9
3.1469 -4.7850 0.7294 0.8494 0 9
3.1734 -4.7315 0.7256 0.8538 0 9
3.1974 -4.6752 0.7214 0.8149 0 9
3.2228 -4.6220 0.7176 0.9679 0 9
3.2708 -4.6016 0.7190 0.9661 0 9
3.3190 -4.5810 0.7205 0.9641 0 9
3.3668 -4.5596 0.7219 0.9666 0 9
3.4169 -4.5408 0.7238 0.4759 0 9
3.5158 -4.5853 0.7359 0.5156 0 9
20.8610 -6.2757 2.7745 0.6164 0 9
20.9411 -6.0937 2.7777 0.8180 0 9
20.2500 -5.6943 2.6790 0.5168 0 9
12.8655 -3.4925 1.6978 0.9912 0 5
20.1426 -5.2726 2.6518 0.7469 0 9
19.9451 -5.0285 2.6197 0.5623 0 9
19.9761 -4.8445 2.6179 0.3378 0 9
19.8586 -4.6261 2.5969 0.8733 0 9
19.9424 -4.4558 2.6025 0.7285 0 9
19.9248 -4.2629 2.5950 0.8494 0 9
23.3433 -4.7738 3.0345 0.4075 0 9
20.2458 -3.7600 2.6226 0.8420 0 9
20.5659 -3.6272 2.6597 0.8183 0 9
19.9928 -3.3398 2.5815 0.6480 0 9
20.0498 -3.1631 2.5851 0.4743 0 9
20.1183 -2.9876 2.5903 0.4747 0 9
20.4780 -2.8519 2.6332 0.8241 0 9
19.9218 -2.5908 2.5586 0.3503 0 9
20.0806 -2.4269 2.5760 0.3453 0 9
20.2262 -2.2590 2.5920 0.3432 0 9
20.2570 -2.0770 2.5934 0.4413 0 9
23.9899 -2.2406 3.0686 0.5692 0 9
24.0574 -2.0274 3.0748 0.5708 0 9
22.3394 -1.6792 2.8531 0.5711 0 9
20.3485 -1.3445 2.5972 0.6733 0 9
20.9702 -1.1950 2.6751 0.4711 0 9
20.3260 -0.9739 2.5917 0.3815 0 9
20.6927 -0.8038 2.6374 0.8425 0 9
20.7497 -0.6180 2.6438 0.4732 0 9
20.5055 -0.4251 2.6121 0.8682 0 9
20.6004 -0.2406 2.6238 0.5238 0 9
23.1663 -0.0609 2.9504 0.6626 0 9
20.9271 0.1344 2.6653 0.2356 0 9
24.7092 0.3823 3.1473 0.6045 0 9
34.6028 0.8487 4.4083 0.7648 0 9
33.6607 1.1305 4.2894 0.8838 0 9
35.0422 1.4944 4.4670 0.4249 0 9
34.8754 1.8037 4.4476 0.6565 0 9
35.3229 2.1475 4.5070 0.7024 0 9
36.8048 2.5721 4.6989 0.9841 0 9
36.3624 2.8721 4.6455 0.8041 0 9
36.4450 3.2107 4.6596 0.9257 0 9
36.4630 3.5451 4.6658 0.2079 0 9
33.0251 10.7289 4.4224 0.9664 0 5
13.0467 9.3498 2.0442 0.6034 0 5
18.3264 31.0855 4.5958 0.2566 0 9
17.9479 31.0831 4.5713 0.6630 0 9
17.6417 31.2016 4.5650 0.6485 0 9
17.7686 32.1007 4.6728 0.7783 0 9
17.5831 32.4552 4.7011 0.4893 0 9
17.4042 32.8310 4.7325 0.7239 0 9
17.0745 32.9256 4.7237 0.8548 0 9
16.7915 33.1097 4.7281 0.9594 0 9
16.5073 33.2928 4.7327 0.9004 0 9
16.1583 33.3438 4.7190 0.9400 0 9
16.3602 34.5537 4.8691 0.1169 0 9
15.6619 33.8680 4.7523 0.7665 0 9
15.2791 33.8407 4.7289 0.9242 0 9
15.2852 34.6879 4.8277 0.9791 0 9
14.5201 33.7767 4.6824 0.9059 0 9
14.5579 34.7276 4.7958 0.9746 0 9
14.3957 35.2315 4.8472 0.6530 0 9
14.0723 35.3504 4.8458 0.5328 0 9
13.8529 35.7370 4.8814 0.5131 0 9
13.5883 36.0185 4.9029 0.4996 0 9
13.2961 36.2332 4.9155 0.6347 0 9
13.0498 36.5824 4.9467 0.3235 0 9
12.2087 37.4036 5.0110 0.3026 0 9
10.6735 33.7320 4.5060 0.1686 0 9
10.1688 33.1780 4.4195 0.4745 0 9
10.3313 34.8301 4.6270 0.8448 0 9
9.9794 34.7958 4.6102 0.3664 0 9
9.2343 33.3332 4.4052 0.6002 0 9
8.8890 33.2534 4.3838 0.7360 0 9
8.2311 31.9482 4.2018 0.6007 0 9
7.5659 30.5064 4.0030 0.6058 0 9
7.2594 30.4472 3.9864 0.5428 0 9
5.0482 22.0558 2.8816 0.2746 0 9
4.8071 21.9127 2.8571 0.3376 0 9
4.8886 23.2889 3.0307 0.1851 0 9
5.9662 29.7596 3.8656 0.7977 0 9
5.7452 30.0667 3.8985 0.7845 0 9
5.5660 30.6303 3.9649 0.4988 0 9
5.5325 32.0940 4.1477 0.4508 0 9
5.3146 32.5893 4.2054 0.7514 0 9
3.5353 22.9862 2.9619 0.7556 0 9
3.2315 22.3556 2.8768 0.4711 0 9
3.0220 22.3313 2.8700 0.3212 0 9
3.0221 23.9618 3.0759 0.7391 0 9
2.8039 23.9777 3.0746 0.7437 0 9
2.5055 23.2478 2.9780 0.6612 0 9
2.2983 23.3034 2.9823 0.6602 0 9
1.8975 21.2018 2.7110 0.5761 0 9
33.1854 0.0000 3.4690 0.6753 0 9
33.5117 0.3033 3.5033 0.4307 0 9
34.8241 0.6304 3.6409 0.9488 0 9
34.3786 0.9336 3.5951 0.7323 0 9
34.4603 1.2480 3.6047 0.9860 0 9
34.1918 1.5482 3.5779 0.8436 0 9
34.0363 1.8500 3.5632 0.7194 0 9
34.8603 2.2113 3.6514 0.6209 0 9
19.1890 31.4270 3.8492 0.6704 0 9
18.7882 31.4062 3.8257 0.0800 0 9
18.5762 31.6994 3.8408 0.5817 0 9
18.3029 31.8912 3.8438 0.1548 0 9
18.0402 32.1029 3.8495 0.5346 0 9
17.6870 32.1523 3.8360 0.5389 0 9
17.2161 31.9781 3.7965 0.7642 0 9
17.0600 32.3870 3.8266 0.9544 0 9
16.5150 32.0526 3.7692 0.5512 0 9
16.3221 32.3948 3.7919 0.9010 0 9
16.1697 32.8283 3.8254 0.8159 0 9
15.6107 32.4306 3.7624 0.9301 0 9
15.6383 33.2548 3.8415 0.9708 0 9
15.8873 34.5938 3.9794 0.7932 0 9
15.5608 34.7076 3.9761 0.8615 0 9
15.6355 35.7371 4.0777 0.9580 0 9
15.0427 35.2475 4.0061 0.9205 0 9
14.7498 35.4463 4.0134 0.7551 0 9
14.6579 36.1443 4.0772 0.5900 0 9
14.3202 36.2502 4.0744 0.4957 0 9
9.7270 34.2552 3.7224 0.4282 0 9
9.1284 33.2908 3.6085 0.4882 0 9
9.2217 34.8651 3.7700 0.4881 0 9
7.6596 31.2353 3.3619 0.2985 0 9
7.5264 31.9390 3.4302 0.4977 0 9
7.3762 32.6212 3.4961 0.3588 0 9
7.1264 32.8977 3.5187 0.6719 0 9
6.4987 31.3692 3.3488 0.4035 0 9
6.1414 31.0570 3.3094 0.4736 0 9
5.8664 31.1447 3.3130 0.7245 0 9
5.6089 31.3338 3.3275 0.6680 0 9
5.1554 30.3830 3.2215 0.7110 0 9
3.7355 23.2914 2.4659 0.7075 0 9
4.7004 31.1050 3.2885 0.2950 0 9
4.3348 30.5551 3.2261 0.7014 0 9
4.1449 31.2470 3.2950 0.2288 0 9
3.9271 31.8106 3.3506 0.4294 0 9
3.6985 32.3657 3.4054 0.7619 0 9
3.6263 34.4988 3.6262 0.6138 0 9
3.1145 32.4517 3.4079 0.8216 0 9
2.6940 31.0194 3.2548 0.6752 0 9
2.5013 32.1767 3.3737 0.3943 0 9
2.5159 36.6542 3.8407 0.6785 0 9
2.0044 33.6579 3.5247 0.7770 0 9
1.2034 23.8427 2.4956 0.8264 0 9
0.9854 23.7996 2.4900 0.7148 0 9
-0.2928 22.6650 2.3695 0.3075 0 9
-0.4789 21.7966 2.2791 0.2082 0 9
-0.6737 21.7140 2.2710 0.6571 0 9
-0.8559 21.3512 2.2337 0.4767 0 9
-1.0365 21.0852 2.2068 0.8705 0 9
-1.2331 21.1757 2.2174 0.4834 0 9
-1.4922 22.1672 2.3225 0.3493 0 9
-11.0540 25.3560 2.8915 0.6903 0 9
-11.1469 24.9502 2.8566 0.2032 0 9
-11.3592 24.8201 2.8534 0.6993 0 9
-12.1262 25.8744 2.9871 0.7667 0 9
-12.1471 24.1878 2.8294 0.7685 0 9
-12.4792 24.2983 2.8554 0.6745 0 9
-13.0370 24.8287 2.9315 0.7380 0 9
-12.7843 23.8212 2.8261 0.6770 0 9
-18.1159 33.0346 3.9384 0.7774 0 9
-17.5472 31.3219 3.7530 0.6102 0 9
-17.8205 31.1453 3.7510 0.6610 0 9
-15.0131 25.6965 3.1110 0.6712 0 9
-13.8942 23.2948 2.8354 0.6232 0 9
-14.1494 23.2420 2.8444 0.6964 0 9
-14.3652 23.1226 2.8456 0.9063 0 9
-14.5623 22.9736 2.8434 0.5492 0 9
-15.3048 23.6684 2.9464 0.9596 0 9
-19.8210 30.0526 3.7633 0.5161 0 9
-19.6048 29.1475 3.6720 0.8852 0 9
-18.5036 26.9798 3.4199 0.1637 0 9
-20.2353 28.9397 3.6914 0.3333 0 9
-20.7300 29.0831 3.7335 0.6595 0 9
-16.7774 23.0928 2.9838 0.7801 0 9
-17.0410 23.0147 2.9936 0.7827 0 9
-17.5437 23.2507 3.0448 0.5774 0 9
-17.9343 23.3262 3.0758 0.6301 0 9
-18.2574 23.3069 3.0949 0.6352 0 9
-18.5940 23.2992 3.1161 0.6309 0 9
-23.8387 29.3228 3.9504 0.5483 0 9
-24.0163 29.0011 3.9362 0.5254 0 9
-26.6739 5.4185 2.8453 0.9899 0 5
-35.4269 -2.8450 3.7153 0.4626 0 9
-35.1728 -3.1452 3.6915 0.7038 0 9
-34.8578 -3.4353 3.6615 0.7023 0 9
-34.1391 -3.6767 3.5894 0.2810 0 9
-34.3230 -4.0110 3.6124 0.5497 0 9
-34.7789 -4.3837 3.6644 0.4434 0 9
-33.4617 -4.5256 3.5298 0.7327 0 9
-34.6323 -5.0035 3.6579 0.4971 0 9
-33.1107 -5.0900 3.5019 0.6771 0 9
-15.8529 -2.5841 1.6791 0.3536 0 9
-15.7053 -2.7061 1.6659 0.3598 0 9
-15.4363 -2.8039 1.6400 0.6184 0 9
-15.4524 -2.9515 1.6445 0.6166 0 9
-15.9203 -3.1904 1.6973 0.3605 0 9
-15.7571 -3.3064 1.6830 0.5311 0 9
-33.9558 -7.4465 3.6339 0.9059 0 9
-15.3243 -3.5062 1.6433 0.7273 0 9
-19.3271 -4.6065 2.0769 0.5604 0 9
-18.1624 -4.5030 1.9561 0.3217 0 9
-14.9222 -3.8434 1.6108 0.3243 0 9
-14.9655 -3.9993 1.6193 0.5914 0 9
-14.7013 -4.0716 1.5947 0.5648 0 9
-14.7204 -4.2206 1.6008 0.3353 0 9
-33.3334 -9.8847 3.6345 0.5116 0 9
-16.0804 -4.9272 1.7581 0.7077 0 9
-15.9961 -5.0602 1.7538 0.7136 0 9
-13.9682 -4.5581 1.5359 0.6229 0 9
-14.1791 -4.7694 1.5638 0.7341 0 9
-14.1989 -4.9195 1.5709 0.4858 0 9
-14.2265 -5.0738 1.5789 0.4781 0 9
-14.3304 -5.2575 1.5957 0.8148 0 9
-14.4473 -5.4492 1.6141 0.4108 0 9
-14.9276 -5.7852 1.6735 0.5237 0 9
-15.8015 -6.2890 1.7778 0.2658 0 9
-6.9681 -5.4004 0.9216 0.8111 0 5
-6.9408 -5.4805 0.9244 0.5676 0 5
-21.8397 -19.9724 3.0937 0.8552 0 5
-1.9180 -18.0191 1.8943 0.9767 0 5
3.1523 -4.8890 0.6081 0.1557 0 9
3.1417 -4.7771 0.5977 0.8530 0 9
3.1659 -4.7204 0.5942 0.8142 0 9
3.1892 -4.6632 0.5906 0.8191 0 9
3.2210 -4.6195 0.5887 0.9710 0 9
3.2690 -4.5990 0.5898 0.9691 0 9
3.3171 -4.5784 0.5910 0.9672 0 9
3.3653 -4.5576 0.5922 0.9695 0 9
3.4234 -4.5495 0.5952 0.4762 0 9
3.5184 -4.5887 0.6045 0.5166 0 9
22.2296 -6.4686 2.4202 0.6272 0 9
21.8558 -6.1459 2.3733 0.5901 0 9
12.8647 -3.4923 1.3935 0.9938 0 5
20.8869 -5.4675 2.2570 0.5405 0 9
20.7276 -5.2258 2.2346 0.6739 0 9
20.5722 -4.9891 2.2128 0.4509 0 9
20.3020 -4.7294 2.1791 0.6749 0 9
20.4245 -4.5635 2.1877 0.5426 0 9
20.3535 -4.3546 2.1758 0.7321 0 9
20.4511 -4.1823 2.1821 0.2825 0 9
21.6583 -4.2254 2.3067 0.6691 0 9
21.3985 -3.9740 2.2751 0.5950 0 9
21.3803 -3.7708 2.2695 0.9074 0 9
21.2354 -3.5474 2.2506 0.7127 0 9
21.3216 -3.3638 2.2564 0.1744 0 9
25.8457 -3.8381 2.7314 0.4641 0 9
22.0860 -2.8723 2.3282 0.2995 0 9
23.0575 -2.7867 2.4279 0.9681 0 9
23.0814 -2.5779 2.4278 0.8928 0 9
23.2251 -2.3813 2.4406 0.5456 0 9
21.8206 -2.0380 2.2909 0.2458 0 9
21.4519 -1.8079 2.2504 0.3391 0 9
21.3354 -1.6037 2.2366 0.9149 0 9
21.2918 -1.4068 2.2306 0.9511 0 9
21.2613 -1.2116 2.2262 0.9768 0 9
21.1946 -1.0155 2.2181 0.7795 0 9
23.6429 -0.9184 2.4734 0.4816 0 9
23.7383 -0.7071 2.4826 0.5020 0 9
23.9891 -0.4973 2.5082 0.1694 0 9
33.1777 -0.3875 3.4685 0.9160 0 9
33.2077 -0.0873 3.4714 0.5734 0 9
33.3399 0.2141 3.4853 0.5428 0 9
34.1949 0.5291 3.5750 0.2812 0 9
33.4435 0.8203 3.4971 0.7216 0 9
34.4484 1.1569 3.6031 0.9864 0 9
34.2068 1.4588 3.5791 0.8433 0 9
34.0668 1.7618 3.5659 0.7120 0 9
34.5160 2.0984 3.6148 0.2396 0 9
13.0455 9.3490 1.6777 0.6050 0 5
19.2471 31.3367 3.8443 0.7948 0 9
19.0747 31.6957 3.8670 0.7514 0 9
18.5465 31.4589 3.8175 0.5460 0 9
18.4682 31.9842 3.8608 0.5946 0 9
17.9405 31.7300 3.8104 0.6841 0 9
17.7749 32.1120 3.8368 0.6406 0 9
17.3963 32.1104 3.8176 0.4430 0 9
17.1463 32.3445 3.8268 0.9543 0 9
16.6379 32.0837 3.7780 0.5499 0 9
16.3934 32.3247 3.7888 0.9018 0 9
16.2942 32.8631 3.8344 0.5359 0 9
15.6996 32.3972 3.7634 0.9297 0 9
16.3448 34.5213 3.9927 0.3186 0 9
15.0646 32.5764 3.7519 0.9266 0 9
15.6522 34.6673 3.9762 0.7913 0 9
15.7289 35.6948 4.0776 0.9580 0 9
15.1323 35.2008 4.0053 0.9207 0 9
14.8226 35.3590 4.0079 0.7561 0 9
14.5853 35.6955 4.0309 0.6213 0 9
14.3824 36.1293 4.0650 0.7103 0 9
13.1136 36.7615 4.0801 0.4962 0 9
12.3640 35.6770 3.9471 0.6707 0 9
9.2037 33.2226 3.6037 0.4889 0 9
9.3424 34.9495 3.7817 0.2510 0 9
7.7213 31.1331 3.3531 0.2993 0 9
7.6219 31.9679 3.4354 0.4969 0 9
7.4938 32.7410 3.5111 0.3688 0 9
7.2635 33.1099 3.5435 0.8396 0 9
6.6027 31.4551 3.3598 0.7162 0 9
6.2120 30.9859 3.3036 0.7550 0 9
5.9525 31.1518 3.3154 0.7240 0 9
5.6856 31.2884 3.3243 0.6687 0 9
5.3046 30.7717 3.2642 0.3885 0 9
3.7904 23.2427 2.4618 0.7087 0 9
3.5960 23.3807 2.4728 0.7424 0 9
4.3775 30.2830 3.1985 0.7168 0 9
4.2097 31.1086 3.2816 0.6771 0 9
4.3809 34.7364 3.6599 0.7905 0 9
3.7768 32.2984 3.3993 0.7721 0 9
3.7183 34.5010 3.6274 0.6136 0 9
3.1988 32.4333 3.4069 0.8218 0 9
2.8635 31.9964 3.3581 0.7216 0 9
34.9697 0.0000 2.8612 0.3747 0 9
35.5975 0.3222 2.9126 0.5690 0 9
37.8024 0.6843 3.0934 0.4494 0 9
35.2570 0.9574 2.8857 0.4453 0 9
18.5966 32.4030 3.0568 0.5341 0 9
19.0917 33.9741 3.1885 0.5598 0 9
18.8212 34.2140 3.1949 0.8362 0 9
18.3640 34.1103 3.1696 0.7044 0 9
18.1958 34.5432 3.1944 0.6379 0 9
17.1723 33.3283 3.0675 0.5721 0 9
16.7177 33.1800 3.0398 0.7296 0 9
16.3668 33.2286 3.0306 0.5746 0 9
15.9953 33.2296 3.0174 0.8797 0 9
15.9005 33.8122 3.0571 0.6476 0 9
15.3100 33.3367 3.0014 0.7717 0 9
15.0087 33.4762 3.0016 0.7707 0 9
14.7721 33.7637 3.0153 0.5809 0 9
14.8763 34.8575 3.1008 0.2738 0 9
14.6233 35.1424 3.1143 0.8321 0 9
14.3959 35.4982 3.1341 0.3224 0 9
14.0330 35.5230 3.1250 0.1654 0 9
13.7002 35.6205 3.1225 0.3075 0 9
13.2046 35.2816 3.0822 0.6679 0 9
12.7807 35.1138 3.0573 0.6978 0 9
12.3493 35.9395 3.1093 0.5490 0 9
8.4443 34.4354 2.9009 0.6800 0 9
8.1073 34.4040 2.8920 0.6155 0 9
7.4890 34.5713 2.8942 0.6101 0 9
7.3817 35.6317 2.9772 0.8116 0 9
6.1733 32.7740 2.7287 0.5377 0 9
5.7440 32.0885 2.6672 0.6466 0 9
5.9782 35.2323 2.9238 0.9396 0 9
5.0865 31.7149 2.6280 0.5118 0 9
4.8141 31.8577 2.6361 0.8252 0 9
4.4548 31.4005 2.5949 0.6075 0 9
4.1640 31.3910 2.5908 0.6071 0 9
3.9334 31.8620 2.6267 0.5241 0 9
3.7885 33.1528 2.7302 0.6658 0 9
3.6332 34.5646 2.8436 0.6925 0 9
3.2757 34.1316 2.8054 0.1331 0 9
2.9960 34.4967 2.8331 0.5114 0 9
2.6963 34.6847 2.8464 0.7681 0 9
2.1702 36.4420 2.9869 0.8151 0 9
1.2018 23.8102 1.9506 0.8223 0 9
0.9849 23.7863 1.9478 0.7258 0 9
-12.3207 25.6821 2.3306 0.3959 0 9
-12.2107 24.8730 2.2671 0.1143 0 9
-12.6360 25.1611 2.3037 0.5968 0 9
-12.6099 24.5527 2.2583 0.7113 0 9
-19.0895 34.8100 3.2482 0.5199 0 9
-19.2155 34.2999 3.2167 0.6231 0 9
-19.6712 33.6693 3.1905 0.6882 0 9
-20.0583 33.6294 3.2038 0.7957 0 9
-20.2706 33.2968 3.1894 0.5021 0 9
-14.3728 23.1350 2.2284 0.9591 0 9
-14.6695 23.1427 2.2418 0.4858 0 9
-20.1532 31.1664 3.0367 0.4997 0 9
-20.4850 31.0594 3.0442 0.6884 0 9
-20.7631 30.8695 3.0439 0.6882 0 9
-21.6982 31.6377 3.1388 0.4531 0 9
-22.6183 32.3477 3.2294 0.6734 0 9
-22.6171 31.7307 3.1882 0.3846 0 9
-23.0745 31.1632 3.1726 0.3661 0 9
-23.3497 30.9454 3.1718 0.3662 0 9
-26.6725 5.4182 2.2268 0.9920 0 5
-38.3748 -4.8369 3.1646 0.6869 0 9
-37.0055 -5.0049 3.0553 0.1271 0 9
-37.1550 -5.3680 3.0715 0.4477 0 9
-35.4274 -5.4461 2.9327 0.2722 0 9
-35.1384 -5.7277 2.9129 0.3130 0 9
-34.9302 -6.0187 2.9000 0.6238 0 9
-34.7841 -6.3182 2.8925 0.4701 0 9
-35.4918 -6.7791 2.9564 0.6503 0 9
-36.3427 -7.9699 3.0442 0.4468 0 9
-35.7839 -8.1875 3.0034 0.5859 0 9
-37.3597 -8.9046 3.1423 0.6620 0 9
-37.7055 -9.7114 3.1857 0.5261 0 9
-26.8487 -7.4358 2.2794 0.8416 0 5
-37.5067 -10.7540 3.1924 0.1439 0 9
-38.0406 -11.2806 3.2464 0.1801 0 9
-18.5090 -5.6714 1.5839 0.5414 0 9
-18.2995 -5.7889 1.5704 0.4988 0 9
-35.9895 -11.7443 3.0974 0.7770 0 9
-37.4798 -12.9857 3.2454 0.6784 0 9
-16.1397 -6.0875 1.4113 0.9015 0 9
-16.0363 -6.2149 1.4071 0.9533 0 9
-16.0637 -6.3933 1.4146 0.6281 0 9
-6.9677 -5.4001 0.7212 0.8129 0 5
-6.9401 -5.4799 0.7236 0.5689 0 5
-21.8384 -19.9712 2.4213 0.8571 0 5
-1.9179 -18.0181 1.4825 0.9788 0 5
3.1097 -4.8230 0.4695 0.8517 0 9
3.1343 -4.7659 0.4667 0.8130 0 9
3.1579 -4.7083 0.4638 0.8180 0 9
3.1811 -4.6514 0.4611 0.8230 0 9
3.2192 -4.6169 0.4605 0.9736 0 9
3.2672 -4.5964 0.4614 0.9717 0 9
3.3153 -4.5759 0.4623 0.9697 0 9
3.3636 -4.5553 0.4633 0.9677 0 9
3.4284 -4.5561 0.4665 0.5250 0 9
3.5211 -4.5922 0.4735 0.5173 0 9
22.5799 -6.3495 1.9191 0.6275 0 9
12.8639 -3.4920 1.0906 0.9960 0 5
22.4176 -5.6519 1.8916 0.6761 0 9
22.4988 -5.4563 1.8942 0.4031 0 9
21.3188 -4.7633 1.7873 0.5000 0 9
21.0399 -4.3028 1.7571 0.2523 0 9
21.6347 -4.2208 1.8035 0.4309 0 9
21.4545 -3.9844 1.7854 0.5778 0 9
21.5006 -3.7921 1.7863 0.5625 0 9
26.2579 -4.1425 2.1749 0.6933 0 9
26.2442 -3.8973 2.1708 0.7024 0 9
26.2951 -3.6620 2.1722 0.7002 0 9
26.2856 -3.4185 2.1688 0.3419 0 9
23.0387 -2.7844 1.8987 0.9753 0 9
23.0828 -2.5780 1.9003 0.9230 0 9
34.4600 -3.5333 2.8342 0.7038 0 9
34.6168 -3.2331 2.8446 0.4852 0 9
39.1358 -3.2982 3.2134 0.5682 0 9
35.4168 -2.3401 2.9041 0.2183 0 9
35.4604 -2.0208 2.9060 0.8478 0 9
35.9306 -1.3958 2.9420 0.6528 0 9
35.8253 -1.0671 2.9325 0.8886 0 9
35.0997 -0.7276 2.8724 0.3054 0 9
35.0619 -0.4095 2.8689 0.4530 0 9
35.0167 -0.0920 2.8650 0.3594 0 9
37.8680 0.2432 3.0984 0.4832 0 9
35.5349 0.5498 2.9077 0.5706 0 9
35.2979 0.8657 2.8889 0.7120 0 9
38.8736 1.3055 3.1824 0.9203 0 9
13.0444 9.3482 1.3130 0.6063 0 5
18.7092 32.4017 3.0613 0.5323 0 9
19.2018 33.9609 3.1920 0.2440 0 9
18.8831 34.1140 3.1902 0.6075 0 9
17.9404 33.1147 3.0815 0.2553 0 9
17.5529 33.1115 3.0663 0.5191 0 9
17.2400 33.2448 3.0640 0.4999 0 9
16.8241 33.1739 3.0433 0.7322 0 9
16.5510 33.3809 3.0485 0.7055 0 9
16.0834 33.1892 3.0175 0.8797 0 9
15.7265 33.2153 3.0068 0.5862 0 9
15.4396 33.3873 3.0096 0.3292 0 9
15.0958 33.4348 3.0015 0.7707 0 9
14.8333 33.6625 3.0097 0.6355 0 9
14.5650 33.8812 3.0174 0.5485 0 9
14.7070 35.0833 3.1125 0.9362 0 9
14.5104 35.5122 3.1387 0.9471 0 9
14.1255 35.4841 3.1248 0.7790 0 9
13.7797 35.5483 3.1194 0.3043 0 9
13.3355 35.3482 3.0911 0.6661 0 9
13.2377 37.1093 3.2236 0.1930 0 9
12.4156 35.8260 3.1023 0.5509 0 9
12.3236 36.6284 3.1619 0.5972 0 9
8.5167 34.3402 2.8948 0.6313 0 9
8.2240 34.4933 2.9013 0.3420 0 9
7.8771 34.4159 2.8887 0.6483 0 9
7.5939 34.6158 2.8995 0.3692 0 9
7.4620 35.5484 2.9719 0.7149 0 9
6.7311 35.2261 2.9343 0.7638 0 9
5.8428 32.1534 2.6738 0.4854 0 9
5.5361 32.1150 2.6663 0.3591 0 9
5.1807 31.7679 2.6335 0.2832 0 9
4.9009 31.8652 2.6378 0.8247 0 9
4.5555 31.5149 2.6053 0.5695 0 9
4.2483 31.3937 2.5920 0.6068 0 9
4.0114 31.8064 2.6230 0.5248 0 9
3.8707 33.1013 2.7267 0.7504 0 9
3.7248 34.5616 2.8441 0.6981 0 9
3.3625 34.0934 2.8030 0.9759 0 9
3.1143 34.7979 2.8585 0.3869 0 9
18.9592 33.7384 2.2905 0.7247 0 9
18.7351 34.0577 2.3006 0.1057 0 9
18.4996 35.1201 2.3493 0.3070 0 9
17.9584 34.8539 2.3205 0.7382 0 9
16.9653 34.4437 2.2724 0.6907 0 9
16.5451 34.3717 2.2577 0.7867 0 9
16.2622 34.5814 2.2617 0.8666 0 9
15.9685 34.7705 2.2645 0.8557 0 9
15.7428 35.9824 2.3245 0.5043 0 9
14.9533 35.9354 2.3036 0.6032 0 9
14.6260 36.0656 2.3034 0.4773 0 9
14.2911 36.1764 2.3021 0.9051 0 9
14.0372 36.4969 2.3143 0.6011 0 9
13.7936 36.8556 2.3291 0.8685 0 9
13.3984 36.8109 2.3185 0.7038 0 9
13.1493 37.1698 2.3335 0.8709 0 9
12.8155 37.2964 2.3341 0.8459 0 9
12.6232 37.8478 2.3613 0.9344 0 9
5.9744 35.2097 2.1137 0.9461 0 9
5.2069 36.7022 2.1940 0.2045 0 9
4.7692 35.9531 2.1465 0.9849 0 5
4.3532 38.0949 2.2693 0.0943 0 9
3.9965 38.0201 2.2626 0.7788 0 9
3.4617 36.0695 2.1446 0.8530 0 9
3.1324 36.0675 2.1427 0.5733 0 9
1.2018 23.8110 1.4110 0.8644 0 9
0.9842 23.7705 1.4081 0.9975 0 9
-14.2698 23.4397 1.6241 0.4616 0 9
-14.3711 23.1322 1.6118 0.9622 0 9
-14.6825 23.1631 1.6231 0.5016 0 9
-22.6685 32.4195 2.3413 0.8918 0 9
-26.6711 5.4179 1.6108 0.9937 0 5
-37.6126 -6.4809 2.2589 0.6045 0 9
-37.7434 -6.8557 2.2704 0.5220 0 9
-36.2224 -8.2878 2.1992 0.7948 0 9
-26.8467 -7.4352 1.6487 0.8430 0 5
-16.1329 -6.0850 1.0205 0.9033 0 9
-16.0313 -6.2130 1.0176 0.9422 0 9
-16.0717 -6.3965 1.0238 0.5560 0 9
-6.9673 -5.3998 0.5217 0.8142 0 5
-6.9394 -5.4794 0.5234 0.5698 0 5
-21.8370 -19.9700 1.7513 0.8585 0 5
-1.9178 -18.0172 1.0724 0.9804 0 5
3.1019 -4.8108 0.3388 0.8100 0 9
3.1257 -4.7528 0.3367 0.8151 0 9
3.1492 -4.6954 0.3346 0.8201 0 9
3.1721 -4.6383 0.3326 0.7988 0 9
3.2150 -4.6108 0.3327 0.9697 0 9
3.2626 -4.5900 0.3333 0.9679 0 9
3.3104 -4.5691 0.3339 0.9660 0 9
3.3583 -4.5481 0.3346 0.9641 0 9
3.4301 -4.5583 0.3376 0.5243 0 9
3.5230 -4.5947 0.3427 0.5166 0 9
12.8631 -3.4918 0.7889 0.9976 0 5
23.0357 -2.7841 1.3733 0.9770 0 9
23.1110 -2.5812 1.3763 0.4348 0 9
35.9944 -3.6906 2.1415 0.2383 0 9
36.6205 -3.4202 2.1768 0.2954 0 9
36.3005 -3.0592 2.1561 0.3722 0 9
36.0091 -2.7067 2.1372 0.6002 0 9
37.6733 -1.4635 2.2314 0.9903 0 9
13.0434 9.3474 0.9497 0.9895 0 5
19.7651 34.2302 2.3394 0.4179 0 9
19.0774 33.7408 2.2940 0.4910 0 9
18.7536 33.8801 2.2919 0.1208 0 9
18.0373 34.7821 2.3189 0.7387 0 9
17.7317 34.9636 2.3202 0.7876 0 9
17.0741 34.4360 2.2749 0.6900 0 9
16.6665 34.3924 2.2619 0.6083 0 9
16.5317 34.9159 2.2864 0.7104 0 9
16.0031 34.6060 2.2565 0.5212 0 9
15.8777 36.0325 2.3304 0.4949 0 9
15.6201 36.3356 2.3408 0.3246 0 9
15.1017 36.0248 2.3119 0.7345 0 9
14.7071 35.9936 2.3012 0.6039 0 9
14.4002 36.1742 2.3044 0.3911 0 9
14.3325 36.9744 2.3470 0.9383 0 9
13.8693 36.7633 2.3255 0.1807 0 9
13.2009 37.0060 2.3254 0.2765 0 9
12.9622 37.4031 2.3429 0.3576 0 9
12.7266 37.8261 2.3621 0.9341 0 9
6.0617 35.1641 2.1119 0.9492 0 9
5.3169 36.7818 2.1996 0.2040 0 9
5.9719 35.1952 1.3070 0.9523 0 9
4.7689 35.9512 1.3278 0.9860 0 5
1.2025 23.8247 0.8734 0.9266 0 9
0.9850 23.7882 0.8717 0.9996 0 9
0.7737 23.9213 0.8763 0.7444 0 9
-14.2014 23.3273 0.9999 0.4733 0 9
-14.3446 23.0895 0.9952 0.9657 0 9
-22.6575 32.4038 1.4476 0.9604 0 9
-19.7902 12.2249 0.8516 0.7948 0 1
-19.7645 11.9633 0.8458 0.8002 0 1
-19.7392 11.7052 0.8402 0.8056 0 1
-19.8262 11.5156 0.8394 0.3928 0 1
-20.2740 11.5316 0.8539 0.2044 0 1
-20.6867 11.5198 0.8669 0.2013 0 1
-21.1124 11.5078 0.8803 0.1983 0 1
-21.5519 11.4956 0.8943 0.1952 0 1
-22.0059 11.4832 0.9088 0.1921 0 1
-22.4638 11.4647 0.9234 0.3027 0 1
-22.9222 11.4384 0.9379 0.2980 0 1
-23.3956 11.4113 0.9530 0.2933 0 1
-23.8847 11.3835 0.9687 0.2885 0 1
-26.6697 5.4176 0.9965 0.9948 0 5
-36.3713 -7.9762 1.3633 0.6793 0 9
-36.2411 -8.2921 1.3611 0.8073 0 9
-26.8447 -7.4347 1.0199 0.8440 0 5
-16.1011 -6.0730 0.6300 0.8870 0 9
-15.9850 -6.1950 0.6277 0.9434 0 9
-16.0070 -6.3707 0.6308 0.5521 0 9
-6.9669 -5.3995 0.3227 0.8152 0 5
-6.9388 -5.4789 0.3237 0.5705 0 5
-21.8357 -19.9688 1.0835 0.8595 0 5
-1.9176 -18.0158 0.6633 0.9814 0 5
3.1604 -5.0003 0.2166 0.1516 0 9
3.0927 -4.7966 0.2090 0.8133 0 9
3.1165 -4.7388 0.2077 0.8183 0 9
3.1396 -4.6811 0.2064 0.7972 0 9
3.1611 -4.6221 0.2050 0.8024 0 9
3.2078 -4.6006 0.2053 0.9703 0 9
3.2556 -4.5801 0.2057 0.9710 0 9
3.3032 -4.5592 0.2061 0.9692 0 9
3.3511 -4.5383 0.2065 0.9672 0 9
3.4248 -4.5514 0.2085 0.3940 0 9
3.5242 -4.5963 0.2121 0.5169 0 9
12.8623 -3.4916 0.4880 0.9988 0 5
22.9725 -2.7764 0.8472 0.9677 0 9
23.0420 -2.5735 0.8489 0.8829 0 9
37.6256 -1.4616 1.3786 0.9805 0 9
13.0422 9.3466 0.5875 0.9906 0 5
6.0596 35.1515 1.3059 0.8530 0 9
6.3219 35.3173 0.5050 0.2543 0 9
5.9770 35.2251 0.5029 0.9690 0 9
4.7685 35.9485 0.5105 0.9866 0 5
1.2037 23.8470 0.3361 0.9267 0 9
0.9856 23.8046 0.3354 0.9990 0 9
0.7741 23.9354 0.3371 0.7414 0 9
-14.1764 23.2863 0.3837 0.4788 0 9
-14.3125 23.0378 0.3818 0.9817 0 9
-14.6094 23.0478 0.3841 0.5844 0 9
-22.6077 32.3325 0.5553 0.9787 0 9
-19.7663 12.2101 0.3270 0.7952 0 1
-19.7645 11.9633 0.3252 0.8007 0 1
-19.7392 11.7052 0.3230 0.8061 0 1
-19.7141 11.4505 0.3209 0.8114 0 1
-19.8392 11.2843 0.3213 0.5768 0 1
-20.2002 11.2489 0.3255 0.5694 0 1
-20.5706 11.2125 0.3298 0.5619 0 1
-20.9511 11.1752 0.3342 0.5544 0 1
-21.3421 11.1368 0.3389 0.5468 0 1
-21.7441 11.0974 0.3436 0.5393 0 1
-22.1575 11.0568 0.3486 0.5316 0 1
-22.5831 11.0150 0.3537 0.5239 0 1
-23.0214 10.9720 0.3590 0.5162 0 1
-23.4730 10.9277 0.3645 0.5084 0 1
-29.8007 11.3297 0.4488 0.8954 0 1
-29.7693 11.0104 0.4468 0.8994 0 1
-29.7382 10.6940 0.4448 0.9033 0 1
-29.7074 10.3803 0.4430 0.9072 0 1
-30.2828 10.2748 0.4501 0.3224 0 1
-31.0120 10.2102 0.4596 0.3158 0 1
-31.7726 10.1429 0.4695 0.3092 0 1
-32.5668 10.0726 0.4798 0.3025 0 1
-33.3971 9.9991 0.4907 0.2958 0 1
-26.6671 5.4171 0.3831 0.9954 0 5
-36.2465 -7.9488 0.5223 0.6501 0 9
-36.1861 -8.2795 0.5225 0.8392 0 9
-26.8430 -7.4342 0.3921 0.8445 0 5
-16.1291 -6.0835 0.2426 0.3793 0 9
-15.9650 -6.1873 0.2410 0.8964 0 9
-15.9440 -6.3457 0.2416 0.9489 0 9
-6.9665 -5.3992 0.1240 0.8157 0 5
-6.9382 -5.4784 0.1244 0.5709 0 5
-21.8335 -19.9668 0.4165 0.8600 0 5
-1.9175 -18.0138 0.2550 0.9821 0 5
3.1265 -4.9468 0.0824 0.1533 0 9
3.0836 -4.7824 0.0801 0.8161 0 9
3.1070 -4.7243 0.0796 0.7951 0 9
3.1287 -4.6648 0.0791 0.8004 0 9
3.1532 -4.6106 0.0786 0.9748 0 9
3.2007 -4.5903 0.0788 0.9730 0 9
3.2483 -4.5699 0.0789 0.9712 0 9
3.2962 -4.5495 0.0791 0.9718 0 9
3.3439 -4.5285 0.0792 0.9699 0 9
3.4167 -4.5405 0.0800 0.3952 0 9
3.5254 -4.5979 0.0816 0.5170 0 9
12.8615 -3.4914 0.1876 0.9994 0 5
22.9358 -2.7720 0.3252 0.9790 0 9
22.9817 -2.5667 0.3255 0.9000 0 9
37.5561 -1.4589 0.5290 0.9912 0 9
37.7099 -1.1232 0.5311 0.4165 0 9
13.0408 9.3456 0.2258 0.9912 0 5
6.0653 35.1848 0.5026 0.9535 0 9
7.2198 36.5102 -0.3143 0.2890 360 12
6.2950 35.1665 -0.3017 0.8449 0 9
5.9747 35.2115 -0.3016 0.9234 0 9
1.8902 13.3237 -0.1136 0.9716 363 12
1.7658 13.3114 -0.1134 0.9737 363 12
1.6418 13.2993 -0.1132 0.9757 363 12
1.5184 13.2871 -0.1129 0.9776 363 12
1.3954 13.2751 -0.1127 0.9795 363 12
1.2729 13.2630 -0.1125 0.9813 363 12
1.1508 13.2510 -0.1123 0.9830 363 12
1.2038 23.8499 -0.2017 0.7076 0 9
0.9856 23.8040 -0.2012 0.9766 0 9
0.7753 23.9713 -0.2026 0.7005 0 9
-13.4924 26.8665 -0.2539 0.9332 362 12
-13.7836 26.8379 -0.2548 0.9299 362 12
-14.0768 26.8091 -0.2557 0.9266 362 12
-14.3722 26.7801 -0.2567 0.9231 362 12
-14.6699 26.7508 -0.2577 0.9196 362 12
-14.1967 23.3196 -0.2306 0.4997 0 9
-14.2845 22.9927 -0.2286 0.9850 0 9
-14.5279 22.9193 -0.2292 0.5801 0 9
-22.5704 32.2792 -0.3326 0.8712 0 9
-22.9568 32.2073 -0.3340 0.5834 0 9
-19.7902 12.2249 -0.1965 0.7953 0 1
-19.7645 11.9633 -0.1951 0.8007 0 1
-19.7392 11.7052 -0.1938 0.8061 0 1
-19.7141 11.4505 -0.1925 0.8114 0 1
-19.7654 11.2423 -0.1920 0.8827 0 1
-20.1230 11.2059 -0.1945 0.5696 0 1
-20.4920 11.1696 -0.1971 0.5621 0 1
-20.8709 11.1324 -0.1998 0.5546 0 1
-21.2603 11.0941 -0.2025 0.5471 0 1
-21.6607 11.0548 -0.2054 0.5395 0 1
-22.0725 11.0143 -0.2083 0.5318 0 1
-22.4963 10.9727 -0.2114 0.5242 0 1
-22.9328 10.9298 -0.2145 0.5164 0 1
-23.3826 10.8856 -0.2178 0.5087 0 1
-23.8463 10.8400 -0.2212 0.5009 0 1
-26.6643 5.4165 -0.2298 0.9955 0 5
-36.2081 -7.9404 -0.3131 0.5865 0 9
-36.0568 -8.2499 -0.3124 0.8579 0 9
-26.8413 -7.4337 -0.2352 0.8446 0 5
-16.1590 -6.0948 -0.1459 0.4106 0 9
-15.9723 -6.1901 -0.1447 0.8976 0 9
-15.9310 -6.3405 -0.1448 0.9417 0 9
-6.9661 -5.3989 -0.0744 0.8158 0 5
-6.9375 -5.4779 -0.0747 0.5710 0 5
-21.8309 -19.9643 -0.2498 0.8601 0 5
-1.9172 -18.0119 -0.1530 0.9822 0 5
3.0858 -4.8824 -0.0488 0.1340 0 9
3.0741 -4.7677 -0.0479 0.7926 0 9
3.0961 -4.7077 -0.0476 0.7979 0 9
3.1178 -4.6486 -0.0473 0.8033 0 9
3.1462 -4.6003 -0.0471 0.9771 0 9
3.1935 -4.5801 -0.0472 0.9753 0 9
3.2411 -4.5597 -0.0472 0.9734 0 9
3.2888 -4.5393 -0.0473 0.9714 0 9
3.3367 -4.5188 -0.0474 0.9720 0 9
3.4085 -4.5297 -0.0479 0.3961 0 9
3.5234 -4.5952 -0.0489 0.3878 0 9
12.8606 -3.4911 -0.1125 0.9995 0 5
22.9324 -2.7716 -0.1951 0.9812 0 9
22.9540 -2.5636 -0.1951 0.9255 0 9
37.6065 -1.4609 -0.3178 0.6802 0 9
37.6133 -1.1203 -0.3178 0.9092 0 9
13.0394 9.3446 -0.1355 0.9914 0 5
7.2526 36.1763 -0.3116 0.2915 360 12
6.4073 35.2599 -0.3027 0.1949 0 9
6.0607 35.1581 -0.3013 0.9232 0 9
1.9265 13.3272 -0.1137 0.9709 363 12
1.8018 13.3150 -0.1135 0.9731 363 12
1.6777 13.3028 -0.1132 0.9751 363 12
1.5542 13.2907 -0.1130 0.9771 363 12
1.4311 13.2786 -0.1128 0.9790 363 12
1.3084 13.2665 -0.1126 0.9808 363 12
1.1862 13.2545 -0.1124 0.9825 363 12
16.6801 36.3202 -1.2380 0.7587 0 9
6.2601 34.9717 -1.1005 0.8142 0 9
5.9532 35.0850 -1.1023 0.5732 0 9
1.7658 13.3114 -0.4159 0.9732 363 12
1.6418 13.2993 -0.4151 0.9753 363 12
1.5184 13.2871 -0.4143 0.9772 363 12
1.3954 13.2751 -0.4135 0.9791 363 12
1.2723 13.2574 -0.4125 0.1513 363 12
1.4316 24.0397 -0.7460 0.4874 0 9
1.2035 23.8445 -0.7395 0.9017 0 9
0.9873 23.8448 -0.7392 0.9987 0 9
-13.7836 26.8379 -0.9345 0.9295 362 12
-14.0768 26.8091 -0.9379 0.9261 362 12
-14.3722 26.7801 -0.9414 0.9227 362 12
-14.2942 23.0084 -0.8390 0.9491 0 9
-14.4965 22.8697 -0.8387 0.9944 0 9
-22.5955 32.3152 -1.2214 0.9098 0 9
-22.8692 32.0844 -1.2205 0.9672 0 9
-26.6615 5.4159 -0.8427 0.9952 0 5
-36.3995 -7.9824 -1.1543 0.1897 0 9
-35.9679 -8.2296 -1.1429 0.9664 0 9
-36.1445 -8.6149 -1.1510 0.3144 0 9
-26.8396 -7.4333 -0.8627 0.8443 0 5
-16.1444 -6.0893 -0.5345 0.5042 0 9
-15.9851 -6.1951 -0.5310 0.9142 0 9
-15.9375 -6.3431 -0.5313 0.9377 0 9
-6.9657 -5.3986 -0.2729 0.8154 0 5
-6.9369 -5.4774 -0.2738 0.5708 0 5
-21.8282 -19.9619 -0.9162 0.8599 0 5
-1.9170 -18.0100 -0.5610 0.9819 0 5
16.3365 -34.1679 -1.1731 0.0725 0 10
16.5258 -33.7750 -1.1647 0.1518 0 10
16.8749 -33.7122 -1.1678 0.1286 0 10
17.2862 -33.7671 -1.1750 0.1113 0 10
3.0397 -4.8094 -0.1762 0.1339 0 9
3.0616 -4.7484 -0.1750 0.7904 0 9
3.0838 -4.6890 -0.1738 0.7958 0 9
3.1056 -4.6304 -0.1727 0.8010 0 9
3.1374 -4.5874 -0.1722 0.9658 0 9
3.1844 -4.5669 -0.1725 0.9674 0 9
3.2315 -4.5463 -0.1728 0.9656 0 9
3.2789 -4.5256 -0.1731 0.9638 0 9
3.3264 -4.5048 -0.1735 0.9618 0 9
3.3969 -4.5143 -0.1750 0.4042 0 9
3.5094 -4.5769 -0.1787 0.3960 0 9
12.8598 -3.4909 -0.4128 0.9992 0 5
22.9733 -2.7765 -0.7168 0.6259 0 9
22.9596 -2.5643 -0.7156 0.9866 0 9
23.1300 -2.3716 -0.7202 0.5126 0 9
37.7153 -1.4651 -1.1691 0.7080 0 9
37.6479 -1.1214 -1.1667 0.7931 0 9
13.0380 9.3436 -0.4969 0.9911 0 5
16.7497 36.2203 -1.2361 0.9796 0 9
6.3635 35.0189 -1.1025 0.8128 0 9
6.0388 35.0308 -1.1011 0.9230 0 9
1.8018 13.3150 -0.4162 0.9726 363 12
1.6777 13.3028 -0.4153 0.9747 363 12
1.5542 13.2907 -0.4145 0.9766 363 12
1.4311 13.2786 -0.4137 0.9785 363 12
1.3084 13.2665 -0.4129 0.9803 363 12
34.5853 0.0000 -1.8516 0.4688 0 19
38.8137 0.3513 -2.0781 0.8850 0 19
16.6057 36.1581 -2.1302 0.9849 0 9
14.4860 36.6697 -2.1108 0.0535 0 19
9.0033 35.3296 -1.9519 0.7821 0 19
8.6892 35.4339 -1.9532 0.6500 0 19
6.2297 34.8018 -1.8928 0.7952 0 9
5.9376 34.9931 -1.9002 0.6031 0 9
4.7670 35.9370 -1.9408 0.9856 0 5
1.6418 13.2993 -0.7174 0.9743 363 12
1.5184 13.2871 -0.7160 0.9763 363 12
1.4227 23.8899 -1.2813 0.7544 0 9
1.2018 23.8098 -1.2763 0.9947 0 9
0.9894 23.8951 -1.2804 0.6287 0 9
-14.0984 26.8503 -1.6236 0.9252 362 5
-20.4761 33.6342 -2.1081 0.4352 0 5
-14.3025 23.0217 -1.4510 0.8887 0 9
-14.4606 22.8130 -1.4460 0.8903 0 9
-14.7588 22.8241 -1.4551 0.6030 0 9
-21.4113 32.4638 -2.0820 0.4656 0 19
-22.7265 32.5025 -2.1233 0.3829 0 9
-22.8480 32.0546 -2.1074 0.9615 0 9
-23.2844 32.0492 -2.1208 0.6054 0 9
-26.6586 5.4154 -1.4563 0.9944 0 5
-38.1368 -7.2843 -2.0786 0.9520 0 19
-34.0089 -6.8154 -1.8569 0.4680 0 19
-32.5181 -6.8234 -1.7788 0.8746 0 19
-35.9358 -8.2222 -1.9736 0.9951 0 9
-35.9088 -8.5587 -1.9763 0.8616 0 9
-37.9102 -9.7641 -2.0958 0.5147 0 19
-36.2384 -9.6841 -2.0082 0.6731 0 19
-26.8380 -7.4328 -1.4909 0.8435 0 5
-32.2191 -9.2379 -1.7944 0.9752 0 19
-16.2241 -6.1194 -0.9283 0.5254 0 9
-16.0151 -6.2067 -0.9195 0.9182 0 9
-15.9682 -6.3553 -0.9201 0.8990 0 9
-16.0226 -6.5455 -0.9266 0.5825 0 9
-6.9654 -5.3983 -0.4718 0.8147 0 5
-6.9363 -5.4769 -0.4732 0.5703 0 5
-21.8255 -19.9594 -1.5834 0.8591 0 5
-24.3007 -28.1364 -1.9904 0.8618 0 19
-1.9168 -18.0080 -0.9695 0.9811 0 5
2.3093 -30.7525 -1.6510 0.6452 0 10
2.5760 -30.5935 -1.6437 0.4754 0 10
2.8499 -30.5383 -1.6420 0.4670 0 10
3.1257 -30.5071 -1.6418 0.4456 0 10
3.4031 -30.4905 -1.6425 0.5206 0 10
3.6799 -30.4673 -1.6430 0.7530 0 10
3.9568 -30.4425 -1.6435 0.9648 0 10
4.2305 -30.3939 -1.6429 0.9613 0 10
4.5078 -30.3704 -1.6438 0.9554 0 10
4.7850 -30.3449 -1.6446 0.9565 0 10
5.0222 -30.0772 -1.6325 0.7921 0 10
5.3414 -30.2981 -1.6471 0.7207 0 10
5.7292 -30.8620 -1.6805 0.0951 0 10
5.5098 -28.2528 -1.5411 0.9941 0 19
5.7704 -28.2271 -1.5424 0.9932 0 19
6.1331 -28.6762 -1.5700 0.9873 0 19
6.3992 -28.6502 -1.5716 0.9863 0 19
6.6659 -28.6241 -1.5735 0.9851 0 19
6.9332 -28.5979 -1.5754 0.9839 0 19
7.2012 -28.5717 -1.5775 0.9826 0 19
7.4700 -28.5454 -1.5797 0.9812 0 19
7.7395 -28.5191 -1.5821 0.9798 0 19
8.0099 -28.4927 -1.5845 0.9782 0 19
8.2811 -28.4662 -1.5872 0.9766 0 19
8.5533 -28.4396 -1.5899 0.9749 0 19
8.8264 -28.4129 -1.5928 0.9731 0 19
9.1006 -28.3862 -1.5959 0.9713 0 19
9.3759 -28.3593 -1.5991 0.9693 0 19
9.6504 -28.3271 -1.6021 0.9071 0 19
10.2111 -28.2851 -1.6100 0.9031 0 19
10.4918 -28.2591 -1.6138 0.6210 0 19
10.7748 -28.2358 -1.6180 0.6194 0 19
11.0605 -28.2152 -1.6225 0.1867 0 19
11.3480 -28.1949 -1.6271 0.9584 0 19
11.6339 -28.1668 -1.6315 0.9558 0 19
11.9215 -28.1385 -1.6361 0.9531 0 19
12.2107 -28.1101 -1.6408 0.9504 0 19
12.5015 -28.0816 -1.6457 0.9476 0 19
12.7942 -28.0528 -1.6507 0.9447 0 19
13.0886 -28.0239 -1.6559 0.9417 0 19
13.3850 -27.9948 -1.6613 0.9387 0 19
13.6832 -27.9654 -1.6668 0.9356 0 19
14.0305 -28.0297 -1.6781 0.9324 0 19
14.3339 -27.9999 -1.6840 0.9291 0 19
17.3392 -33.1280 -2.0018 0.9266 0 10
17.7072 -33.0984 -2.0096 0.9223 0 10
18.0669 -33.0482 -2.0164 0.9188 0 10
18.4890 -33.1049 -2.0300 0.7754 0 10
3.0230 -4.7830 -0.3029 0.7885 0 9
3.0454 -4.7233 -0.3009 0.7939 0 9
3.0670 -4.6635 -0.2988 0.7860 0 9
3.0880 -4.6041 -0.2968 0.7914 0 9
3.1226 -4.5658 -0.2961 0.9695 0 9
3.1696 -4.5457 -0.2967 0.9677 0 9
3.2168 -4.5256 -0.2973 0.9658 0 9
3.2640 -4.5051 -0.2978 0.9672 0 9
3.3113 -4.4844 -0.2984 0.9653 0 9
3.3811 -4.4933 -0.3011 0.4032 0 9
3.4931 -4.5557 -0.3073 0.3974 0 9
12.8590 -3.4907 -0.7133 0.9983 0 5
23.0417 -2.7848 -1.2426 0.6462 0 9
22.9973 -2.5685 -1.2389 0.9691 0 9
23.0997 -2.3685 -1.2432 0.9036 0 9
33.6146 -2.8329 -1.8060 0.8352 0 19
34.9845 -2.6297 -1.8782 0.8402 0 19
36.4012 -2.4051 -1.9531 0.9720 0 19
38.9393 -2.2191 -2.0881 0.1554 0 19
37.8831 -1.4716 -2.0297 0.7184 0 9
37.7360 -1.1240 -2.0212 0.9596 0 9
34.5473 -0.0908 -1.8496 0.9557 0 19
37.3668 0.2400 -2.0005 0.9530 0 19
13.0366 9.3426 -0.8587 0.9902 0 5
16.7045 36.1226 -2.1307 0.9847 0 9
14.5823 36.6315 -2.1108 0.0535 0 19
14.2502 36.7619 -2.1108 0.0535 0 19
9.1417 35.4828 -1.9616 0.6411 0 19
8.7688 35.3566 -1.9502 0.8746 0 19
6.3336 34.8543 -1.8966 0.7818 0 9
6.0161 34.8994 -1.8960 0.9533 0 9
1.5453 13.2150 -0.7123 0.9758 363 5
34.5185 -0.0000 -2.6287 0.0759 0 14
34.5171 0.3124 -2.6287 0.0759 0 14
35.4110 0.6410 -2.6971 0.0947 0 8
36.4062 0.9886 -2.7735 0.0759 0 7
36.3958 1.3181 -2.7735 0.0759 0 6
36.3824 1.6474 -2.7735 0.0759 0 7
36.3660 1.9766 -2.7735 0.0759 0 7
36.3466 2.3056 -2.7735 0.0759 0 7
36.3243 2.6344 -2.7735 0.0759 0 7
36.2989 2.9630 -2.7735 0.0759 0 7
36.2706 3.2914 -2.7735 0.0759 0 7
36.2393 3.6195 -2.7735 0.0759 0 7
36.2051 3.9473 -2.7735 0.0759 0 7
36.1679 4.2748 -2.7735 0.0759 0 7
36.1277 4.6019 -2.7735 0.0759 0 7
36.0846 4.9287 -2.7735 0.0759 0 7
36.0385 5.2550 -2.7735 0.0759 0 7
35.9895 5.5810 -2.7735 0.0759 0 7
35.9375 5.9064 -2.7735 0.0759 0 7
35.8826 6.2314 -2.7735 0.0759 0 7
35.8247 6.5559 -2.7735 0.0759 0 7
35.7639 6.8798 -2.7735 0.0759 0 7
35.7002 7.2032 -2.7735 0.0759 0 7
35.6336 7.5260 -2.7735 0.0759 0 7
35.5640 7.8481 -2.7735 0.0759 0 7
35.4915 8.1696 -2.7735 0.0759 0 6
35.4161 8.4905 -2.7735 0.0759 0 7
35.3379 8.8107 -2.7735 0.0759 0 7
35.2567 9.1301 -2.7735 0.0759 0 7
35.1726 9.4488 -2.7735 0.0759 0 7
35.0857 9.7667 -2.7735 0.0759 0 7
34.9958 10.0838 -2.7735 0.0759 0 7
34.9031 10.4001 -2.7735 0.0759 0 7
34.7933 10.7111 -2.7723 0.0792 0 8
34.6295 11.0048 -2.7671 0.0794 0 8
33.4974 10.9797 -2.6845 0.2240 0 8
32.6079 11.0160 -2.6211 0.0759 0 8
32.5069 11.3106 -2.6211 0.0759 0 8
32.4032 11.6043 -2.6211 0.0759 0 8
32.2969 11.8971 -2.6211 0.0759 0 8
32.1879 12.1889 -2.6211 0.0759 0 8
32.0763 12.4797 -2.6211 0.0759 0 8
31.9620 12.7694 -2.6211 0.0759 0 8
31.8451 13.0581 -2.6211 0.0759 0 8
31.7257 13.3458 -2.6211 0.0759 0 8
24.9343 10.7555 -2.0679 0.3035 0 19
24.3075 10.7471 -2.0239 0.9470 0 19
23.3936 10.5971 -1.9558 0.2068 0 19
23.3039 10.8117 -1.9564 0.9412 0 19
23.2801 11.0578 -1.9627 0.7376 0 19
30.9546 15.0479 -2.6211 0.0759 0 8
30.8172 15.3275 -2.6211 0.0759 0 8
30.6772 15.6057 -2.6211 0.0759 0 8
30.5347 15.8827 -2.6211 0.0759 0 8
30.3897 16.1584 -2.6211 0.0759 0 8
30.2423 16.4327 -2.6211 0.0759 0 8
30.0923 16.7057 -2.6211 0.0759 0 8
29.9399 16.9774 -2.6211 0.0759 0 22
29.7850 17.2476 -2.6211 0.0759 0 22
29.6277 17.5165 -2.6211 0.0759 0 22
29.4680 17.7839 -2.6211 0.0759 0 22
29.3058 18.0498 -2.6211 0.0759 0 22
29.1413 18.3143 -2.6211 0.0759 0 22
28.9744 18.5773 -2.6211 0.0759 0 22
28.8051 18.8387 -2.6211 0.0759 0 22
28.6334 19.0986 -2.6211 0.0759 0 22
28.4594 19.3570 -2.6211 0.0759 0 22
28.2831 19.6137 -2.6211 0.0759 0 22
28.1044 19.8688 -2.6211 0.0759 0 22
27.9234 20.1224 -2.6211 0.0759 0 22
27.7402 20.3742 -2.6211 0.0759 0 22
27.5547 20.6245 -2.6211 0.0759 0 22
27.3669 20.8730 -2.6211 0.0759 0 22
27.1769 21.1198 -2.6211 0.0759 0 22
26.9846 21.3649 -2.6211 0.0759 0 22
26.7902 21.6082 -2.6211 0.0759 0 22
26.5935 21.8498 -2.6211 0.0759 0 22
26.3947 22.0895 -2.6211 0.0759 0 22
26.1937 22.3275 -2.6211 0.0759 0 22
25.9906 22.5636 -2.6211 0.0759 0 22
25.7854 22.7979 -2.6211 0.0759 0 22
25.5780 23.0303 -2.6211 0.0759 0 22
25.3685 23.2608 -2.6211 0.0759 0 22
25.1570 23.4894 -2.6211 0.0759 0 22
24.9434 23.7162 -2.6211 0.0759 0 22
24.7278 23.9409 -2.6211 0.0759 0 22
24.5101 24.1637 -2.6211 0.0759 0 22
24.2904 24.3845 -2.6211 0.0759 0 22
24.0687 24.6033 -2.6211 0.0759 0 22
23.8451 24.8202 -2.6211 0.0759 0 22
23.6195 25.0349 -2.6211 0.0759 0 22
23.3920 25.2477 -2.6211 0.0759 0 22
23.1625 25.4583 -2.6211 0.0759 0 22
22.9312 25.6669 -2.6211 0.0759 0 22
22.6980 25.8733 -2.6211 0.0759 0 22
22.4629 26.0777 -2.6211 0.0759 0 22
22.2260 26.2799 -2.6211 0.0759 0 22
21.9873 26.4800 -2.6211 0.0759 0 22
21.7467 26.6779 -2.6211 0.0759 0 22
21.5044 26.8736 -2.6211 0.0759 0 22
21.2603 27.0671 -2.6211 0.0759 0 22
21.0145 27.2584 -2.6211 0.0759 0 22
20.7670 27.4474 -2.6211 0.0759 0 22
20.5177 27.6342 -2.6211 0.0759 0 22
20.2668 27.8188 -2.6211 0.0759 0 22
20.0142 28.0010 -2.6211 0.0759 0 22
19.7600 28.1810 -2.6211 0.0759 0 22
19.5042 28.3587 -2.6211 0.0759 0 22
19.2467 28.5340 -2.6211 0.0759 0 22
18.9877 28.7071 -2.6211 0.0759 0 22
18.7271 28.8777 -2.6211 0.0759 0 22
18.4650 29.0460 -2.6211 0.0759 0 22
18.2014 29.2119 -2.6211 0.0759 0 22
17.9363 29.3754 -2.6211 0.0759 0 22
17.6698 29.5366 -2.6211 0.0759 0 22
17.4017 29.6952 -2.6211 0.0759 0 22
17.1323 29.8515 -2.6211 0.0759 0 22
16.8615 30.0053 -2.6211 0.0759 0 22
16.5892 30.1567 -2.6211 0.0759 0 22
16.3156 30.3056 -2.6211 0.0759 0 22
16.0407 30.4520 -2.6211 0.0759 0 22
15.7645 30.5959 -2.6211 0.0759 0 22
15.4869 30.7374 -2.6211 0.0759 0 22
15.2082 30.8762 -2.6211 0.0759 0 22
14.9281 31.0126 -2.6211 0.0759 0 22
14.6468 31.1464 -2.6211 0.0759 0 22
14.3644 31.2777 -2.6211 0.0759 0 22
14.0807 31.4064 -2.6211 0.0759 0 22
13.7959 31.5325 -2.6211 0.0759 0 8
13.5100 31.6561 -2.6211 0.0759 0 8
13.2230 31.7771 -2.6211 0.0759 0 8
12.9349 31.8954 -2.6211 0.0759 0 8
12.6457 32.0112 -2.6211 0.0759 0 8
12.3555 32.1243 -2.6211 0.0759 0 8
12.0643 32.2348 -2.6211 0.0759 0 8
11.7720 32.3427 -2.6211 0.0759 0 8
11.4789 32.4479 -2.6211 0.0759 0 8
11.1848 32.5504 -2.6211 0.0759 0 8
10.8897 32.6503 -2.6211 0.0759 0 8
10.5938 32.7475 -2.6211 0.0759 0 8
10.2970 32.8420 -2.6211 0.0759 0 8
9.9994 32.9339 -2.6211 0.0759 0 8
9.7010 33.0230 -2.6211 0.0759 0 8
9.4017 33.1095 -2.6211 0.0759 0 8
9.1017 33.1932 -2.6211 0.0759 0 8
8.8009 33.2742 -2.6211 0.0759 0 8
8.4995 33.3525 -2.6211 0.0759 0 8
8.1973 33.4280 -2.6211 0.0759 0 8
7.8944 33.5008 -2.6211 0.0759 0 8
7.5909 33.5709 -2.6211 0.0759 0 8
7.2868 33.6383 -2.6211 0.0759 0 8
6.9821 33.7028 -2.6211 0.0759 0 8
6.6768 33.7646 -2.6211 0.0759 0 8
6.3710 33.8236 -2.6211 0.0759 0 8
6.0646 33.8799 -2.6211 0.0759 0 8
5.7578 33.9334 -2.6211 0.0759 0 8
5.4505 33.9841 -2.6211 0.0759 0 8
5.1427 34.0321 -2.6211 0.0759 0 8
1.8910 13.3293 -1.0252 0.9688 0 12
1.7665 13.3171 -1.0230 0.9709 0 12
1.6425 13.3049 -1.0209 0.9729 0 12
1.5190 13.2928 -1.0189 0.9748 0 12
1.3960 13.2807 -1.0169 0.9767 0 12
1.2734 13.2686 -1.0151 0.9785 0 12
1.1513 13.2566 -1.0133 0.9802 0 12
2.6675 34.3149 -2.6211 0.0759 0 8
1.6549 24.1101 -1.8404 0.3705 0 9
1.4197 23.8395 -1.8187 0.7929 0 9
1.2035 23.8431 -1.8180 0.9846 0 9
0.9931 23.9843 -1.8280 0.6526 0 9
1.1773 36.4006 -2.7735 0.0759 0 7
0.8478 36.4098 -2.7735 0.0759 0 7
0.5183 36.4160 -2.7735 0.0759 0 7
0.1887 36.4192 -2.7735 0.0759 0 7
-0.1409 36.4194 -2.7735 0.0759 0 7
-0.4704 36.4166 -2.7735 0.0759 0 7
-0.8000 36.4109 -2.7735 0.0759 0 7
-1.1295 36.4021 -2.7735 0.0759 0 7
