ply
format ascii 1.0
element vertex 1408
property float32 x
property float32 y
property float32 z
property float32 CosAngle
property uint32 ObjIdx
property uint32 ObjTag
end_header
6.7225 -9.4271 -2.7556 0.2315 0 7
6.8076 -9.3659 -2.7556 0.2315 0 7
6.8921 -9.3038 -2.7556 0.2315 0 7
6.9760 -9.2411 -2.7556 0.2315 0 7
7.0594 -9.1775 -2.7556 0.2315 0 7
7.1422 -9.1133 -2.7556 0.2315 0 7
7.2244 -9.0482 -2.7556 0.2315 0 7
7.3060 -8.9825 -2.7556 0.2315 0 7
7.3870 -8.9160 -2.7556 0.2315 0 7
7.4674 -8.8487 -2.7556 0.2315 0 7
7.5472 -8.7808 -2.7556 0.2315 0 7
7.6264 -8.7121 -2.7556 0.2315 0 7
7.7049 -8.6427 -2.7556 0.2315 0 7
7.7829 -8.5726 -2.7556 0.2315 0 7
7.8601 -8.5018 -2.7556 0.2315 0 7
7.9368 -8.4303 -2.7556 0.2315 0 7
8.0128 -8.3581 -2.7556 0.2315 0 7
8.0881 -8.2852 -2.7556 0.2315 0 7
8.1628 -8.2117 -2.7556 0.2315 0 7
8.2368 -8.1374 -2.7556 0.2315 0 6
8.3101 -8.0625 -2.7556 0.2315 0 6
8.3827 -7.9870 -2.7556 0.2315 0 7
8.4547 -7.9108 -2.7556 0.2315 0 7
8.5260 -7.8339 -2.7556 0.2315 0 7
8.5965 -7.7564 -2.7556 0.2315 0 7
8.6664 -7.6783 -2.7556 0.2315 0 7
8.7355 -7.5995 -2.7556 0.2315 0 7
8.8040 -7.5201 -2.7556 0.2315 0 7
8.8717 -7.4401 -2.7556 0.2315 0 7
8.9387 -7.3594 -2.7556 0.2315 0 7
9.0049 -7.2783 -2.7556 0.2315 0 7
9.0704 -7.1965 -2.7556 0.2315 0 7
9.1352 -7.1141 -2.7556 0.2315 0 7
9.1992 -7.0311 -2.7556 0.2315 0 7
9.2625 -6.9475 -2.7556 0.2315 0 7
9.3250 -6.8634 -2.7556 0.2315 0 7
9.3868 -6.7787 -2.7556 0.2315 0 7
9.4477 -6.6935 -2.7556 0.2315 0 7
9.5079 -6.6077 -2.7556 0.2315 0 7
9.5674 -6.5213 -2.7556 0.2315 0 7
9.6260 -6.4344 -2.7556 0.2315 0 7
9.6839 -6.3471 -2.7556 0.2315 0 7
9.7409 -6.2591 -2.7556 0.2315 0 7
9.7972 -6.1707 -2.7556 0.2315 0 7
9.8526 -6.0818 -2.7556 0.2315 0 7
9.9073 -5.9923 -2.7556 0.2315 0 7
9.9611 -5.9024 -2.7556 0.2315 0 7
10.0142 -5.8120 -2.7556 0.2315 0 7
10.0664 -5.7211 -2.7556 0.2315 0 7
10.1177 -5.6297 -2.7556 0.2315 0 7
10.1683 -5.5379 -2.7556 0.2315 0 7
10.2180 -5.4456 -2.7556 0.2315 0 7
10.2669 -5.3529 -2.7556 0.2315 0 7
10.3149 -5.2598 -2.7556 0.2315 0 7
10.3621 -5.1661 -2.7556 0.2315 0 7
10.4084 -5.0721 -2.7556 0.2315 0 7
10.4539 -4.9777 -2.7556 0.2315 0 7
10.4985 -4.8829 -2.7556 0.2315 0 7
10.5423 -4.7876 -2.7556 0.2315 0 7
10.5852 -4.6920 -2.7556 0.2315 0 7
10.6273 -4.5960 -2.7556 0.2315 0 7
10.6684 -4.4996 -2.7556 0.2315 0 7
10.7087 -4.4029 -2.7556 0.2315 0 7
10.7482 -4.3058 -2.7556 0.2315 0 7
10.7867 -4.2083 -2.7556 0.2315 0 7
10.8243 -4.1105 -2.7556 0.2315 0 7
10.8611 -4.0123 -2.7556 0.2315 0 7
10.8970 -3.9138 -2.7556 0.2315 0 7
10.9320 -3.8150 -2.7556 0.2315 0 7
10.9660 -3.7159 -2.7556 0.2315 0 7
10.9992 -3.6165 -2.7556 0.2315 0 7
11.0315 -3.5168 -2.7556 0.2315 0 7
11.0629 -3.4168 -2.7556 0.2315 0 7
11.0934 -3.3165 -2.7556 0.2315 0 7
11.1229 -3.2159 -2.7556 0.2315 0 7
11.1516 -3.1151 -2.7556 0.2315 0 7
11.1793 -3.0140 -2.7556 0.2315 0 7
11.2062 -2.9127 -2.7556 0.2315 0 7
11.2321 -2.8112 -2.7556 0.2315 0 7
11.2571 -2.7094 -2.7556 0.2315 0 7
11.2811 -2.6074 -2.7556 0.2315 0 7
11.3043 -2.5051 -2.7556 0.2315 0 7
11.3265 -2.4027 -2.7556 0.2315 0 7
11.3478 -2.3001 -2.7556 0.2315 0 7
11.3681 -2.1973 -2.7556 0.2315 0 7
11.3875 -2.0943 -2.7556 0.2315 0 7
11.4060 -1.9911 -2.7556 0.2315 0 7
11.4236 -1.8878 -2.7556 0.2315 0 7
11.4402 -1.7842 -2.7556 0.2315 0 7
11.4559 -1.6806 -2.7556 0.2315 0 7
11.4706 -1.5769 -2.7556 0.2315 0 7
11.4844 -1.4729 -2.7556 0.2315 0 7
11.4973 -1.3689 -2.7556 0.2315 0 7
11.5092 -1.2648 -2.7556 0.2315 0 6
11.5202 -1.1606 -2.7556 0.2315 0 7
11.5302 -1.0562 -2.7556 0.2315 0 6
11.5393 -0.9518 -2.7556 0.2315 0 7
11.5475 -0.8473 -2.7556 0.2315 0 7
11.5547 -0.7427 -2.7556 0.2315 0 7
11.5609 -0.6381 -2.7556 0.2315 0 7
11.5662 -0.5334 -2.7556 0.2315 0 7
11.5706 -0.4287 -2.7556 0.2315 0 7
11.5740 -0.3240 -2.7556 0.2315 0 7
11.5765 -0.2192 -2.7556 0.2315 0 7
11.5780 -0.1144 -2.7556 0.2315 0 7
11.5785 -0.0096 -2.7556 0.2315 0 7
11.5781 0.0953 -2.7556 0.2315 0 7
11.5768 0.2001 -2.7556 0.2315 0 7
11.5745 0.3049 -2.7556 0.2315 0 7
11.5713 0.4096 -2.7556 0.2315 0 7
11.5671 0.5143 -2.7556 0.2315 0 7
11.5620 0.6190 -2.7556 0.2315 0 7
11.5559 0.7237 -2.7556 0.2315 0 7
11.5489 0.8282 -2.7556 0.2315 0 7
11.5409 0.9327 -2.7556 0.2315 0 7
11.5320 1.0372 -2.7556 0.2315 0 7
11.5221 1.1415 -2.7556 0.2315 0 7
11.5113 1.2458 -2.7556 0.2315 0 7
11.4996 1.3499 -2.7556 0.2315 0 7
11.4869 1.4540 -2.7556 0.2315 0 7
11.4732 1.5579 -2.7556 0.2315 0 7
11.4587 1.6617 -2.7556 0.2315 0 7
11.4431 1.7653 -2.7556 0.2315 0 7
11.4267 1.8689 -2.7556 0.2315 0 7
11.4093 1.9722 -2.7556 0.2315 0 7
11.3910 2.0754 -2.7556 0.2315 0 7
11.3717 2.1785 -2.7556 0.2315 0 7
11.3515 2.2813 -2.7556 0.2315 0 6
11.3304 2.3840 -2.7556 0.2315 0 6
11.3084 2.4865 -2.7556 0.2315 0 7
11.2854 2.5887 -2.7556 0.2315 0 7
11.2615 2.6908 -2.7556 0.2315 0 7
11.2367 2.7926 -2.7556 0.2315 0 7
11.2110 2.8942 -2.7556 0.2315 0 7
11.1843 2.9956 -2.7556 0.2315 0 7
11.1567 3.0967 -2.7556 0.2315 0 7
11.1282 3.1975 -2.7556 0.2315 0 7
11.0988 3.2982 -2.7556 0.2315 0 7
11.0685 3.3985 -2.7556 0.2315 0 7
11.0373 3.4985 -2.7556 0.2315 0 7
11.0052 3.5983 -2.7556 0.2315 0 7
10.9722 3.6978 -2.7556 0.2315 0 7
10.9382 3.7969 -2.7556 0.2315 0 7
10.9034 3.8958 -2.7556 0.2315 0 7
10.8677 3.9944 -2.7556 0.2315 0 7
10.8311 4.0926 -2.7556 0.2315 0 7
10.7936 4.1905 -2.7556 0.2315 0 7
10.7552 4.2880 -2.7556 0.2315 0 7
10.7160 4.3852 -2.7556 0.2315 0 7
10.6759 4.4820 -2.7556 0.2315 0 7
10.6348 4.5785 -2.7556 0.2315 0 7
10.5930 4.6745 -2.7556 0.2315 0 7
10.5502 4.7702 -2.7556 0.2315 0 7
10.5066 4.8655 -2.7556 0.2315 0 7
10.4621 4.9604 -2.7556 0.2315 0 7
10.4168 5.0549 -2.7556 0.2315 0 7
10.3706 5.1490 -2.7556 0.2315 0 7
10.3236 5.2427 -2.7556 0.2315 0 7
10.2757 5.3359 -2.7556 0.2315 0 7
10.2270 5.4287 -2.7556 0.2315 0 7
10.1774 5.5211 -2.7556 0.2315 0 7
10.1270 5.6130 -2.7556 0.2315 0 7
10.0758 5.7044 -2.7556 0.2315 0 7
10.0237 5.7954 -2.7556 0.2315 0 7
9.9709 5.8859 -2.7556 0.2315 0 6
9.9172 5.9759 -2.7556 0.2315 0 7
9.8627 6.0655 -2.7556 0.2315 0 7
9.8074 6.1545 -2.7556 0.2315 0 7
9.7512 6.2430 -2.7556 0.2315 0 7
9.6943 6.3310 -2.7556 0.2315 0 7
9.6366 6.4185 -2.7556 0.2315 0 7
9.5781 6.5055 -2.7556 0.2315 0 7
9.5188 6.5919 -2.7556 0.2315 0 7
9.4588 6.6778 -2.7556 0.2315 0 7
9.3979 6.7632 -2.7556 0.2315 0 7
9.3363 6.8480 -2.7556 0.2315 0 7
9.2740 6.9322 -2.7556 0.2315 0 7
8.7675 6.6782 -2.6230 0.6184 0 10
8.3502 6.4806 -2.5156 0.8902 0 10
8.3151 6.5748 -2.5229 0.6361 0 10
8.4105 6.7749 -2.5703 0.9625 0 10
8.9508 7.3447 -2.7556 0.2315 0 7
8.8840 7.4255 -2.7556 0.2315 0 7
8.8164 7.5056 -2.7556 0.2315 0 7
8.7481 7.5851 -2.7556 0.2315 0 7
8.6790 7.6640 -2.7556 0.2315 0 7
8.6093 7.7422 -2.7556 0.2315 0 7
8.5389 7.8198 -2.7556 0.2315 0 7
8.4672 7.8963 -2.7555 0.2429 0 8
8.3917 7.9691 -2.7542 0.2430 0 8
8.3155 8.0412 -2.7530 0.2431 0 8
8.2388 8.1126 -2.7518 0.2432 0 8
8.1615 8.1834 -2.7507 0.2433 0 8
8.0837 8.2534 -2.7495 0.2434 0 8
8.0053 8.3227 -2.7483 0.2435 0 8
7.8837 8.3462 -2.7324 0.7468 0 8
7.7473 8.3521 -2.7113 0.7527 0 8
7.6131 8.3578 -2.6906 0.7584 0 8
7.4808 8.3634 -2.6705 0.7642 0 8
7.3504 8.3689 -2.6509 0.7698 0 8
7.2219 8.3743 -2.6318 0.7754 0 8
7.0952 8.3795 -2.6132 0.7809 0 8
6.9924 8.4113 -2.6032 0.2315 0 8
6.9159 8.4743 -2.6032 0.2315 0 8
6.8433 8.5419 -2.6049 0.7066 0 8
6.7614 8.5981 -2.6032 0.2315 0 8
6.6833 8.6589 -2.6032 0.2315 0 8
6.6046 8.7191 -2.6032 0.2315 0 8
6.5254 8.7785 -2.6032 0.2315 0 8
6.4457 8.8372 -2.6032 0.2315 0 8
6.3654 8.8952 -2.6032 0.2315 0 8
6.2847 8.9525 -2.6032 0.2315 0 8
6.2034 9.0090 -2.6032 0.2315 0 8
6.1216 9.0648 -2.6032 0.2315 0 8
6.0392 9.1198 -2.6032 0.2315 0 8
5.9564 9.1741 -2.6032 0.2315 0 8
5.8731 9.2277 -2.6032 0.2315 0 8
5.7894 9.2805 -2.6032 0.2315 0 8
5.7051 9.3325 -2.6032 0.2315 0 8
5.6204 9.3837 -2.6032 0.2315 0 8
5.5352 9.4342 -2.6032 0.2315 0 8
5.4496 9.4840 -2.6032 0.2315 0 8
5.3635 9.5329 -2.6032 0.2315 0 8
5.2770 9.5810 -2.6032 0.2315 0 8
5.1901 9.6284 -2.6032 0.2315 0 8
5.1027 9.6750 -2.6032 0.2315 0 8
4.6588 9.0305 -2.4184 0.8797 0 5
4.5567 9.0324 -2.4077 0.8836 0 5
4.4555 9.0343 -2.3974 0.8874 0 5
4.4452 9.2229 -2.4366 0.4197 0 5
4.6597 9.8960 -2.6032 0.2315 0 8
4.5699 9.9378 -2.6032 0.2315 0 8
4.4798 9.9787 -2.6032 0.2315 0 8
10.5208 -0.0000 -2.7556 0.2534 0 7
10.5203 0.0952 -2.7556 0.2534 0 7
10.5190 0.1905 -2.7556 0.2534 0 7
10.5169 0.2857 -2.7556 0.2534 0 7
10.5139 0.3809 -2.7556 0.2534 0 7
10.5100 0.4760 -2.7556 0.2534 0 7
10.5052 0.5711 -2.7556 0.2534 0 7
10.4996 0.6662 -2.7556 0.2534 0 7
10.4932 0.7612 -2.7556 0.2534 0 7
10.4859 0.8562 -2.7556 0.2534 0 7
10.4777 0.9511 -2.7556 0.2534 0 7
10.4686 1.0459 -2.7556 0.2534 0 7
10.4587 1.1406 -2.7556 0.2534 0 7
10.4480 1.2352 -2.7556 0.2534 0 7
10.4364 1.3298 -2.7556 0.2534 0 7
10.4239 1.4242 -2.7556 0.2534 0 7
10.4106 1.5185 -2.7556 0.2534 0 7
10.3964 1.6127 -2.7556 0.2534 0 7
10.3814 1.7067 -2.7556 0.2534 0 7
10.3655 1.8006 -2.7556 0.2534 0 7
10.3488 1.8944 -2.7556 0.2534 0 7
10.3312 1.9880 -2.7556 0.2534 0 7
10.3128 2.0814 -2.7556 0.2534 0 7
10.2935 2.1747 -2.7556 0.2534 0 7
10.2734 2.2678 -2.7556 0.2534 0 7
10.2525 2.3607 -2.7556 0.2534 0 7
10.2307 2.4534 -2.7556 0.2534 0 7
10.2081 2.5459 -2.7556 0.2534 0 7
10.1846 2.6382 -2.7556 0.2534 0 7
10.1603 2.7303 -2.7556 0.2534 0 7
10.1352 2.8221 -2.7556 0.2534 0 7
10.1092 2.9138 -2.7556 0.2534 0 7
10.0824 3.0052 -2.7556 0.2534 0 7
10.0548 3.0963 -2.7556 0.2534 0 7
10.0264 3.1872 -2.7556 0.2534 0 7
9.9971 3.2778 -2.7556 0.2534 0 7
9.9670 3.3682 -2.7556 0.2534 0 7
9.9361 3.4583 -2.7556 0.2534 0 7
9.9044 3.5481 -2.7556 0.2534 0 7
9.8719 3.6376 -2.7556 0.2534 0 7
9.8386 3.7268 -2.7556 0.2534 0 7
9.8044 3.8157 -2.7556 0.2534 0 7
9.7695 3.9043 -2.7556 0.2534 0 7
9.7337 3.9926 -2.7556 0.2534 0 7
9.6972 4.0805 -2.7556 0.2534 0 7
9.6599 4.1682 -2.7556 0.2534 0 7
9.6217 4.2554 -2.7556 0.2534 0 7
9.5828 4.3424 -2.7556 0.2534 0 7
9.5431 4.4289 -2.7556 0.2534 0 7
9.5026 4.5151 -2.7556 0.2534 0 7
9.4614 4.6010 -2.7556 0.2534 0 7
9.4193 4.6864 -2.7556 0.2534 0 7
9.3765 4.7715 -2.7556 0.2534 0 7
9.3329 4.8562 -2.7556 0.2534 0 7
9.2886 4.9405 -2.7556 0.2534 0 7
9.2435 5.0244 -2.7556 0.2534 0 7
9.1976 5.1078 -2.7556 0.2534 0 7
9.1510 5.1909 -2.7556 0.2534 0 7
9.1037 5.2735 -2.7556 0.2534 0 7
9.0555 5.3557 -2.7556 0.2534 0 7
9.0067 5.4375 -2.7556 0.2534 0 7
8.9571 5.5187 -2.7556 0.2534 0 7
8.9068 5.5996 -2.7556 0.2534 0 7
8.8557 5.6800 -2.7556 0.2534 0 7
8.8039 5.7599 -2.7556 0.2534 0 7
8.7514 5.8394 -2.7556 0.2534 0 6
8.6982 5.9184 -2.7556 0.2534 0 6
8.6443 5.9969 -2.7556 0.2534 0 7
8.5897 6.0749 -2.7556 0.2534 0 7
8.5343 6.1524 -2.7556 0.2534 0 7
8.4783 6.2294 -2.7556 0.2534 0 7
8.4215 6.3059 -2.7556 0.2534 0 7
8.3641 6.3819 -2.7556 0.2534 0 7
8.3060 6.4573 -2.7556 0.2534 0 7
8.2472 6.5322 -2.7556 0.2534 0 7
8.1877 6.6066 -2.7556 0.2534 0 7
8.1276 6.6805 -2.7556 0.2534 0 7
8.0668 6.7538 -2.7556 0.2534 0 7
8.0053 6.8265 -2.7556 0.2534 0 7
7.9432 6.8987 -2.7556 0.2534 0 7
7.8804 6.9703 -2.7556 0.2534 0 7
7.8170 7.0414 -2.7556 0.2534 0 7
7.7529 7.1118 -2.7556 0.2534 0 7
7.6882 7.1817 -2.7556 0.2534 0 7
7.6229 7.2510 -2.7556 0.2534 0 7
7.5570 7.3197 -2.7556 0.2534 0 7
7.4904 7.3879 -2.7556 0.2534 0 7
7.4232 7.4554 -2.7556 0.2534 0 7
7.3554 7.5222 -2.7556 0.2534 0 7
7.2870 7.5885 -2.7556 0.2534 0 7
7.2180 7.6542 -2.7556 0.2534 0 7
7.1485 7.7192 -2.7556 0.2534 0 7
7.0783 7.7836 -2.7556 0.2534 0 7
7.0075 7.8474 -2.7556 0.2534 0 7
6.9361 7.9103 -2.7556 0.2658 0 8
6.8617 7.9699 -2.7546 0.2659 0 8
6.7869 8.0288 -2.7536 0.2660 0 8
6.7115 8.0871 -2.7526 0.2661 0 8
6.6358 8.1447 -2.7517 0.2662 0 8
6.5595 8.2016 -2.7507 0.2663 0 8
6.4828 8.2578 -2.7498 0.2664 0 8
6.4056 8.3134 -2.7489 0.2665 0 8
6.3261 8.3657 -2.7471 0.8129 0 8
6.2114 8.3705 -2.7301 0.8180 0 8
6.0981 8.3752 -2.7135 0.8230 0 8
5.9861 8.3798 -2.6974 0.8279 0 8
5.8754 8.3843 -2.6816 0.8328 0 8
5.7660 8.3887 -2.6662 0.8376 0 8
5.6578 8.3930 -2.6512 0.8424 0 8
5.5508 8.3972 -2.6365 0.8470 0 8
5.4449 8.4014 -2.6222 0.8517 0 8
5.3411 8.4070 -2.6088 0.7618 0 8
5.2535 8.4370 -2.6032 0.2534 0 8
5.1769 8.4842 -2.6032 0.2534 0 8
5.0999 8.5307 -2.6032 0.2534 0 8
5.0225 8.5765 -2.6032 0.2534 0 8
4.9446 8.6216 -2.6032 0.2534 0 8
4.8664 8.6660 -2.6032 0.2534 0 8
4.7877 8.7097 -2.6032 0.2534 0 8
4.7087 8.7527 -2.6032 0.2534 0 8
4.6293 8.7950 -2.6032 0.2534 0 8
4.5495 8.8365 -2.6032 0.2534 0 8
4.4693 8.8774 -2.6032 0.2534 0 8
4.3888 8.9174 -2.6032 0.2534 0 8
4.3079 8.9568 -2.6032 0.2534 0 8
4.2266 8.9954 -2.6032 0.2534 0 8
4.1450 9.0333 -2.6032 0.2534 0 8
4.0631 9.0705 -2.6032 0.2534 0 8
3.9808 9.1069 -2.6032 0.2534 0 8
3.8982 9.1426 -2.6032 0.2534 0 8
3.8153 9.1774 -2.6032 0.2534 0 8
3.7320 9.2116 -2.6032 0.2534 0 8
3.6485 9.2450 -2.6032 0.2534 0 8
3.5647 9.2777 -2.6032 0.2534 0 8
3.4805 9.3096 -2.6032 0.2534 0 8
3.3961 9.3407 -2.6032 0.2534 0 8
3.3114 9.3710 -2.6032 0.2534 0 8
3.2264 9.4006 -2.6032 0.2534 0 8
3.1412 9.4295 -2.6032 0.2534 0 8
3.0557 9.4575 -2.6032 0.2534 0 8
2.9700 9.4848 -2.6032 0.2534 0 8
2.8840 9.5113 -2.6032 0.2534 0 8
2.7978 9.5370 -2.6032 0.2534 0 8
2.7113 9.5619 -2.6032 0.2534 0 8
2.6247 9.5861 -2.6032 0.2534 0 8
2.5324 9.5890 -2.5977 0.9379 0 9
2.4400 9.5900 -2.5919 0.9400 0 9
2.3480 9.5910 -2.5863 0.9420 0 9
2.2564 9.5919 -2.5809 0.9440 0 9
2.1652 9.5929 -2.5758 0.9458 0 9
2.0743 9.5939 -2.5709 0.9476 0 9
1.9838 9.5948 -2.5663 0.9494 0 9
1.8936 9.5958 -2.5618 0.9510 0 9
1.8037 9.5967 -2.5576 0.9526 0 9
1.7140 9.5977 -2.5536 0.9540 0 9
1.6247 9.5986 -2.5499 0.9555 0 9
1.5356 9.5996 -2.5463 0.9568 0 9
1.4467 9.6005 -2.5430 0.9580 0 9
1.3581 9.6015 -2.5399 0.9592 0 9
1.2697 9.6024 -2.5370 0.9603 0 9
1.1815 9.6033 -2.5343 0.9613 0 9
1.0934 9.6043 -2.5318 0.9623 0 9
1.0055 9.6052 -2.5296 0.9631 0 9
0.9178 9.6061 -2.5275 0.9639 0 9
0.8302 9.6071 -2.5257 0.9646 0 9
0.7427 9.6080 -2.5241 0.9652 0 9
0.6763 9.9159 -2.6032 0.2534 0 8
0.5865 9.9216 -2.6032 0.2534 0 8
0.4967 9.9265 -2.6032 0.2534 0 8
0.4068 9.9306 -2.6032 0.2534 0 8
0.3169 9.9339 -2.6032 0.2534 0 8
0.2270 9.9363 -2.6032 0.2534 0 8
0.1370 9.9380 -2.6032 0.2534 0 8
0.0470 9.9388 -2.6032 0.2534 0 8
-0.0429 9.9388 -2.6032 0.2534 0 8
-0.1329 9.9380 -2.6032 0.2534 0 8
-0.2229 9.9364 -2.6032 0.2534 0 8
-0.3128 9.9340 -2.6032 0.2534 0 8
-0.4027 9.9308 -2.6032 0.2534 0 8
-0.4926 9.9267 -2.6032 0.2534 0 8
-0.5824 9.9218 -2.6032 0.2534 0 8
-0.6722 9.9162 -2.6032 0.2534 0 8
-0.7620 9.9097 -2.6032 0.2534 0 8
-0.8516 9.9024 -2.6032 0.2534 0 8
-0.9412 9.8942 -2.6032 0.2534 0 8
-1.0308 9.8853 -2.6032 0.2534 0 8
-1.1202 9.8756 -2.6032 0.2534 0 8
-1.2096 9.8650 -2.6032 0.2534 0 8
-1.2988 9.8537 -2.6032 0.2534 0 8
-1.3879 9.8415 -2.6032 0.2534 0 8
-1.4770 9.8286 -2.6032 0.2534 0 8
-1.5659 9.8148 -2.6032 0.2534 0 8
-1.6547 9.8002 -2.6032 0.2534 0 8
-1.7433 9.7848 -2.6032 0.2534 0 8
-1.8318 9.7686 -2.6032 0.2534 0 8
-1.9202 9.7517 -2.6032 0.2534 0 8
-2.0084 9.7339 -2.6032 0.2534 0 8
-2.0964 9.7153 -2.6032 0.2534 0 8
-2.1843 9.6959 -2.6032 0.2534 0 8
-2.2720 9.6757 -2.6032 0.2534 0 8
-2.3594 9.6548 -2.6032 0.2534 0 8
-2.4467 9.6330 -2.6032 0.2534 0 8
-2.5338 9.6105 -2.6032 0.2534 0 8
-2.6207 9.5872 -2.6032 0.2534 0 8
-2.7074 9.5630 -2.6032 0.2534 0 8
-2.7939 9.5381 -2.6032 0.2534 0 8
-2.8801 9.5125 -2.6032 0.2534 0 8
-2.9661 9.4860 -2.6032 0.2534 0 8
-3.0518 9.4588 -2.6032 0.2534 0 8
-3.1373 9.4308 -2.6032 0.2534 0 8
-3.2226 9.4020 -2.6032 0.2534 0 8
-3.3075 9.3724 -2.6032 0.2534 0 8
-3.3923 9.3421 -2.6032 0.2534 0 8
-3.4767 9.3110 -2.6032 0.2534 0 8
-3.5608 9.2791 -2.6032 0.2534 0 8
-3.6447 9.2465 -2.6032 0.2534 0 8
-3.7282 9.2132 -2.6032 0.2534 0 8
-3.8115 9.1790 -2.6032 0.2534 0 8
-3.8944 9.1441 -2.6032 0.2534 0 8
-3.9770 9.1085 -2.6032 0.2534 0 8
-4.0593 9.0722 -2.6032 0.2534 0 8
-4.1413 9.0350 -2.6032 0.2534 0 8
-4.2229 8.9972 -2.6032 0.2534 0 8
-4.3042 8.9586 -2.6032 0.2534 0 8
-4.3851 8.9192 -2.6032 0.2534 0 8
-4.4656 8.8792 -2.6032 0.2534 0 8
-4.5458 8.8384 -2.6032 0.2534 0 8
-4.6257 8.7969 -2.6032 0.2534 0 8
-4.7051 8.7547 -2.6032 0.2534 0 8
-4.7842 8.7117 -2.6032 0.2534 0 8
-4.8628 8.6680 -2.6032 0.2534 0 8
-4.9411 8.6237 -2.6032 0.2534 0 8
-5.0189 8.5786 -2.6032 0.2534 0 8
-5.1096 8.5549 -2.6100 0.7613 0 8
-5.2142 8.5531 -2.6237 0.8512 0 8
-5.3203 8.5520 -2.6381 0.8465 0 8
-5.4275 8.5508 -2.6527 0.8419 0 8
-5.5359 8.5496 -2.6678 0.8371 0 8
-5.6456 8.5483 -2.6832 0.8323 0 8
-5.7564 8.5469 -2.6990 0.8274 0 8
-5.8686 8.5455 -2.7153 0.8225 0 8
-5.9822 8.5440 -2.7319 0.8175 0 8
-6.0951 8.5398 -2.7481 0.2665 0 8
-6.1742 8.4871 -2.7490 0.2665 0 8
-6.2529 8.4337 -2.7499 0.2664 0 8
-6.3312 8.3796 -2.7508 0.2663 0 8
-6.4090 8.3248 -2.7518 0.2662 0 8
-6.4863 8.2693 -2.7527 0.2661 0 8
-6.5632 8.2132 -2.7537 0.2660 0 8
-6.6397 8.1563 -2.7547 0.2659 0 8
-6.7155 8.0986 -2.7556 0.2534 0 7
-6.7886 8.0375 -2.7556 0.2534 0 7
-6.8610 7.9758 -2.7556 0.2534 0 7
-6.9330 7.9133 -2.7556 0.2534 0 7
-7.0043 7.8502 -2.7556 0.2534 0 7
-7.0751 7.7865 -2.7556 0.2534 0 7
-7.1453 7.7221 -2.7556 0.2534 0 7
-7.2149 7.6572 -2.7556 0.2534 0 7
-7.2839 7.5915 -2.7556 0.2534 0 7
-7.3523 7.5253 -2.7556 0.2534 0 7
-7.4201 7.4584 -2.7556 0.2534 0 7
-7.4874 7.3909 -2.7556 0.2534 0 7
-7.5539 7.3229 -2.7556 0.2534 0 7
-7.6199 7.2542 -2.7556 0.2534 0 7
-7.6853 7.1849 -2.7556 0.2534 0 7
-7.7500 7.1150 -2.7556 0.2534 0 7
-7.8141 7.0446 -2.7556 0.2534 0 7
-7.8776 6.9736 -2.7556 0.2534 0 7
-7.9403 6.9020 -2.7556 0.2534 0 7
-8.0025 6.8298 -2.7556 0.2534 0 7
-8.0640 6.7571 -2.7556 0.2534 0 7
-8.1248 6.6838 -2.7556 0.2534 0 7
-8.1850 6.6100 -2.7556 0.2534 0 7
-8.2445 6.5356 -2.7556 0.2534 0 7
-8.3033 6.4607 -2.7556 0.2534 0 7
-8.3615 6.3853 -2.7556 0.2534 0 7
-8.4189 6.3093 -2.7556 0.2534 0 7
-8.4757 6.2329 -2.7556 0.2534 0 7
-8.5318 6.1559 -2.7556 0.2534 0 6
-8.5871 6.0784 -2.7556 0.2534 0 6
-8.6418 6.0004 -2.7556 0.2534 0 7
-8.6958 5.9220 -2.7556 0.2534 0 7
-8.7490 5.8430 -2.7556 0.2534 0 7
-8.8016 5.7636 -2.7556 0.2534 0 7
-8.8534 5.6837 -2.7556 0.2534 0 7
-8.9045 5.6033 -2.7556 0.2534 0 7
-8.9548 5.5224 -2.7556 0.2534 0 7
-9.0045 5.4412 -2.7556 0.2534 0 7
-9.0533 5.3594 -2.7556 0.2534 0 7
-9.1015 5.2773 -2.7556 0.2534 0 7
-9.1489 5.1946 -2.7556 0.2534 0 7
-9.1955 5.1116 -2.7556 0.2534 0 7
-9.2414 5.0282 -2.7556 0.2534 0 7
-9.2866 4.9443 -2.7556 0.2534 0 7
-9.3309 4.8600 -2.7556 0.2534 0 7
-9.3746 4.7754 -2.7556 0.2534 0 7
-9.4174 4.6903 -2.7556 0.2534 0 7
-9.4595 4.6049 -2.7556 0.2534 0 7
-9.5008 4.5190 -2.7556 0.2534 0 7
-9.5413 4.4329 -2.7556 0.2534 0 7
-9.5810 4.3463 -2.7556 0.2534 0 7
-9.6200 4.2594 -2.7556 0.2534 0 7
-9.6581 4.1721 -2.7556 0.2534 0 7
-9.6955 4.0845 -2.7556 0.2534 0 7
-9.7321 3.9966 -2.7556 0.2534 0 7
-9.7679 3.9083 -2.7556 0.2534 0 7
-9.8028 3.8198 -2.7556 0.2534 0 7
-9.8370 3.7309 -2.7556 0.2534 0 7
-9.8704 3.6417 -2.7556 0.2534 0 7
-9.9030 3.5522 -2.7556 0.2534 0 7
-9.9347 3.4624 -2.7556 0.2534 0 7
-9.9656 3.3723 -2.7556 0.2534 0 7
-9.9958 3.2820 -2.7556 0.2534 0 7
-10.0251 3.1914 -2.7556 0.2534 0 7
-10.0535 3.1005 -2.7556 0.2534 0 7
-10.0812 3.0093 -2.7556 0.2534 0 7
-10.1080 2.9179 -2.7556 0.2534 0 7
-10.1340 2.8263 -2.7556 0.2534 0 7
-10.1592 2.7345 -2.7556 0.2534 0 7
-10.1835 2.6424 -2.7556 0.2534 0 6
-10.2070 2.5501 -2.7556 0.2534 0 7
-10.2297 2.4576 -2.7556 0.2534 0 7
-10.2515 2.3649 -2.7556 0.2534 0 7
-10.2725 2.2720 -2.7556 0.2534 0 7
-10.2927 2.1789 -2.7556 0.2534 0 7
-10.3120 2.0857 -2.7556 0.2534 0 7
-10.3304 1.9922 -2.7556 0.2534 0 7
-10.3480 1.8986 -2.7556 0.2534 0 7
-10.3648 1.8049 -2.7556 0.2534 0 7
-10.3807 1.7110 -2.7556 0.2534 0 7
-10.3958 1.6170 -2.7556 0.2534 0 7
-10.4100 1.5228 -2.7556 0.2534 0 7
-10.4233 1.4285 -2.7556 0.2534 0 7
-10.4358 1.3341 -2.7556 0.2534 0 7
-10.4475 1.2395 -2.7556 0.2534 0 7
-10.4583 1.1449 -2.7556 0.2534 0 7
-10.4682 1.0502 -2.7556 0.2534 0 7
-10.4773 0.9554 -2.7556 0.2534 0 7
-10.4855 0.8605 -2.7556 0.2534 0 7
-10.4929 0.7656 -2.7556 0.2534 0 7
-10.4994 0.6705 -2.7556 0.2534 0 7
-10.5050 0.5755 -2.7556 0.2534 0 7
-10.5098 0.4804 -2.7556 0.2534 0 7
-10.5137 0.3852 -2.7556 0.2534 0 7
-10.5168 0.2900 -2.7556 0.2534 0 7
-10.5190 0.1948 -2.7556 0.2534 0 7
-10.5203 0.0996 -2.7556 0.2534 0 7
-10.5208 0.0044 -2.7556 0.2534 0 7
-10.5204 -0.0909 -2.7556 0.2534 0 7
-10.5191 -0.1861 -2.7556 0.2534 0 7
-10.5170 -0.2813 -2.7556 0.2534 0 7
-10.5140 -0.3765 -2.7556 0.2534 0 7
-10.5102 -0.4717 -2.7556 0.2534 0 7
-10.5055 -0.5668 -2.7556 0.2534 0 7
-10.4999 -0.6619 -2.7556 0.2534 0 6
-10.4935 -0.7569 -2.7556 0.2534 0 6
-10.4862 -0.8519 -2.7556 0.2534 0 7
-10.4781 -0.9468 -2.7556 0.2534 0 6
-10.4691 -1.0416 -2.7556 0.2534 0 7
-10.4592 -1.1363 -2.7556 0.2534 0 7
-10.4485 -1.2309 -2.7556 0.2534 0 7
-10.4369 -1.3255 -2.7556 0.2534 0 7
-10.4245 -1.4199 -2.7556 0.2534 0 7
-10.4112 -1.5142 -2.7556 0.2534 0 7
-10.3971 -1.6084 -2.7556 0.2534 0 7
-10.3821 -1.7024 -2.7556 0.2534 0 7
-10.3663 -1.7963 -2.7556 0.2534 0 7
-10.3496 -1.8901 -2.7556 0.2534 0 7
-10.3321 -1.9837 -2.7556 0.2534 0 7
-10.3137 -2.0772 -2.7556 0.2534 0 7
-10.2944 -2.1704 -2.7556 0.2534 0 7
-10.2744 -2.2635 -2.7556 0.2534 0 7
-10.2535 -2.3565 -2.7556 0.2534 0 7
-10.2317 -2.4492 -2.7556 0.2534 0 7
-10.2091 -2.5417 -2.7556 0.2534 0 7
-10.1857 -2.6340 -2.7556 0.2534 0 7
-10.1614 -2.7261 -2.7556 0.2534 0 7
-10.1363 -2.8180 -2.7556 0.2534 0 7
-10.1104 -2.9096 -2.7556 0.2534 0 7
-10.0837 -3.0010 -2.7556 0.2534 0 7
-10.0561 -3.0922 -2.7556 0.2534 0 7
-10.0277 -3.1831 -2.7556 0.2534 0 7
-9.9985 -3.2737 -2.7556 0.2534 0 7
-9.9684 -3.3641 -2.7556 0.2534 0 7
-9.9376 -3.4542 -2.7556 0.2534 0 7
-9.9059 -3.5440 -2.7556 0.2534 0 7
-9.8734 -3.6335 -2.7556 0.2534 0 7
-9.8401 -3.7227 -2.7556 0.2534 0 7
-9.8060 -3.8117 -2.7556 0.2534 0 7
-9.7711 -3.9003 -2.7556 0.2534 0 7
-9.7354 -3.9886 -2.7556 0.2534 0 7
-9.6989 -4.0765 -2.7556 0.2534 0 7
-9.6616 -4.1642 -2.7556 0.2534 0 7
-9.6235 -4.2515 -2.7556 0.2534 0 7
-9.5846 -4.3384 -2.7556 0.2534 0 7
-9.5449 -4.4250 -2.7556 0.2534 0 7
-9.5045 -4.5112 -2.7556 0.2534 0 7
-9.4633 -4.5971 -2.7556 0.2534 0 7
-9.4213 -4.6825 -2.7556 0.2534 0 7
-9.3785 -4.7676 -2.7556 0.2534 0 7
-9.3350 -4.8523 -2.7556 0.2534 0 7
-9.2907 -4.9366 -2.7556 0.2534 0 7
-9.2456 -5.0205 -2.7556 0.2534 0 7
-9.1997 -5.1040 -2.7556 0.2534 0 7
-9.1532 -5.1871 -2.7556 0.2534 0 7
-9.1058 -5.2697 -2.7556 0.2534 0 7
-9.0578 -5.3520 -2.7556 0.2534 0 7
-9.0089 -5.4337 -2.7556 0.2534 0 7
-8.9594 -5.5150 -2.7556 0.2534 0 7
-8.9091 -5.5959 -2.7556 0.2534 0 7
-8.8581 -5.6764 -2.7556 0.2534 0 7
-8.8063 -5.7563 -2.7556 0.2534 0 7
-8.7539 -5.8358 -2.7556 0.2534 0 7
-8.7007 -5.9148 -2.7556 0.2534 0 7
-8.6468 -5.9933 -2.7556 0.2534 0 7
-8.5922 -6.0713 -2.7556 0.2534 0 7
-8.5369 -6.1488 -2.7556 0.2534 0 7
-8.4809 -6.2259 -2.7556 0.2534 0 7
-8.4241 -6.3024 -2.7556 0.2534 0 7
-8.3668 -6.3784 -2.7556 0.2534 0 7
-8.3087 -6.4539 -2.7556 0.2534 0 7
-8.2499 -6.5288 -2.7556 0.2534 0 7
-8.1905 -6.6032 -2.7556 0.2534 0 7
-8.1304 -6.6771 -2.7556 0.2534 0 7
-8.0696 -6.7504 -2.7556 0.2534 0 7
-8.0081 -6.8232 -2.7556 0.2534 0 7
-7.9460 -6.8954 -2.7556 0.2534 0 7
-7.8833 -6.9671 -2.7556 0.2534 0 7
-7.8199 -7.0381 -2.7556 0.2534 0 7
-7.7559 -7.1086 -2.7556 0.2534 0 7
-7.6912 -7.1786 -2.7556 0.2534 0 7
-7.6259 -7.2479 -2.7556 0.2534 0 7
-7.5600 -7.3166 -2.7556 0.2534 0 7
-7.4935 -7.3848 -2.7556 0.2534 0 7
-7.4263 -7.4523 -2.7556 0.2534 0 7
-7.3585 -7.5192 -2.7556 0.2534 0 7
-7.2902 -7.5855 -2.7556 0.2534 0 7
-7.2212 -7.6512 -2.7556 0.2534 0 7
-7.1516 -7.7162 -2.7556 0.2534 0 7
-7.0815 -7.7807 -2.7556 0.2534 0 7
-7.0108 -7.8444 -2.7556 0.2534 0 6
-6.9395 -7.9076 -2.7556 0.2534 0 6
-6.8676 -7.9701 -2.7556 0.2534 0 7
-6.7952 -8.0319 -2.7556 0.2534 0 7
-6.7222 -8.0931 -2.7556 0.2534 0 7
-6.6487 -8.1536 -2.7556 0.2534 0 7
-6.5746 -8.2135 -2.7556 0.2534 0 7
-6.5000 -8.2727 -2.7556 0.2534 0 7
-6.4248 -8.3312 -2.7556 0.2534 0 7
-6.3491 -8.3890 -2.7556 0.2534 0 7
-6.2729 -8.4461 -2.7556 0.2534 0 7
-6.1962 -8.5025 -2.7556 0.2534 0 7
-6.1190 -8.5583 -2.7556 0.2534 0 7
-6.0413 -8.6133 -2.7556 0.2534 0 7
-5.9631 -8.6677 -2.7556 0.2534 0 7
-5.8844 -8.7213 -2.7556 0.2534 0 7
-5.8052 -8.7742 -2.7556 0.2534 0 7
-5.7255 -8.8264 -2.7556 0.2534 0 7
-5.6454 -8.8779 -2.7556 0.2534 0 7
-5.5648 -8.9286 -2.7556 0.2534 0 7
-5.4837 -8.9786 -2.7556 0.2534 0 7
-5.4022 -9.0279 -2.7556 0.2534 0 7
-5.3203 -9.0764 -2.7556 0.2534 0 7
-5.2379 -9.1242 -2.7556 0.2534 0 7
-5.1551 -9.1712 -2.7556 0.2534 0 7
-5.0719 -9.2175 -2.7556 0.2534 0 7
-4.9882 -9.2631 -2.7556 0.2534 0 7
-4.9041 -9.3078 -2.7556 0.2534 0 7
-4.8197 -9.3519 -2.7556 0.2534 0 7
-4.7348 -9.3951 -2.7556 0.2534 0 7
-4.6496 -9.4376 -2.7556 0.2534 0 7
-4.5640 -9.4793 -2.7556 0.2534 0 7
-4.4780 -9.5202 -2.7556 0.2534 0 7
-4.3916 -9.5604 -2.7556 0.2534 0 7
-4.3049 -9.5997 -2.7556 0.2534 0 7
-4.2178 -9.6383 -2.7556 0.2534 0 7
-4.1304 -9.6761 -2.7556 0.2534 0 7
-4.0426 -9.7131 -2.7556 0.2534 0 7
-3.9545 -9.7493 -2.7556 0.2534 0 7
-3.8661 -9.7847 -2.7556 0.2534 0 7
-3.7774 -9.8193 -2.7556 0.2534 0 7
-3.6884 -9.8530 -2.7556 0.2534 0 7
-3.5990 -9.8860 -2.7556 0.2534 0 7
-3.5094 -9.9182 -2.7556 0.2534 0 7
-3.4194 -9.9494 -2.7556 0.2689 0 8
-3.3286 -9.9783 -2.7551 0.2690 0 8
-3.2376 -10.0063 -2.7547 0.2690 0 8
-3.1464 -10.0336 -2.7542 0.2691 0 8
-3.0550 -10.0601 -2.7538 0.2691 0 8
-2.9634 -10.0859 -2.7534 0.2691 0 8
-2.8715 -10.1108 -2.7530 0.2692 0 8
-2.7795 -10.1350 -2.7526 0.2692 0 8
-2.6873 -10.1583 -2.7522 0.2692 0 8
-2.5948 -10.1809 -2.7519 0.2693 0 8
-2.5023 -10.2027 -2.7515 0.2693 0 8
-2.4095 -10.2237 -2.7512 0.2693 0 8
-2.3166 -10.2439 -2.7509 0.2694 0 8
-2.2235 -10.2633 -2.7506 0.2694 0 8
-2.1303 -10.2819 -2.7503 0.2694 0 8
-2.0369 -10.2997 -2.7500 0.2695 0 8
-1.9434 -10.3167 -2.7497 0.2695 0 8
-1.8498 -10.3330 -2.7495 0.2695 0 8
-1.7560 -10.3484 -2.7492 0.2695 0 8
-1.6621 -10.3630 -2.7490 0.2696 0 8
-1.5681 -10.3768 -2.7488 0.2696 0 8
-1.4740 -10.3899 -2.7486 0.2696 0 8
-1.3798 -10.4021 -2.7484 0.2696 0 8
-1.2855 -10.4135 -2.7482 0.2696 0 8
-1.1911 -10.4241 -2.7481 0.2697 0 8
-1.0963 -10.4299 -2.7469 0.9934 0 8
-1.0011 -10.4316 -2.7448 0.9942 0 8
-0.9060 -10.4333 -2.7430 0.9948 0 8
-0.8110 -10.4350 -2.7414 0.9954 0 8
-0.7162 -10.4366 -2.7400 0.9959 0 8
-0.6214 -10.4382 -2.7388 0.9964 0 8
-0.5267 -10.4397 -2.7379 0.9967 0 8
-0.4320 -10.4412 -2.7371 0.9970 0 8
-0.3374 -10.4426 -2.7366 0.9972 0 8
-0.2429 -10.4440 -2.7363 0.9973 0 8
-0.1483 -10.4454 -2.7362 0.9973 0 8
-0.0538 -10.4467 -2.7363 0.9973 0 8
0.0408 -10.4480 -2.7366 0.9972 0 8
0.1354 -10.4493 -2.7371 0.9970 0 8
0.2301 -10.4505 -2.7379 0.9967 0 8
0.3248 -10.4517 -2.7389 0.9964 0 8
0.4195 -10.4528 -2.7400 0.9959 0 8
0.5144 -10.4539 -2.7414 0.9954 0 8
0.6094 -10.4549 -2.7430 0.9948 0 8
0.7045 -10.4560 -2.7449 0.9942 0 8
0.7997 -10.4569 -2.7469 0.9934 0 8
0.8947 -10.4537 -2.7481 0.2697 0 8
0.9894 -10.4458 -2.7482 0.2696 0 8
1.0839 -10.4371 -2.7484 0.2696 0 8
1.1784 -10.4275 -2.7486 0.2696 0 8
1.2729 -10.4172 -2.7488 0.2696 0 8
1.3672 -10.4060 -2.7490 0.2696 0 8
1.4615 -10.3941 -2.7492 0.2695 0 8
1.5557 -10.3813 -2.7495 0.2695 0 8
1.6497 -10.3678 -2.7497 0.2695 0 8
1.7437 -10.3534 -2.7500 0.2695 0 8
1.8375 -10.3383 -2.7503 0.2694 0 8
1.9312 -10.3223 -2.7506 0.2694 0 8
2.0248 -10.3056 -2.7509 0.2694 0 8
2.1183 -10.2880 -2.7512 0.2693 0 8
2.2116 -10.2696 -2.7515 0.2693 0 8
2.3047 -10.2505 -2.7519 0.2693 0 8
2.3977 -10.2305 -2.7522 0.2692 0 8
2.4906 -10.2098 -2.7526 0.2692 0 8
2.5833 -10.1883 -2.7530 0.2692 0 8
2.6758 -10.1660 -2.7534 0.2691 0 8
2.7681 -10.1428 -2.7538 0.2691 0 8
2.8603 -10.1189 -2.7542 0.2691 0 8
2.9522 -10.0943 -2.7547 0.2690 0 8
3.0440 -10.0688 -2.7551 0.2690 0 8
3.1355 -10.0425 -2.7556 0.2689 0 8
3.2264 -10.0138 -2.7556 0.2534 0 7
3.3169 -9.9842 -2.7556 0.2534 0 7
3.4071 -9.9538 -2.7556 0.2534 0 7
3.4971 -9.9225 -2.7556 0.2534 0 7
3.5868 -9.8905 -2.7556 0.2534 0 7
3.6761 -9.8576 -2.7556 0.2534 0 7
3.7652 -9.8239 -2.7556 0.2534 0 7
3.8540 -9.7894 -2.7556 0.2534 0 7
3.9425 -9.7542 -2.7556 0.2534 0 7
4.0306 -9.7181 -2.7556 0.2534 0 7
4.1184 -9.6812 -2.7556 0.2534 0 7
4.2059 -9.6435 -2.7556 0.2534 0 7
4.2930 -9.6050 -2.7556 0.2534 0 7
4.3798 -9.5658 -2.7556 0.2534 0 7
4.4662 -9.5257 -2.7556 0.2534 0 7
4.5522 -9.4849 -2.7556 0.2534 0 7
4.6379 -9.4433 -2.7556 0.2534 0 7
4.7232 -9.4010 -2.7556 0.2534 0 7
4.8081 -9.3578 -2.7556 0.2534 0 7
4.8926 -9.3139 -2.7556 0.2534 0 7
4.9767 -9.2692 -2.7556 0.2534 0 7
5.0604 -9.2238 -2.7556 0.2534 0 7
5.1437 -9.1776 -2.7556 0.2534 0 7
5.2266 -9.1307 -2.7556 0.2534 0 7
5.3090 -9.0830 -2.7556 0.2534 0 7
5.3910 -9.0346 -2.7556 0.2534 0 7
5.4726 -8.9854 -2.7556 0.2534 0 7
5.5537 -8.9355 -2.7556 0.2534 0 7
5.6344 -8.8848 -2.7556 0.2534 0 7
5.7145 -8.8335 -2.7556 0.2534 0 7
5.7943 -8.7814 -2.7556 0.2534 0 7
5.8735 -8.7286 -2.7556 0.2534 0 7
5.9523 -8.6750 -2.7556 0.2534 0 7
6.0306 -8.6208 -2.7556 0.2534 0 7
6.1084 -8.5659 -2.7556 0.2534 0 7
6.1857 -8.5102 -2.7556 0.2534 0 7
6.2625 -8.4539 -2.7556 0.2534 0 7
6.3387 -8.3968 -2.7556 0.2534 0 7
6.4145 -8.3391 -2.7556 0.2534 0 7
6.4897 -8.2807 -2.7556 0.2534 0 7
6.5644 -8.2216 -2.7556 0.2534 0 7
6.6385 -8.1619 -2.7556 0.2534 0 7
6.7122 -8.1014 -2.7556 0.2534 0 6
6.7853 -8.0403 -2.7556 0.2534 0 6
6.8577 -7.9786 -2.7556 0.2534 0 7
6.9297 -7.9162 -2.7556 0.2534 0 7
7.0010 -7.8531 -2.7556 0.2534 0 7
7.0719 -7.7894 -2.7556 0.2534 0 7
7.1421 -7.7251 -2.7556 0.2534 0 7
7.2117 -7.6601 -2.7556 0.2534 0 7
7.2808 -7.5945 -2.7556 0.2534 0 7
7.3492 -7.5283 -2.7556 0.2534 0 7
7.4171 -7.4615 -2.7556 0.2534 0 7
7.4843 -7.3940 -2.7556 0.2534 0 7
7.5509 -7.3260 -2.7556 0.2534 0 7
7.6169 -7.2573 -2.7556 0.2534 0 7
7.6823 -7.1881 -2.7556 0.2534 0 7
7.7471 -7.1183 -2.7556 0.2534 0 7
7.8112 -7.0478 -2.7556 0.2534 0 7
7.8747 -6.9768 -2.7556 0.2534 0 7
7.9375 -6.9053 -2.7556 0.2534 0 7
7.9997 -6.8331 -2.7556 0.2534 0 7
8.0612 -6.7604 -2.7556 0.2534 0 7
8.1221 -6.6872 -2.7556 0.2534 0 7
8.1823 -6.6134 -2.7556 0.2534 0 7
8.2418 -6.5391 -2.7556 0.2534 0 7
8.3007 -6.4642 -2.7556 0.2534 0 7
8.3588 -6.3888 -2.7556 0.2534 0 7
8.4163 -6.3128 -2.7556 0.2534 0 7
8.4731 -6.2364 -2.7556 0.2534 0 7
8.5292 -6.1594 -2.7556 0.2534 0 7
8.5846 -6.0820 -2.7556 0.2534 0 7
8.6393 -6.0040 -2.7556 0.2534 0 7
8.6933 -5.9256 -2.7556 0.2534 0 7
8.7466 -5.8466 -2.7556 0.2534 0 7
8.7992 -5.7672 -2.7556 0.2534 0 7
8.8510 -5.6873 -2.7556 0.2534 0 7
8.9022 -5.6070 -2.7556 0.2534 0 7
8.9525 -5.5262 -2.7556 0.2534 0 7
9.0022 -5.4449 -2.7556 0.2534 0 7
9.0511 -5.3632 -2.7556 0.2534 0 7
9.0993 -5.2810 -2.7556 0.2534 0 7
9.1467 -5.1984 -2.7556 0.2534 0 7
9.1934 -5.1154 -2.7556 0.2534 0 7
9.2393 -5.0320 -2.7556 0.2534 0 7
9.2845 -4.9481 -2.7556 0.2534 0 7
9.3289 -4.8639 -2.7556 0.2534 0 7
9.3726 -4.7792 -2.7556 0.2534 0 7
9.4155 -4.6942 -2.7556 0.2534 0 7
9.4576 -4.6088 -2.7556 0.2534 0 6
9.4989 -4.5230 -2.7556 0.2534 0 7
9.5394 -4.4368 -2.7556 0.2534 0 7
9.5792 -4.3503 -2.7556 0.2534 0 7
9.6182 -4.2634 -2.7556 0.2534 0 7
9.6564 -4.1761 -2.7556 0.2534 0 7
9.6938 -4.0886 -2.7556 0.2534 0 7
9.7304 -4.0006 -2.7556 0.2534 0 7
9.7662 -3.9124 -2.7556 0.2534 0 7
9.8013 -3.8238 -2.7556 0.2534 0 7
9.8355 -3.7349 -2.7556 0.2534 0 7
9.8689 -3.6458 -2.7556 0.2534 0 7
9.9015 -3.5563 -2.7556 0.2534 0 7
9.9333 -3.4665 -2.7556 0.2534 0 7
9.9642 -3.3764 -2.7556 0.2534 0 7
9.9944 -3.2861 -2.7556 0.2534 0 7
10.0237 -3.1955 -2.7556 0.2534 0 7
10.0522 -3.1046 -2.7556 0.2534 0 7
10.0799 -3.0135 -2.7556 0.2534 0 7
10.1068 -2.9221 -2.7556 0.2534 0 7
10.1328 -2.8305 -2.7556 0.2534 0 7
10.1580 -2.7387 -2.7556 0.2534 0 7
10.1824 -2.6466 -2.7556 0.2534 0 7
10.2060 -2.5543 -2.7556 0.2534 0 7
10.2287 -2.4619 -2.7556 0.2534 0 7
10.2505 -2.3692 -2.7556 0.2534 0 7
10.2716 -2.2763 -2.7556 0.2534 0 7
10.2917 -2.1832 -2.7556 0.2534 0 7
10.3111 -2.0899 -2.7556 0.2534 0 7
10.3296 -1.9965 -2.7556 0.2534 0 7
10.3472 -1.9029 -2.7556 0.2534 0 7
10.3640 -1.8092 -2.7556 0.2534 0 7
10.3800 -1.7153 -2.7556 0.2534 0 7
10.3951 -1.6213 -2.7556 0.2534 0 7
10.4093 -1.5271 -2.7556 0.2534 0 7
10.4227 -1.4328 -2.7556 0.2534 0 7
10.4353 -1.3384 -2.7556 0.2534 0 7
10.4470 -1.2439 -2.7556 0.2534 0 6
10.4578 -1.1493 -2.7556 0.2534 0 7
10.4678 -1.0545 -2.7556 0.2534 0 6
10.4769 -0.9597 -2.7556 0.2534 0 6
10.4852 -0.8649 -2.7556 0.2534 0 7
10.4925 -0.7699 -2.7556 0.2534 0 7
10.4991 -0.6749 -2.7556 0.2534 0 7
10.5048 -0.5798 -2.7556 0.2534 0 7
10.5096 -0.4847 -2.7556 0.2534 0 7
10.5135 -0.3896 -2.7556 0.2534 0 7
10.5166 -0.2944 -2.7556 0.2534 0 7
10.5189 -0.1992 -2.7556 0.2534 0 7
10.5202 -0.1039 -2.7556 0.2534 0 7
10.5207 -0.0087 -2.7556 0.2534 0 7
10.5204 0.0866 -2.7556 0.2534 0 7
10.5192 0.1818 -2.7556 0.2534 0 7
10.5171 0.2770 -2.7556 0.2534 0 7
10.5142 0.3722 -2.7556 0.2534 0 7
10.5104 0.4674 -2.7556 0.2534 0 7
10.5057 0.5625 -2.7556 0.2534 0 7
10.5002 0.6576 -2.7556 0.2534 0 7
10.4938 0.7526 -2.7556 0.2534 0 7
10.4866 0.8475 -2.7556 0.2534 0 7
10.4785 0.9424 -2.7556 0.2534 0 7
10.4695 1.0372 -2.7556 0.2534 0 7
10.4597 1.1320 -2.7556 0.2534 0 7
10.4490 1.2266 -2.7556 0.2534 0 7
10.4375 1.3212 -2.7556 0.2534 0 7
10.4251 1.4156 -2.7556 0.2534 0 7
10.4118 1.5099 -2.7556 0.2534 0 7
10.3977 1.6041 -2.7556 0.2534 0 7
10.3828 1.6981 -2.7556 0.2534 0 7
10.3670 1.7921 -2.7556 0.2534 0 7
10.3504 1.8858 -2.7556 0.2534 0 7
10.3329 1.9794 -2.7556 0.2534 0 7
10.3145 2.0729 -2.7556 0.2534 0 7
10.2953 2.1662 -2.7556 0.2534 0 7
10.2753 2.2593 -2.7556 0.2534 0 7
10.2544 2.3522 -2.7556 0.2534 0 7
10.2327 2.4449 -2.7556 0.2534 0 7
10.2102 2.5375 -2.7556 0.2534 0 7
10.1868 2.6298 -2.7556 0.2534 0 7
10.1626 2.7219 -2.7556 0.2534 0 7
10.1375 2.8138 -2.7556 0.2534 0 7
10.1116 2.9054 -2.7556 0.2534 0 7
10.0849 2.9968 -2.7556 0.2534 0 7
10.0574 3.0880 -2.7556 0.2534 0 7
10.0290 3.1789 -2.7556 0.2534 0 7
9.9998 3.2696 -2.7556 0.2534 0 7
9.9698 3.3600 -2.7556 0.2534 0 7
9.9390 3.4501 -2.7556 0.2534 0 7
9.9073 3.5399 -2.7556 0.2534 0 7
9.8749 3.6294 -2.7556 0.2534 0 7
9.8416 3.7187 -2.7556 0.2534 0 7
9.8076 3.8076 -2.7556 0.2534 0 7
9.7727 3.8963 -2.7556 0.2534 0 7
9.7370 3.9846 -2.7556 0.2534 0 7
9.7006 4.0725 -2.7556 0.2534 0 7
9.6633 4.1602 -2.7556 0.2534 0 7
9.6252 4.2475 -2.7556 0.2534 0 7
9.5864 4.3344 -2.7556 0.2534 0 7
9.5468 4.4210 -2.7556 0.2534 0 7
9.5064 4.5073 -2.7556 0.2534 0 7
9.4652 4.5932 -2.7556 0.2534 0 7
9.4232 4.6786 -2.7556 0.2534 0 7
9.3805 4.7638 -2.7556 0.2534 0 7
9.3369 4.8485 -2.7556 0.2534 0 7
9.2927 4.9328 -2.7556 0.2534 0 7
9.2476 5.0167 -2.7556 0.2534 0 7
9.2018 5.1002 -2.7556 0.2534 0 7
9.1553 5.1833 -2.7556 0.2534 0 7
9.1080 5.2660 -2.7556 0.2534 0 7
9.0600 5.3482 -2.7556 0.2534 0 7
9.0112 5.4300 -2.7556 0.2534 0 7
8.9617 5.5114 -2.7556 0.2534 0 7
8.9114 5.5923 -2.7556 0.2534 0 7
8.8604 5.6727 -2.7556 0.2534 0 7
8.8087 5.7527 -2.7556 0.2534 0 7
8.7563 5.8322 -2.7556 0.2534 0 6
8.7031 5.9112 -2.7556 0.2534 0 6
8.6492 5.9897 -2.7556 0.2534 0 7
8.5947 6.0678 -2.7556 0.2534 0 7
8.5394 6.1453 -2.7556 0.2534 0 7
8.4834 6.2224 -2.7556 0.2534 0 7
8.4267 6.2989 -2.7556 0.2534 0 7
8.3694 6.3749 -2.7556 0.2534 0 7
8.3113 6.4505 -2.7556 0.2534 0 7
8.2526 6.5254 -2.7556 0.2534 0 7
8.1932 6.5999 -2.7556 0.2534 0 7
8.1331 6.6737 -2.7556 0.2534 0 7
8.0724 6.7471 -2.7556 0.2534 0 7
8.0109 6.8199 -2.7556 0.2534 0 7
7.9489 6.8921 -2.7556 0.2534 0 7
7.8862 6.9638 -2.7556 0.2534 0 7
7.8228 7.0349 -2.7556 0.2534 0 7
7.7588 7.1054 -2.7556 0.2534 0 7
7.6942 7.1754 -2.7556 0.2534 0 7
7.6289 7.2447 -2.7556 0.2534 0 7
7.5630 7.3135 -2.7556 0.2534 0 7
7.4965 7.3817 -2.7556 0.2534 0 7
7.4294 7.4492 -2.7556 0.2534 0 7
7.3616 7.5162 -2.7556 0.2534 0 7
7.2933 7.5825 -2.7556 0.2534 0 7
7.2243 7.6482 -2.7556 0.2534 0 7
7.1548 7.7133 -2.7556 0.2534 0 7
7.0847 7.7777 -2.7556 0.2534 0 7
7.0140 7.8416 -2.7556 0.2534 0 7
6.9427 7.9047 -2.7556 0.2534 0 7
6.8685 7.9645 -2.7547 0.2659 0 8
6.7937 8.0235 -2.7537 0.2660 0 8
6.7184 8.0818 -2.7527 0.2661 0 8
6.6427 8.1394 -2.7518 0.2662 0 8
6.5665 8.1964 -2.7508 0.2663 0 8
6.4898 8.2527 -2.7499 0.2664 0 8
6.4127 8.3084 -2.7490 0.2665 0 8
6.3351 8.3633 -2.7481 0.2665 0 8
6.2218 8.3700 -2.7317 0.8175 0 8
6.1084 8.3747 -2.7150 0.8226 0 8
5.9963 8.3793 -2.6988 0.8275 0 8
5.8855 8.3838 -2.6830 0.8324 0 8
5.7759 8.3883 -2.6676 0.8372 0 8
5.6676 8.3926 -2.6525 0.8419 0 8
5.5605 8.3968 -2.6378 0.8466 0 8
5.4545 8.4010 -2.6235 0.8512 0 8
5.3501 8.4059 -2.6098 0.7615 0 8
5.2605 8.4326 -2.6032 0.2534 0 8
5.1839 8.4799 -2.6032 0.2534 0 8
5.1069 8.5265 -2.6032 0.2534 0 8
5.0296 8.5724 -2.6032 0.2534 0 8
4.9518 8.6175 -2.6032 0.2534 0 8
4.8735 8.6620 -2.6032 0.2534 0 8
4.7949 8.7058 -2.6032 0.2534 0 8
4.7159 8.7488 -2.6032 0.2534 0 8
4.6365 8.7911 -2.6032 0.2534 0 8
4.5568 8.8328 -2.6032 0.2534 0 8
4.4766 8.8737 -2.6032 0.2534 0 8
4.3961 8.9138 -2.6032 0.2534 0 8
4.3152 8.9533 -2.6032 0.2534 0 8
4.2340 8.9919 -2.6032 0.2534 0 8
4.1525 9.0299 -2.6032 0.2534 0 8
4.0705 9.0671 -2.6032 0.2534 0 8
9.6305 -0.0000 -2.7556 0.2751 0 7
9.6301 0.0872 -2.7556 0.2751 0 7
9.6289 0.1743 -2.7556 0.2751 0 7
9.6270 0.2615 -2.7556 0.2751 0 7
9.6242 0.3486 -2.7556 0.2751 0 7
9.6206 0.4357 -2.7556 0.2751 0 7
9.6163 0.5228 -2.7556 0.2751 0 7
9.6112 0.6098 -2.7556 0.2751 0 7
9.6053 0.6968 -2.7556 0.2751 0 7
9.5986 0.7837 -2.7556 0.2751 0 7
9.5911 0.8706 -2.7556 0.2751 0 7
9.5828 0.9574 -2.7556 0.2751 0 7
9.5737 1.0441 -2.7556 0.2751 0 7
9.5639 1.1307 -2.7556 0.2751 0 7
9.5533 1.2172 -2.7556 0.2751 0 7
9.5419 1.3037 -2.7556 0.2751 0 7
9.5297 1.3900 -2.7556 0.2751 0 7
9.5167 1.4762 -2.7556 0.2751 0 7
9.5029 1.5623 -2.7556 0.2751 0 7
9.4884 1.6483 -2.7556 0.2751 0 7
9.4731 1.7341 -2.7556 0.2751 0 7
9.4570 1.8198 -2.7556 0.2751 0 7
9.4402 1.9053 -2.7556 0.2751 0 7
9.4225 1.9907 -2.7556 0.2751 0 7
9.4041 2.0759 -2.7556 0.2751 0 7
9.3849 2.1609 -2.7556 0.2751 0 7
9.3650 2.2458 -2.7556 0.2751 0 7
9.3443 2.3305 -2.7556 0.2751 0 7
9.3228 2.4150 -2.7556 0.2751 0 7
9.3006 2.4993 -2.7556 0.2751 0 7
9.2776 2.5834 -2.7556 0.2751 0 7
9.2538 2.6672 -2.7556 0.2751 0 7
9.2293 2.7509 -2.7556 0.2751 0 7
9.2040 2.8343 -2.7556 0.2751 0 7
9.1780 2.9175 -2.7556 0.2751 0 7
9.1512 3.0005 -2.7556 0.2751 0 7
9.1236 3.0832 -2.7556 0.2751 0 7
9.0953 3.1657 -2.7556 0.2751 0 7
9.0663 3.2479 -2.7556 0.2751 0 7
9.0365 3.3298 -2.7556 0.2751 0 7
9.0060 3.4115 -2.7556 0.2751 0 7
8.9748 3.4928 -2.7556 0.2751 0 7
8.9428 3.5740 -2.7556 0.2751 0 7
8.9101 3.6547 -2.7556 0.2751 0 7
8.8766 3.7353 -2.7556 0.2751 0 7
8.8425 3.8155 -2.7556 0.2751 0 7
8.8076 3.8953 -2.7556 0.2751 0 7
8.7719 3.9749 -2.7556 0.2751 0 7
8.7356 4.0542 -2.7556 0.2751 0 7
8.6985 4.1331 -2.7556 0.2751 0 7
8.6608 4.2116 -2.7556 0.2751 0 7
8.6223 4.2899 -2.7556 0.2751 0 7
8.5831 4.3677 -2.7556 0.2751 0 7
8.5432 4.4453 -2.7556 0.2751 0 7
8.5026 4.5224 -2.7556 0.2751 0 7
8.4613 4.5992 -2.7556 0.2751 0 7
8.4193 4.6756 -2.7556 0.2751 0 7
8.3767 4.7516 -2.7556 0.2751 0 7
8.3333 4.8273 -2.7556 0.2751 0 7
8.2893 4.9025 -2.7556 0.2751 0 7
8.2446 4.9773 -2.7556 0.2751 0 7
8.1992 5.0518 -2.7556 0.2751 0 7
8.1531 5.1258 -2.7556 0.2751 0 7
8.1064 5.1994 -2.7556 0.2751 0 7
8.0590 5.2725 -2.7556 0.2751 0 7
8.0109 5.3453 -2.7556 0.2751 0 7
7.9622 5.4176 -2.7556 0.2751 0 7
7.9128 5.4894 -2.7556 0.2751 0 7
7.8628 5.5608 -2.7556 0.2751 0 7
7.8122 5.6318 -2.7556 0.2751 0 7
7.7609 5.7023 -2.7556 0.2751 0 7
7.7089 5.7723 -2.7556 0.2751 0 7
7.6564 5.8418 -2.7556 0.2751 0 6
7.6032 5.9109 -2.7556 0.2751 0 6
7.5493 5.9795 -2.7556 0.2751 0 7
7.4949 6.0476 -2.7556 0.2751 0 7
7.4398 6.1152 -2.7556 0.2751 0 7
7.3842 6.1823 -2.7556 0.2751 0 7
7.3279 6.2489 -2.7556 0.2751 0 7
7.2711 6.3149 -2.7556 0.2751 0 7
7.2136 6.3805 -2.7556 0.2751 0 7
7.1555 6.4456 -2.7556 0.2751 0 7
7.0969 6.5100 -2.7556 0.2751 0 7
7.0377 6.5740 -2.7556 0.2751 0 7
6.9779 6.6375 -2.7556 0.2751 0 7
6.9175 6.7003 -2.7556 0.2751 0 7
6.8566 6.7627 -2.7556 0.2751 0 7
6.7951 6.8245 -2.7556 0.2751 0 7
6.7330 6.8857 -2.7556 0.2751 0 7
6.6704 6.9464 -2.7556 0.2751 0 7
6.6073 7.0065 -2.7556 0.2751 0 7
6.5436 7.0660 -2.7556 0.2751 0 7
6.4793 7.1249 -2.7556 0.2751 0 7
6.4146 7.1833 -2.7556 0.2751 0 7
6.3493 7.2411 -2.7556 0.2751 0 7
6.2835 7.2983 -2.7556 0.2751 0 7
6.2172 7.3548 -2.7556 0.2751 0 7
6.1503 7.4108 -2.7556 0.2751 0 7
6.0830 7.4662 -2.7556 0.2751 0 7
6.0151 7.5210 -2.7556 0.2751 0 7
5.9468 7.5751 -2.7556 0.2751 0 7
5.8780 7.6286 -2.7556 0.2751 0 7
5.8087 7.6815 -2.7556 0.2751 0 7
5.7389 7.7338 -2.7556 0.2751 0 7
5.6687 7.7854 -2.7556 0.2751 0 7
5.5980 7.8364 -2.7556 0.2751 0 7
5.5268 7.8868 -2.7556 0.2751 0 7
5.4549 7.9361 -2.7555 0.2886 0 8
5.3814 7.9829 -2.7547 0.2887 0 8
5.3074 8.0291 -2.7540 0.2888 0 8
5.2331 8.0746 -2.7532 0.2889 0 8
5.1584 8.1194 -2.7525 0.2889 0 8
5.0833 8.1636 -2.7517 0.2890 0 8
5.0079 8.2071 -2.7510 0.2891 0 8
4.9321 8.2500 -2.7503 0.2892 0 8
4.8560 8.2922 -2.7496 0.2892 0 8
4.7796 8.3338 -2.7489 0.2893 0 8
4.7028 8.3746 -2.7483 0.2894 0 8
4.6128 8.3914 -2.7400 0.8849 0 8
4.5163 8.3951 -2.7277 0.8889 0 8
4.4207 8.3987 -2.7157 0.8928 0 8
4.3259 8.4022 -2.7041 0.8967 0 8
4.2318 8.4056 -2.6928 0.9004 0 8
4.1385 8.4090 -2.6817 0.9041 0 8
4.0460 8.4123 -2.6710 0.9078 0 8
3.9541 8.4155 -2.6606 0.9113 0 8
3.8630 8.4187 -2.6504 0.9148 0 8
3.7725 8.4219 -2.6405 0.9183 0 8
3.6827 8.4249 -2.6309 0.9216 0 8
3.5935 8.4279 -2.6216 0.9249 0 8
3.5049 8.4309 -2.6125 0.9281 0 8
3.4187 8.4382 -2.6051 0.8283 0 8
3.3397 8.4627 -2.6032 0.2751 0 8
3.2630 8.4926 -2.6032 0.2751 0 8
3.1860 8.5218 -2.6032 0.2751 0 8
3.1087 8.5503 -2.6032 0.2751 0 8
3.0312 8.5781 -2.6032 0.2751 0 8
2.9534 8.6052 -2.6032 0.2751 0 8
2.8754 8.6315 -2.6032 0.2751 0 8
2.7972 8.6572 -2.6032 0.2751 0 8
2.7187 8.6822 -2.6032 0.2751 0 8
2.6400 8.7065 -2.6032 0.2751 0 8
2.5611 8.7300 -2.6032 0.2751 0 8
2.4819 8.7528 -2.6032 0.2751 0 8
2.4026 8.7749 -2.6032 0.2751 0 8
2.3231 8.7963 -2.6032 0.2751 0 8
2.2433 8.8170 -2.6032 0.2751 0 8
2.1634 8.8369 -2.6032 0.2751 0 8
2.0833 8.8561 -2.6032 0.2751 0 8
2.0031 8.8746 -2.6032 0.2751 0 8
1.9227 8.8924 -2.6032 0.2751 0 8
1.8421 8.9095 -2.6032 0.2751 0 8
1.7614 8.9258 -2.6032 0.2751 0 8
1.6805 8.9414 -2.6032 0.2751 0 8
1.5995 8.9562 -2.6032 0.2751 0 8
1.5184 8.9703 -2.6032 0.2751 0 8
1.4371 8.9837 -2.6032 0.2751 0 8
1.3557 8.9963 -2.6032 0.2751 0 8
1.2742 9.0082 -2.6032 0.2751 0 8
1.1926 9.0194 -2.6032 0.2751 0 8
1.1109 9.0298 -2.6032 0.2751 0 8
1.0291 9.0395 -2.6032 0.2751 0 8
0.9473 9.0484 -2.6032 0.2751 0 8
0.8653 9.0567 -2.6032 0.2751 0 8
0.7833 9.0641 -2.6032 0.2751 0 8
0.7012 9.0708 -2.6032 0.2751 0 8
0.6191 9.0768 -2.6032 0.2751 0 8
0.5369 9.0820 -2.6032 0.2751 0 8
0.4546 9.0865 -2.6032 0.2751 0 8
0.3724 9.0903 -2.6032 0.2751 0 8
0.2901 9.0933 -2.6032 0.2751 0 8
0.2077 9.0955 -2.6032 0.2751 0 8
0.1254 9.0970 -2.6032 0.2751 0 8
0.0431 9.0978 -2.6032 0.2751 0 8
-0.0393 9.0978 -2.6032 0.2751 0 8
-0.1217 9.0971 -2.6032 0.2751 0 8
-0.2040 9.0956 -2.6032 0.2751 0 8
-0.2863 9.0934 -2.6032 0.2751 0 8
-0.3686 9.0904 -2.6032 0.2751 0 8
-0.4509 9.0867 -2.6032 0.2751 0 8
-0.5331 9.0823 -2.6032 0.2751 0 8
-0.6153 9.0771 -2.6032 0.2751 0 8
-0.6975 9.0711 -2.6032 0.2751 0 8
-0.7796 9.0644 -2.6032 0.2751 0 8
-0.8616 9.0570 -2.6032 0.2751 0 8
-0.9435 9.0488 -2.6032 0.2751 0 8
-1.0254 9.0399 -2.6032 0.2751 0 8
-1.1072 9.0303 -2.6032 0.2751 0 8
-1.1889 9.0199 -2.6032 0.2751 0 8
-1.2705 9.0088 -2.6032 0.2751 0 8
-1.3520 8.9969 -2.6032 0.2751 0 8
-1.4334 8.9843 -2.6032 0.2751 0 8
-1.5147 8.9709 -2.6032 0.2751 0 8
-1.5958 8.9569 -2.6032 0.2751 0 8
-1.6768 8.9420 -2.6032 0.2751 0 8
-1.7577 8.9265 -2.6032 0.2751 0 8
-1.8384 8.9102 -2.6032 0.2751 0 8
-1.9190 8.8932 -2.6032 0.2751 0 8
-1.9994 8.8755 -2.6032 0.2751 0 8
-2.0797 8.8570 -2.6032 0.2751 0 8
-2.1598 8.8378 -2.6032 0.2751 0 8
-2.2397 8.8179 -2.6032 0.2751 0 8
-2.3194 8.7973 -2.6032 0.2751 0 8
-2.3990 8.7759 -2.6032 0.2751 0 8
-2.4783 8.7538 -2.6032 0.2751 0 8
-2.5575 8.7310 -2.6032 0.2751 0 8
-2.6364 8.7075 -2.6032 0.2751 0 8
-2.7151 8.6833 -2.6032 0.2751 0 8
-2.7936 8.6584 -2.6032 0.2751 0 8
-2.8719 8.6328 -2.6032 0.2751 0 8
-2.9499 8.6064 -2.6032 0.2751 0 8
-3.0277 8.5793 -2.6032 0.2751 0 8
-3.1052 8.5516 -2.6032 0.2751 0 8
-3.1857 8.5316 -2.6058 0.8279 0 8
-3.2723 8.5273 -2.6135 0.9278 0 8
-3.3610 8.5269 -2.6226 0.9245 0 8
-3.4503 8.5265 -2.6319 0.9213 0 8
-3.5403 8.5260 -2.6415 0.9179 0 8
-3.6309 8.5254 -2.6515 0.9145 0 8
-3.7222 8.5248 -2.6616 0.9110 0 8
-3.8142 8.5242 -2.6721 0.9074 0 8
-3.9068 8.5235 -2.6829 0.9038 0 8
-4.0003 8.5228 -2.6939 0.9000 0 8
-4.0944 8.5221 -2.7053 0.8963 0 8
-4.1894 8.5212 -2.7170 0.8924 0 8
-4.2852 8.5204 -2.7290 0.8885 0 8
-4.3818 8.5195 -2.7413 0.8845 0 8
-4.4702 8.5013 -2.7483 0.2894 0 8
-4.5481 8.4626 -2.7490 0.2893 0 8
-4.6257 8.4232 -2.7497 0.2892 0 8
-4.7030 8.3831 -2.7504 0.2892 0 8
-4.7799 8.3423 -2.7511 0.2891 0 8
-4.8565 8.3009 -2.7518 0.2890 0 8
-4.9327 8.2588 -2.7525 0.2889 0 8
-5.0086 8.2160 -2.7533 0.2888 0 8
-5.0842 8.1726 -2.7540 0.2888 0 8
-5.1594 8.1284 -2.7548 0.2887 0 8
-5.2343 8.0837 -2.7556 0.2886 0 8
-5.3073 8.0361 -2.7556 0.2751 0 7
-5.3798 7.9877 -2.7556 0.2751 0 7
-5.4519 7.9387 -2.7556 0.2751 0 7
-5.5236 7.8890 -2.7556 0.2751 0 7
-5.5947 7.8387 -2.7556 0.2751 0 7
-5.6655 7.7878 -2.7556 0.2751 0 7
-5.7357 7.7361 -2.7556 0.2751 0 7
-5.8055 7.6839 -2.7556 0.2751 0 7
-5.8748 7.6311 -2.7556 0.2751 0 7
-5.9437 7.5775 -2.7556 0.2751 0 7
-6.0120 7.5234 -2.7556 0.2751 0 7
-6.0799 7.4687 -2.7556 0.2751 0 7
-6.1473 7.4134 -2.7556 0.2751 0 7
-6.2141 7.3574 -2.7556 0.2751 0 7
-6.2805 7.3009 -2.7556 0.2751 0 7
-6.3463 7.2437 -2.7556 0.2751 0 7
-6.4116 7.1860 -2.7556 0.2751 0 7
-6.4764 7.1276 -2.7556 0.2751 0 7
-6.5407 7.0687 -2.7556 0.2751 0 7
-6.6044 7.0092 -2.7556 0.2751 0 7
-6.6676 6.9492 -2.7556 0.2751 0 7
-6.7302 6.8885 -2.7556 0.2751 0 7
-6.7923 6.8273 -2.7556 0.2751 0 7
-6.8538 6.7655 -2.7556 0.2751 0 7
-6.9147 6.7032 -2.7556 0.2751 0 7
-6.9751 6.6404 -2.7556 0.2751 0 7
-7.0350 6.5769 -2.7556 0.2751 0 7
-7.0942 6.5130 -2.7556 0.2751 0 7
-7.1529 6.4485 -2.7556 0.2751 0 7
-7.2110 6.3835 -2.7556 0.2751 0 7
-7.2685 6.3179 -2.7556 0.2751 0 7
-7.3253 6.2519 -2.7556 0.2751 0 7
-7.3817 6.1853 -2.7556 0.2751 0 7
-7.4373 6.1182 -2.7556 0.2751 0 6
-7.4924 6.0507 -2.7556 0.2751 0 6
-7.5469 5.9826 -2.7556 0.2751 0 7
-7.6007 5.9140 -2.7556 0.2751 0 7
-7.6539 5.8450 -2.7556 0.2751 0 7
-7.7066 5.7755 -2.7556 0.2751 0 7
-7.7585 5.7055 -2.7556 0.2751 0 7
-7.8098 5.6350 -2.7556 0.2751 0 7
-7.8605 5.5641 -2.7556 0.2751 0 7
-7.9106 5.4927 -2.7556 0.2751 0 7
-7.9600 5.4209 -2.7556 0.2751 0 7
-8.0087 5.3486 -2.7556 0.2751 0 7
-8.0568 5.2759 -2.7556 0.2751 0 7
-8.1042 5.2027 -2.7556 0.2751 0 7
-8.1510 5.1291 -2.7556 0.2751 0 7
-8.1971 5.0552 -2.7556 0.2751 0 7
-8.2425 4.9807 -2.7556 0.2751 0 7
-8.2873 4.9059 -2.7556 0.2751 0 7
-8.3313 4.8307 -2.7556 0.2751 0 7
-8.3747 4.7551 -2.7556 0.2751 0 7
-8.4174 4.6791 -2.7556 0.2751 0 7
-8.4594 4.6027 -2.7556 0.2751 0 7
-8.5008 4.5259 -2.7556 0.2751 0 7
-8.5414 4.4488 -2.7556 0.2751 0 7
-8.5813 4.3713 -2.7556 0.2751 0 7
-8.6205 4.2934 -2.7556 0.2751 0 7
-8.6590 4.2152 -2.7556 0.2751 0 7
-8.6968 4.1367 -2.7556 0.2751 0 7
-8.7339 4.0578 -2.7556 0.2751 0 7
-8.7703 3.9785 -2.7556 0.2751 0 7
-8.8060 3.8990 -2.7556 0.2751 0 7
-8.8409 3.8191 -2.7556 0.2751 0 7
-8.8751 3.7389 -2.7556 0.2751 0 7
-8.9086 3.6584 -2.7556 0.2751 0 7
-8.9413 3.5776 -2.7556 0.2751 0 7
-8.9734 3.4965 -2.7556 0.2751 0 7
-9.0046 3.4152 -2.7556 0.2751 0 7
-9.0352 3.3335 -2.7556 0.2751 0 7
-9.0650 3.2516 -2.7556 0.2751 0 7
-9.0940 3.1694 -2.7556 0.2751 0 7
-9.1224 3.0870 -2.7556 0.2751 0 7
-9.1499 3.0043 -2.7556 0.2751 0 7
-9.1768 2.9213 -2.7556 0.2751 0 7
-9.2028 2.8381 -2.7556 0.2751 0 7
-9.2281 2.7547 -2.7556 0.2751 0 7
-9.2527 2.6710 -2.7556 0.2751 0 6
-9.2765 2.5872 -2.7556 0.2751 0 6
-9.2995 2.5031 -2.7556 0.2751 0 7
-9.3218 2.4188 -2.7556 0.2751 0 7
-9.3433 2.3343 -2.7556 0.2751 0 7
-9.3641 2.2496 -2.7556 0.2751 0 7
-9.3841 2.1648 -2.7556 0.2751 0 7
-9.4033 2.0798 -2.7556 0.2751 0 7
-9.4217 1.9946 -2.7556 0.2751 0 7
-9.4394 1.9092 -2.7556 0.2751 0 7
-9.4563 1.8237 -2.7556 0.2751 0 7
-9.4724 1.7380 -2.7556 0.2751 0 7
-9.4877 1.6522 -2.7556 0.2751 0 7
-9.5023 1.5662 -2.7556 0.2751 0 7
-9.5161 1.4801 -2.7556 0.2751 0 7
-9.5291 1.3939 -2.7556 0.2751 0 7
-9.5413 1.3076 -2.7556 0.2751 0 7
-9.5528 1.2212 -2.7556 0.2751 0 7
-9.5634 1.1347 -2.7556 0.2751 0 7
-9.5733 1.0480 -2.7556 0.2751 0 7
-9.5824 0.9613 -2.7556 0.2751 0 7
-9.5907 0.8746 -2.7556 0.2751 0 7
-9.5983 0.7877 -2.7556 0.2751 0 7
-9.6050 0.7008 -2.7556 0.2751 0 7
-9.6109 0.6138 -2.7556 0.2751 0 7
-9.6161 0.5268 -2.7556 0.2751 0 7
-9.6205 0.4397 -2.7556 0.2751 0 7
-9.6241 0.3526 -2.7556 0.2751 0 7
-9.6269 0.2655 -2.7556 0.2751 0 7
-9.6289 0.1783 -2.7556 0.2751 0 7
-9.6301 0.0911 -2.7556 0.2751 0 7
-9.6305 0.0040 -2.7556 0.2751 0 7
-9.6302 -0.0832 -2.7556 0.2751 0 7
-9.6290 -0.1704 -2.7556 0.2751 0 7
-9.6271 -0.2575 -2.7556 0.2751 0 7
-9.6244 -0.3447 -2.7556 0.2751 0 7
-9.6208 -0.4318 -2.7556 0.2751 0 7
