ply
format ascii 1.0
element vertex 1347
property float32 x
property float32 y
property float32 z
property float32 CosAngle
property uint32 ObjIdx
property uint32 ObjTag
end_header
17.6709 6.5055 -1.4340 0.9833 0 5
32.2971 12.2229 -2.6298 0.0759 0 8
32.1853 12.5146 -2.6298 0.0759 0 8
32.0708 12.8052 -2.6298 0.0759 0 8
31.9536 13.0947 -2.6298 0.0759 0 8
31.8339 13.3832 -2.6298 0.0759 0 8
31.7115 13.6706 -2.6298 0.0759 0 8
31.5866 13.9568 -2.6298 0.0759 0 8
31.4591 14.2419 -2.6298 0.0759 0 8
31.3290 14.5261 -2.6298 0.0759 0 8
31.1963 14.8087 -2.6298 0.0759 0 8
31.0611 15.0902 -2.6298 0.0759 0 8
30.9233 15.3705 -2.6298 0.0759 0 8
30.7831 15.6496 -2.6298 0.0759 0 8
30.6402 15.9274 -2.6298 0.0759 0 8
30.4949 16.2039 -2.6298 0.0759 0 8
30.3471 16.4790 -2.6298 0.0759 0 8
30.1968 16.7528 -2.6298 0.0759 0 8
30.0441 17.0253 -2.6298 0.0759 0 8
29.8889 17.2963 -2.6298 0.0759 0 8
29.7312 17.5660 -2.6298 0.0759 0 8
29.5711 17.8341 -2.6298 0.0759 0 8
29.4086 18.1009 -2.6298 0.0759 0 8
29.2437 18.3661 -2.6298 0.0759 0 8
29.0764 18.6299 -2.6298 0.0759 0 8
28.9067 18.8921 -2.6298 0.0759 0 8
28.7346 19.1528 -2.6298 0.0759 0 8
28.5602 19.4119 -2.6298 0.0759 0 8
28.3835 19.6694 -2.6298 0.0759 0 8
28.2044 19.9253 -2.6298 0.0759 0 8
28.0230 20.1796 -2.6298 0.0759 0 8
27.8394 20.4322 -2.6298 0.0759 0 8
27.6534 20.6832 -2.6298 0.0759 0 8
27.4652 20.9325 -2.6298 0.0759 0 8
27.2747 21.1800 -2.6298 0.0759 0 8
27.0821 21.4259 -2.6298 0.0759 0 8
26.8872 21.6699 -2.6298 0.0759 0 8
26.6901 21.9123 -2.6298 0.0759 0 8
26.4908 22.1528 -2.6298 0.0759 0 8
26.2893 22.3915 -2.6298 0.0759 0 8
26.0857 22.6283 -2.6298 0.0759 0 8
25.8800 22.8632 -2.6298 0.0759 0 8
25.6721 23.0965 -2.6298 0.0759 0 8
25.4622 23.3277 -2.6298 0.0759 0 8
25.2502 23.5571 -2.6298 0.0759 0 8
25.0361 23.7845 -2.6298 0.0759 0 8
24.8199 24.0099 -2.6298 0.0759 0 8
24.6017 24.2334 -2.6298 0.0759 0 8
24.3816 24.4550 -2.6298 0.0759 0 8
24.1594 24.6745 -2.6298 0.0759 0 8
23.9352 24.8920 -2.6298 0.0759 0 8
23.7091 25.1075 -2.6298 0.0759 0 8
23.4810 25.3209 -2.6298 0.0759 0 8
23.2510 25.5322 -2.6298 0.0759 0 8
23.0192 25.7415 -2.6298 0.0759 0 8
22.7854 25.9486 -2.6298 0.0759 0 8
22.5498 26.1537 -2.6298 0.0759 0 8
22.3123 26.3566 -2.6298 0.0759 0 8
22.0730 26.5573 -2.6298 0.0759 0 8
21.8319 26.7559 -2.6298 0.0759 0 8
21.5890 26.9522 -2.6298 0.0759 0 8
21.3443 27.1464 -2.6298 0.0759 0 8
21.0979 27.3383 -2.6298 0.0759 0 8
20.8498 27.5280 -2.6298 0.0759 0 8
20.5999 27.7155 -2.6298 0.0759 0 8
20.3484 27.9007 -2.6298 0.0759 0 8
20.0952 28.0836 -2.6298 0.0759 0 8
19.8404 28.2642 -2.6298 0.0759 0 8
19.5840 28.4425 -2.6298 0.0759 0 8
19.3259 28.6184 -2.6298 0.0759 0 8
19.0663 28.7921 -2.6298 0.0759 0 8
18.8051 28.9633 -2.6298 0.0759 0 8
18.5423 29.1322 -2.6298 0.0759 0 8
18.2781 29.2988 -2.6298 0.0759 0 8
18.0123 29.4629 -2.6298 0.0759 0 8
17.7451 29.6245 -2.6298 0.0759 0 8
17.4765 29.7839 -2.6298 0.0759 0 8
17.2064 29.9407 -2.6298 0.0759 0 8
16.9348 30.0951 -2.6298 0.0759 0 8
16.6620 30.2471 -2.6298 0.0759 0 8
16.3877 30.3965 -2.6298 0.0759 0 8
16.1121 30.5435 -2.6298 0.0759 0 8
15.8352 30.6880 -2.6298 0.0759 0 8
15.5570 30.8300 -2.6298 0.0759 0 8
15.2775 30.9690 -2.6298 0.0759 0 8
14.9968 31.1063 -2.6298 0.0759 0 8
14.7148 31.2407 -2.6298 0.0759 0 8
14.4316 31.3725 -2.6298 0.0759 0 8
14.1473 31.5018 -2.6298 0.0759 0 8
13.8618 31.6284 -2.6298 0.0759 0 8
13.5751 31.7525 -2.6298 0.0759 0 8
13.2874 31.8740 -2.6298 0.0759 0 8
12.9985 31.9929 -2.6298 0.0759 0 8
12.7086 32.1091 -2.6298 0.0759 0 8
12.4177 32.2228 -2.6298 0.0759 0 8
12.1258 32.3338 -2.6298 0.0759 0 8
11.8328 32.4421 -2.6298 0.0759 0 8
11.5389 32.5478 -2.6298 0.0759 0 8
11.2440 32.6508 -2.6298 0.0759 0 8
10.9483 32.7512 -2.6298 0.0759 0 8
3.5336 10.8975 -0.8724 0.7664 0 9
3.4095 10.8480 -0.8659 0.7721 0 9
3.2871 10.7992 -0.8596 0.7778 0 9
3.1665 10.7512 -0.8535 0.7834 0 9
3.0669 10.7714 -0.8529 0.9212 0 9
2.9806 10.8397 -0.8561 0.9177 0 9
2.8936 10.9084 -0.8594 0.9142 0 9
2.8060 10.9777 -0.8629 0.9105 0 9
2.7224 11.0672 -0.8679 0.0979 0 9
7.9452 33.6062 -2.6298 0.0759 0 8
7.6409 33.6767 -2.6298 0.0759 0 8
7.3361 33.7445 -2.6298 0.0759 0 8
7.0305 33.8094 -2.6298 0.0759 0 8
6.7245 33.8716 -2.6298 0.0759 0 8
6.4178 33.9311 -2.6298 0.0759 0 8
6.1107 33.9877 -2.6298 0.0759 0 8
5.8030 34.0416 -2.6298 0.0759 0 8
5.4949 34.0927 -2.6298 0.0759 0 8
5.1863 34.1410 -2.6298 0.0759 0 8
4.8773 34.1865 -2.6298 0.0759 0 8
4.5679 34.2292 -2.6298 0.0759 0 8
4.2581 34.2691 -2.6298 0.0759 0 8
3.9480 34.3063 -2.6298 0.0759 0 8
3.6375 34.3406 -2.6298 0.0759 0 8
3.3268 34.3721 -2.6298 0.0759 0 8
3.0157 34.4007 -2.6298 0.0759 0 8
2.7045 34.4266 -2.6298 0.0759 0 8
2.3930 34.4497 -2.6298 0.0759 0 8
2.0813 34.4699 -2.6298 0.0759 0 8
1.7694 34.4873 -2.6298 0.0759 0 8
1.4574 34.5019 -2.6298 0.0759 0 8
1.1453 34.5137 -2.6298 0.0759 0 8
0.8331 34.5226 -2.6298 0.0759 0 8
0.5208 34.5287 -2.6298 0.0759 0 8
0.2085 34.5321 -2.6298 0.0759 0 8
-0.1039 34.5325 -2.6298 0.0759 0 8
-0.4162 34.5302 -2.6298 0.0759 0 8
-0.7285 34.5250 -2.6298 0.0759 0 8
-1.0407 34.5170 -2.6298 0.0759 0 8
-1.3529 34.5062 -2.6298 0.0759 0 8
-1.6649 34.4925 -2.6298 0.0759 0 8
-1.9768 34.4761 -2.6298 0.0759 0 8
-2.2886 34.4568 -2.6298 0.0759 0 8
-2.6001 34.4347 -2.6298 0.0759 0 8
-2.9115 34.4097 -2.6298 0.0759 0 8
-3.2226 34.3820 -2.6298 0.0759 0 8
-3.5334 34.3514 -2.6298 0.0759 0 8
-3.8440 34.3181 -2.6298 0.0759 0 8
-4.1542 34.2819 -2.6298 0.0759 0 8
-4.4641 34.2429 -2.6298 0.0759 0 8
-4.7736 34.2011 -2.6298 0.0759 0 8
-5.0828 34.1566 -2.6298 0.0759 0 8
-5.3915 34.1092 -2.6298 0.0759 0 8
-5.6998 34.0590 -2.6298 0.0759 0 8
-1.8421 10.4274 -0.8064 0.6989 0 5
-6.3149 33.9504 -2.6298 0.0759 0 8
-6.6218 33.8919 -2.6298 0.0759 0 8
-6.9280 33.8306 -2.6298 0.0759 0 8
-7.2337 33.7665 -2.6298 0.0759 0 8
-7.5388 33.6997 -2.6298 0.0759 0 8
-7.0891 30.3960 -2.3769 0.9055 0 5
-8.6193 35.5026 -2.7822 0.0759 0 7
-8.9401 35.4232 -2.7822 0.0759 0 7
-9.2601 35.3409 -2.7822 0.0759 0 7
-9.5794 35.2557 -2.7822 0.0759 0 7
-9.8979 35.1676 -2.7822 0.0759 0 7
-10.2156 35.0766 -2.7822 0.0759 0 7
-10.5324 34.9828 -2.7822 0.0759 0 7
-10.8484 34.8861 -2.7822 0.0759 0 7
-11.1635 34.7865 -2.7822 0.0759 0 7
-11.4777 34.6841 -2.7822 0.0759 0 7
-11.7909 34.5789 -2.7822 0.0759 0 7
-12.1032 34.4709 -2.7822 0.0759 0 7
-12.4145 34.3600 -2.7822 0.0759 0 7
-12.7247 34.2463 -2.7822 0.0759 0 7
-13.0340 34.1298 -2.7822 0.0759 0 7
-13.3421 34.0105 -2.7822 0.0759 0 7
-13.6492 33.8884 -2.7822 0.0759 0 7
-13.9552 33.7636 -2.7822 0.0759 0 7
-9.4505 22.2915 -1.8438 0.7259 0 19
-9.6265 22.1472 -1.8390 0.9284 0 19
-14.8661 33.3726 -2.7822 0.0759 0 7
-15.1673 33.2367 -2.7822 0.0759 0 7
-15.4673 33.0982 -2.7822 0.0759 0 7
-15.7660 32.9569 -2.7822 0.0759 0 7
-16.0635 32.8130 -2.7822 0.0759 0 7
-16.3596 32.6664 -2.7822 0.0759 0 7
-16.6544 32.5170 -2.7822 0.0759 0 7
-16.9478 32.3651 -2.7822 0.0759 0 7
-17.2398 32.2105 -2.7822 0.0759 0 7
-17.5305 32.0532 -2.7822 0.0759 0 7
-17.8197 31.8934 -2.7822 0.0759 0 7
-18.1074 31.7309 -2.7822 0.0759 0 7
-18.3937 31.5658 -2.7822 0.0759 0 7
-18.6784 31.3981 -2.7822 0.0759 0 7
-18.9616 31.2279 -2.7822 0.0759 0 7
-19.2433 31.0552 -2.7822 0.0759 0 7
-8.8956 14.0700 -1.2677 0.6958 0 12
-8.9399 13.8609 -1.2561 0.7023 0 12
-8.9834 13.6555 -1.2448 0.7087 0 12
-20.3540 30.3387 -2.7822 0.0759 0 7
-20.6276 30.1534 -2.7822 0.0759 0 7
-20.8995 29.9656 -2.7822 0.0759 0 7
-21.1697 29.7754 -2.7822 0.0759 0 7
-21.4381 29.5827 -2.7822 0.0759 0 7
-21.7048 29.3876 -2.7822 0.0759 0 7
-21.9697 29.1900 -2.7822 0.0759 0 6
-22.2329 28.9901 -2.7822 0.0759 0 7
-22.4941 28.7878 -2.7822 0.0759 0 7
-22.7536 28.5832 -2.7822 0.0759 0 7
-23.0112 28.3762 -2.7822 0.0759 0 7
-23.2669 28.1670 -2.7822 0.0759 0 7
-23.5207 27.9554 -2.7822 0.0759 0 7
-23.7726 27.7415 -2.7822 0.0759 0 7
-24.0226 27.5253 -2.7822 0.0759 0 7
-24.2705 27.3069 -2.7822 0.0759 0 7
-24.5165 27.0863 -2.7822 0.0759 0 7
-24.7605 26.8634 -2.7822 0.0759 0 7
-25.0025 26.6384 -2.7822 0.0759 0 7
-25.2424 26.4112 -2.7822 0.0759 0 7
-25.4802 26.1818 -2.7822 0.0759 0 7
-25.7160 25.9502 -2.7822 0.0759 0 7
-25.9496 25.7166 -2.7822 0.0759 0 7
-26.1812 25.4808 -2.7822 0.0759 0 6
-26.4106 25.2430 -2.7822 0.0759 0 7
-26.6378 25.0031 -2.7822 0.0759 0 7
-26.8629 24.7611 -2.7822 0.0759 0 7
-27.0857 24.5171 -2.7822 0.0759 0 7
-27.3064 24.2712 -2.7822 0.0759 0 7
-27.5248 24.0232 -2.7822 0.0759 0 7
-27.7409 23.7732 -2.7822 0.0759 0 7
-27.9548 23.5214 -2.7822 0.0759 0 7
-28.1664 23.2676 -2.7822 0.0759 0 7
-28.3757 23.0118 -2.7822 0.0759 0 7
-28.5827 22.7542 -2.7822 0.0759 0 7
-28.7873 22.4948 -2.7822 0.0759 0 7
-28.9895 22.2334 -2.7822 0.0920 0 8
-29.1748 21.9593 -2.7808 0.0921 0 8
-29.3580 21.6840 -2.7794 0.0921 0 8
-29.5423 21.4099 -2.7784 0.0925 0 8
-29.7257 21.1354 -2.7776 0.0926 0 8
-29.9088 20.8609 -2.7769 0.0928 0 8
-30.0927 20.5871 -2.7766 0.0928 0 8
-30.2749 20.3122 -2.7764 0.0928 0 8
-30.4594 20.0389 -2.7765 0.0928 0 8
-30.6420 19.7643 -2.7768 0.0928 0 8
-30.8262 19.4905 -2.7774 0.0926 0 8
-31.0095 19.2161 -2.7781 0.0926 0 8
-31.1925 18.9412 -2.7791 0.0923 0 8
-31.3762 18.6663 -2.7803 0.0918 0 8
-31.5596 18.3911 -2.7817 0.0920 0 8
-31.7305 18.1082 -2.7822 0.0759 0 7
-31.8929 17.8204 -2.7822 0.0759 0 7
-32.0528 17.5312 -2.7822 0.0759 0 7
-32.2101 17.2406 -2.7822 0.0759 0 7
-32.3647 16.9486 -2.7822 0.0759 0 7
-32.5167 16.6552 -2.7822 0.0759 0 7
-32.6660 16.3604 -2.7822 0.0759 0 7
-32.8126 16.0642 -2.7822 0.0759 0 7
-32.9566 15.7668 -2.7822 0.0759 0 7
-33.0978 15.4681 -2.7822 0.0759 0 7
-33.2364 15.1681 -2.7822 0.0759 0 7
-33.3722 14.8669 -2.7822 0.0759 0 7
-33.5053 14.5644 -2.7822 0.0759 0 7
-33.6357 14.2608 -2.7822 0.0759 0 7
-33.7633 13.9559 -2.7822 0.0759 0 7
-33.8881 13.6500 -2.7822 0.0759 0 7
-34.0102 13.3429 -2.7822 0.0759 0 7
-34.1295 13.0348 -2.7822 0.0759 0 7
-34.2460 12.7256 -2.7822 0.0759 0 7
-34.3597 12.4153 -2.7822 0.0759 0 7
-34.4706 12.1040 -2.7822 0.0759 0 7
-34.5786 11.7917 -2.7822 0.0759 0 7
-34.6839 11.4785 -2.7822 0.0759 0 7
-34.7863 11.1643 -2.7822 0.0759 0 7
-34.8858 10.8492 -2.7822 0.0759 0 7
-34.9825 10.5332 -2.7822 0.0759 0 7
-35.0764 10.2164 -2.7822 0.0759 0 7
-35.1673 9.8987 -2.7822 0.0759 0 7
-35.2554 9.5802 -2.7822 0.0759 0 7
-35.3406 9.2610 -2.7822 0.0759 0 7
-35.4230 8.9410 -2.7822 0.0759 0 7
-35.5024 8.6202 -2.7822 0.0759 0 7
-35.5789 8.2987 -2.7822 0.0759 0 7
-35.6525 7.9766 -2.7822 0.0759 0 7
-35.7232 7.6538 -2.7822 0.0759 0 7
-35.7910 7.3304 -2.7822 0.0759 0 7
-35.8558 7.0063 -2.7822 0.0759 0 7
-35.9177 6.6817 -2.7822 0.0759 0 7
-35.9767 6.3566 -2.7822 0.0759 0 7
-36.0327 6.0310 -2.7822 0.0759 0 7
-36.0858 5.7048 -2.7822 0.0759 0 7
-36.1359 5.3782 -2.7822 0.0759 0 7
-36.1830 5.0511 -2.7822 0.0759 0 7
-36.2273 4.7237 -2.7822 0.0759 0 7
-36.2685 4.3958 -2.7822 0.0759 0 7
-36.3068 4.0676 -2.7822 0.0759 0 7
-36.3421 3.7390 -2.7822 0.0759 0 7
-36.3744 3.4102 -2.7822 0.0759 0 7
-36.4038 3.0810 -2.7822 0.0759 0 7
-36.4301 2.7516 -2.7822 0.0759 0 7
-36.4535 2.4220 -2.7822 0.0759 0 7
-36.4740 2.0922 -2.7822 0.0759 0 7
-36.4914 1.7622 -2.7822 0.0759 0 7
-36.5058 1.4321 -2.7822 0.0759 0 7
-36.5173 1.1018 -2.7822 0.0759 0 7
-36.5258 0.7715 -2.7822 0.0759 0 7
-36.5312 0.4411 -2.7822 0.0759 0 7
-36.5338 0.1107 -2.7822 0.0759 0 7
-36.5333 -0.2198 -2.7822 0.0759 0 7
-36.5298 -0.5502 -2.7822 0.0759 0 7
-36.5233 -0.8805 -2.7822 0.0759 0 7
-36.5139 -1.2109 -2.7822 0.0759 0 7
-36.5014 -1.5411 -2.7822 0.0759 0 7
-36.4860 -1.8711 -2.7822 0.0759 0 7
-36.4532 -2.2002 -2.7811 0.0802 0 8
-36.3649 -2.5252 -2.7760 0.0804 0 8
-35.5275 -2.7901 -2.7139 0.2816 0 8
-34.4654 -3.0206 -2.6347 0.2524 0 8
-34.3721 -3.3260 -2.6298 0.0759 0 8
-34.3406 -3.6367 -2.6298 0.0759 0 8
-34.3064 -3.9472 -2.6298 0.0759 0 8
-33.8764 -4.2085 -2.5996 0.3086 0 9
-32.9234 -4.3928 -2.5294 0.3172 0 9
-32.0982 -4.5785 -2.4691 0.0759 0 9
-32.0554 -4.8687 -2.4691 0.0759 0 9
-32.0364 -5.1627 -2.4711 0.6578 0 9
-32.0864 -5.4689 -2.4787 0.6558 0 9
-32.1383 -5.7774 -2.4867 0.9300 0 9
-32.1987 -6.0894 -2.4955 0.9267 0 9
-32.2595 -6.4036 -2.5046 0.9234 0 9
-32.3207 -6.7201 -2.5140 0.9199 0 9
-32.3824 -7.0391 -2.5236 0.9164 0 9
-33.6769 -7.6402 -2.6298 0.0759 0 8
-33.6064 -7.9444 -2.6298 0.0759 0 8
-33.5332 -8.2481 -2.6298 0.0759 0 8
-33.4572 -8.5511 -2.6298 0.0759 0 8
-33.3785 -8.8533 -2.6298 0.0759 0 8
-33.2971 -9.1549 -2.6298 0.0759 0 8
-33.2129 -9.4557 -2.6298 0.0759 0 8
-33.1349 -9.7583 -2.6305 0.0742 0 8
-33.0587 -10.0617 -2.6315 0.0741 0 8
-32.9797 -10.3644 -2.6326 0.0741 0 8
-32.8978 -10.6666 -2.6337 0.0741 0 8
-29.8886 -9.9906 -2.3999 0.2454 0 19
-29.6379 -10.2057 -2.3871 0.5056 0 19
-32.6354 -11.5691 -2.6368 0.0740 0 8
-32.5422 -11.8685 -2.6379 0.0740 0 8
-32.4463 -12.1671 -2.6389 0.0739 0 8
-32.3476 -12.4650 -2.6399 0.0739 0 8
-32.2460 -12.7620 -2.6410 0.0739 0 8
-32.1417 -13.0582 -2.6420 0.0739 0 8
-32.0346 -13.3535 -2.6430 0.0738 0 8
-31.9247 -13.6479 -2.6440 0.0738 0 8
-24.5504 -10.7590 -2.0412 0.5937 0 19
-24.2668 -10.8974 -2.0258 0.8607 0 19
-18.1020 -8.3265 -1.5174 0.9374 0 9
-15.8871 -7.4826 -1.3373 0.8610 0 5
-17.8415 -8.6011 -1.5083 0.7571 0 9
-17.9026 -8.8310 -1.5202 0.7512 0 9
-31.0779 -15.6812 -2.6509 0.0736 0 8
-30.9460 -15.9674 -2.6518 0.0736 0 8
-30.8114 -16.2525 -2.6528 0.0736 0 8
-30.6741 -16.5364 -2.6538 0.0735 0 8
-30.5342 -16.8192 -2.6547 0.0735 0 8
-30.3915 -17.1007 -2.6556 0.0735 0 8
-30.2462 -17.3810 -2.6566 0.0734 0 8
-30.0982 -17.6600 -2.6575 0.0734 0 8
-29.9476 -17.9377 -2.6584 0.0734 0 8
-29.7943 -18.2140 -2.6593 0.0734 0 8
-29.6384 -18.4890 -2.6602 0.0733 0 8
-29.4799 -18.7626 -2.6611 0.0733 0 8
-29.3188 -19.0349 -2.6620 0.0733 0 8
-18.6259 -12.3335 -1.7012 0.9836 0 19
-18.1875 -12.2813 -1.6712 0.8603 0 19
-17.9591 -12.3651 -1.6605 0.7821 0 19
-17.9152 -12.5752 -1.6668 0.2296 0 19
-17.9307 -12.8297 -1.6790 0.2498 0 19
-17.7074 -12.9137 -1.6690 0.9540 0 19
-28.1184 -20.8985 -2.6680 0.0731 0 8
-27.9369 -21.1584 -2.6688 0.0731 0 8
-27.7529 -21.4168 -2.6696 0.0731 0 8
-27.5664 -21.6735 -2.6704 0.0731 0 8
-27.3774 -21.9286 -2.6712 0.0730 0 8
-27.1861 -22.1819 -2.6720 0.0730 0 8
-26.9923 -22.4335 -2.6728 0.0730 0 8
-26.7961 -22.6833 -2.6736 0.0730 0 8
-26.5975 -22.9313 -2.6743 0.0730 0 8
-26.3965 -23.1776 -2.6751 0.0729 0 8
-26.1931 -23.4220 -2.6759 0.0729 0 8
-25.9875 -23.6645 -2.6766 0.0729 0 8
-25.7794 -23.9051 -2.6773 0.0729 0 8
-25.5691 -24.1439 -2.6781 0.0729 0 8
-25.3564 -24.3806 -2.6788 0.0728 0 8
-25.1414 -24.6154 -2.6795 0.0728 0 8
-24.9241 -24.8481 -2.6802 0.0728 0 8
-24.7046 -25.0789 -2.6808 0.0728 0 8
-24.4829 -25.3076 -2.6815 0.0727 0 8
-24.2589 -25.5343 -2.6822 0.0727 0 8
-24.0328 -25.7589 -2.6828 0.0727 0 8
-23.8046 -25.9815 -2.6835 0.0727 0 8
-23.5743 -26.2021 -2.6841 0.0727 0 8
-23.3419 -26.4205 -2.6847 0.0727 0 8
-23.1073 -26.6367 -2.6854 0.0727 0 8
-12.1526 -14.2674 -1.4272 0.9291 0 19
-22.6320 -27.0626 -2.6866 0.0726 0 8
-22.3912 -27.2723 -2.6872 0.0726 0 8
-22.1485 -27.4796 -2.6878 0.0726 0 8
-21.9037 -27.6848 -2.6883 0.0726 0 8
-21.6570 -27.8877 -2.6889 0.0726 0 8
-21.4082 -28.0880 -2.6894 0.0725 0 8
-21.1574 -28.2861 -2.6900 0.0725 0 8
-20.9048 -28.4817 -2.6905 0.0725 0 8
-20.6502 -28.6752 -2.6910 0.0725 0 8
-20.3938 -28.8661 -2.6915 0.0725 0 8
-20.1356 -29.0547 -2.6920 0.0725 0 8
-19.8755 -29.2409 -2.6925 0.0725 0 8
-19.6138 -29.4247 -2.6930 0.0725 0 8
-19.3502 -29.6062 -2.6934 0.0725 0 8
-19.0849 -29.7851 -2.6939 0.0724 0 8
-18.8179 -29.9615 -2.6944 0.0724 0 8
-18.5492 -30.1354 -2.6948 0.0724 0 8
-18.2788 -30.3068 -2.6952 0.0724 0 8
-18.0068 -30.4757 -2.6957 0.0724 0 8
-17.7331 -30.6420 -2.6961 0.0724 0 8
-17.4578 -30.8056 -2.6965 0.0724 0 8
-17.1808 -30.9665 -2.6968 0.0723 0 8
-16.9023 -31.1248 -2.6972 0.0723 0 8
-9.5104 -17.8971 -1.5434 0.9583 0 5
-16.3407 -31.4336 -2.6979 0.0723 0 8
-16.0577 -31.5840 -2.6982 0.0723 0 8
-15.7732 -31.7316 -2.6985 0.0723 0 8
-15.4874 -31.8766 -2.6988 0.0723 0 8
-15.2002 -32.0191 -2.6992 0.0723 0 8
-14.9116 -32.1589 -2.6995 0.0723 0 8
-14.6217 -32.2959 -2.6998 0.0723 0 8
-14.3305 -32.4302 -2.7000 0.0723 0 8
-14.0380 -32.5617 -2.7003 0.0723 0 8
-13.7442 -32.6905 -2.7006 0.0723 0 8
-13.4492 -32.8164 -2.7008 0.0723 0 8
-13.1529 -32.9396 -2.7010 0.0723 0 8
-12.8555 -33.0599 -2.7013 0.0722 0 8
-12.5569 -33.1773 -2.7015 0.0722 0 8
-12.2571 -33.2918 -2.7016 0.0722 0 8
-11.9563 -33.4034 -2.7018 0.0722 0 8
-11.6544 -33.5122 -2.7020 0.0722 0 8
-11.3514 -33.6181 -2.7021 0.0722 0 8
-11.0475 -33.7211 -2.7023 0.0722 0 8
-10.7425 -33.8213 -2.7024 0.0722 0 8
-10.4367 -33.9187 -2.7025 0.0722 0 8
-10.1299 -34.0132 -2.7026 0.0722 0 8
-9.8222 -34.1048 -2.7027 0.0722 0 8
-9.5137 -34.1935 -2.7028 0.0722 0 8
-9.2044 -34.2792 -2.7029 0.0722 0 8
-8.8942 -34.3620 -2.7030 0.0722 0 8
-8.5832 -34.4419 -2.7031 0.0722 0 8
-8.2715 -34.5188 -2.7031 0.0722 0 8
-5.9888 -26.0291 -2.0340 0.9970 0 19
-5.7524 -26.0791 -2.0337 0.9971 0 19
-7.3321 -34.7313 -2.7032 0.0722 0 8
-7.0176 -34.7961 -2.7032 0.0722 0 8
-6.7026 -34.8579 -2.7032 0.0722 0 8
-6.3870 -34.9167 -2.7031 0.0722 0 8
-6.0708 -34.9724 -2.7031 0.0722 0 8
-5.7541 -35.0252 -2.7030 0.0722 0 8
-5.4369 -35.0750 -2.7030 0.0722 0 8
-5.1194 -35.1219 -2.7029 0.0722 0 8
-4.8014 -35.1658 -2.7028 0.0722 0 8
-4.4830 -35.2067 -2.7027 0.0722 0 8
-4.1642 -35.2445 -2.7026 0.0722 0 8
-3.8451 -35.2794 -2.7025 0.0722 0 8
-3.5257 -35.3111 -2.7024 0.0722 0 8
-3.2060 -35.3399 -2.7023 0.0722 0 8
-2.8861 -35.3656 -2.7021 0.0722 0 8
-2.5660 -35.3883 -2.7020 0.0722 0 8
-2.2456 -35.4077 -2.7018 0.0722 0 8
-1.9251 -35.4241 -2.7016 0.0722 0 8
-1.6045 -35.4374 -2.7014 0.0723 0 8
-1.2838 -35.4476 -2.7012 0.0723 0 8
-0.9631 -35.4548 -2.7010 0.0723 0 8
-0.6423 -35.4590 -2.7008 0.0723 0 8
-0.3216 -35.4601 -2.7005 0.0723 0 8
-0.0008 -35.4583 -2.7003 0.0723 0 8
0.2659 -29.4682 -2.2442 0.6803 0 19
0.5305 -29.3584 -2.2361 0.7988 0 19
0.7974 -29.4044 -2.2401 0.6851 0 19
1.0751 -29.7195 -2.2647 0.3707 0 19
1.6014 -35.4039 -2.6989 0.0723 0 8
1.9213 -35.3837 -2.6985 0.0723 0 8
2.2410 -35.3605 -2.6982 0.0723 0 8
2.5604 -35.3342 -2.6979 0.0724 0 8
2.8795 -35.3049 -2.6975 0.0724 0 8
3.1983 -35.2727 -2.6971 0.0724 0 8
3.5167 -35.2373 -2.6968 0.0724 0 8
3.8347 -35.1991 -2.6964 0.0724 0 8
4.1523 -35.1580 -2.6960 0.0724 0 8
4.4695 -35.1138 -2.6956 0.0724 0 8
4.7862 -35.0667 -2.6952 0.0724 0 8
5.1024 -35.0166 -2.6948 0.0724 0 8
5.4180 -34.9635 -2.6944 0.0724 0 8
5.7331 -34.9074 -2.6939 0.0725 0 8
6.0476 -34.8483 -2.6935 0.0725 0 8
6.3614 -34.7863 -2.6930 0.0725 0 8
6.6746 -34.7213 -2.6925 0.0725 0 8
6.9872 -34.6533 -2.6921 0.0725 0 8
7.2990 -34.5823 -2.6916 0.0725 0 8
7.6100 -34.5084 -2.6911 0.0725 0 8
7.9203 -34.4314 -2.6905 0.0726 0 8
8.2297 -34.3516 -2.6900 0.0726 0 8
7.9104 -31.7484 -2.4917 0.7930 0 5
8.8462 -34.1831 -2.6889 0.0726 0 8
9.1531 -34.0946 -2.6883 0.0726 0 8
9.4591 -34.0033 -2.6878 0.0726 0 8
9.7642 -33.9092 -2.6872 0.0726 0 8
10.0683 -33.8122 -2.6866 0.0727 0 8
10.3715 -33.7124 -2.6860 0.0727 0 8
3.6459 -11.4805 -0.9173 0.7868 0 5
10.9747 -33.5043 -2.6848 0.0727 0 8
11.2747 -33.3959 -2.6842 0.0727 0 8
11.5736 -33.2847 -2.6836 0.0727 0 8
6.3389 -17.7121 -1.4326 0.9367 0 19
6.5207 -17.7134 -1.4374 0.9336 0 19
12.4634 -32.9349 -2.6817 0.0728 0 8
12.7577 -32.8127 -2.6810 0.0728 0 8
13.0507 -32.6878 -2.6803 0.0728 0 8
5.5488 -13.5410 -1.1144 0.5798 0 9
5.6004 -13.3222 -1.1005 0.5872 0 9
5.6751 -13.1653 -1.0918 0.9892 0 9
5.8002 -13.1276 -1.0929 0.9881 0 9
5.9255 -13.0898 -1.0942 0.9870 0 9
6.0512 -13.0519 -1.0956 0.9858 0 9
6.2996 -13.2718 -1.1188 0.3632 0 9
15.3467 -31.5908 -2.6746 0.0730 0 8
15.6274 -31.4420 -2.6738 0.0730 0 8
15.9067 -31.2906 -2.6731 0.0730 0 8
16.1845 -31.1366 -2.6723 0.0730 0 8
16.4607 -30.9800 -2.6716 0.0731 0 8
15.8039 -29.1055 -2.5221 0.9940 0 19
17.0084 -30.6593 -2.6700 0.0731 0 8
17.2799 -30.4951 -2.6692 0.0731 0 8
17.5498 -30.3285 -2.6684 0.0731 0 8
17.8180 -30.1594 -2.6676 0.0732 0 8
18.0845 -29.9878 -2.6668 0.0732 0 8
18.3493 -29.8137 -2.6660 0.0732 0 8
18.6124 -29.6374 -2.6651 0.0732 0 8
18.8738 -29.4585 -2.6643 0.0733 0 8
19.1333 -29.2772 -2.6634 0.0733 0 8
12.5695 -18.8588 -1.7259 0.2875 0 19
12.7258 -18.7240 -1.7240 0.7622 0 19
12.8028 -18.4757 -1.7118 0.2182 0 19
12.9877 -18.3851 -1.7142 0.3365 0 19
20.4035 -28.3355 -2.6590 0.0734 0 8
20.6521 -28.1403 -2.6582 0.0734 0 8
20.8987 -27.9429 -2.6573 0.0735 0 8
21.1434 -27.7433 -2.6563 0.0735 0 8
21.3861 -27.5414 -2.6554 0.0735 0 8
21.6268 -27.3374 -2.6545 0.0735 0 8
21.8656 -27.1312 -2.6536 0.0736 0 8
19.7682 -24.0797 -2.3725 0.9879 0 5
22.3370 -26.7124 -2.6517 0.0736 0 8
22.5696 -26.4998 -2.6508 0.0737 0 8
22.8002 -26.2851 -2.6498 0.0737 0 8
23.0287 -26.0684 -2.6489 0.0737 0 8
23.2551 -25.8497 -2.6479 0.0737 0 8
18.3474 -20.0271 -2.0684 0.7357 0 19
18.4252 -19.7505 -2.0569 0.9019 0 19
15.0625 -15.8559 -1.6655 0.9364 0 19
15.2007 -15.7142 -1.6649 0.7620 0 19
24.3547 -24.7261 -2.6430 0.0739 0 8
24.5681 -24.4955 -2.6420 0.0739 0 8
24.7793 -24.2631 -2.6410 0.0739 0 8
24.9882 -24.0288 -2.6400 0.0740 0 8
25.1948 -23.7927 -2.6390 0.0740 0 8
25.3992 -23.5548 -2.6380 0.0740 0 8
25.6013 -23.3151 -2.6369 0.0740 0 8
25.8011 -23.0736 -2.6359 0.0741 0 8
25.9986 -22.8303 -2.6349 0.0741 0 8
24.9043 -21.4736 -2.5042 0.3949 0 19
25.3786 -21.4854 -2.5322 0.9300 0 19
14.8486 -12.3419 -1.4704 0.1753 0 10
14.8916 -12.1516 -1.4637 0.4531 0 10
14.9421 -11.9694 -1.4580 0.4635 0 10
14.9920 -11.7883 -1.4524 0.4653 0 10
15.0413 -11.6085 -1.4469 0.4671 0 10
15.0908 -11.4304 -1.4417 0.4793 0 10
15.1593 -11.2679 -1.4384 0.5025 0 10
15.5169 -11.3173 -1.4626 0.3627 0 10
15.9128 -11.3870 -1.4901 0.3920 0 10
16.3679 -11.4902 -1.5229 0.3774 0 10
16.8033 -11.5704 -1.5536 0.3169 0 10
24.3813 -16.4655 -2.2405 0.9212 0 9
23.1879 -15.3559 -2.1179 0.9297 0 5
23.4686 -15.2383 -2.1309 0.3609 0 5
25.6820 -16.3472 -2.3184 0.3564 0 9
26.4552 -16.5050 -2.3746 0.3480 0 9
29.4625 -18.0131 -2.6298 0.0759 0 8
29.6242 -17.7458 -2.6298 0.0759 0 8
29.7835 -17.4772 -2.6298 0.0759 0 8
29.9403 -17.2071 -2.6298 0.0759 0 8
30.0947 -16.9355 -2.6298 0.0759 0 8
30.2467 -16.6627 -2.6298 0.0759 0 8
30.3962 -16.3884 -2.6298 0.0759 0 8
29.7391 -15.6886 -2.5605 0.9929 0 10
31.5741 -16.2933 -2.7057 0.2729 0 8
32.5395 -16.4205 -2.7756 0.0802 0 8
29.5700 -14.5880 -2.5110 0.1635 0 10
29.6809 -14.3104 -2.5093 0.1322 0 10
30.0789 -14.1684 -2.5320 0.7558 0 10
33.1903 -15.2687 -2.7822 0.0759 0 7
32.9365 -14.7926 -2.7496 0.3666 0 10
33.4610 -14.6659 -2.7822 0.0759 0 7
33.5923 -14.3626 -2.7822 0.0759 0 7
33.7208 -14.0582 -2.7822 0.0759 0 7
33.8466 -13.7526 -2.7822 0.0759 0 7
33.9696 -13.4459 -2.7822 0.0759 0 7
34.0898 -13.1381 -2.7822 0.0759 0 7
34.2073 -12.8293 -2.7822 0.0759 0 7
34.3219 -12.5194 -2.7822 0.0759 0 7
34.4337 -12.2084 -2.7822 0.0759 0 7
34.5427 -11.8965 -2.7822 0.0759 0 7
34.6489 -11.5835 -2.7822 0.0759 0 7
34.7523 -11.2697 -2.7822 0.0759 0 7
34.8528 -10.9549 -2.7822 0.0759 0 7
34.9505 -10.6392 -2.7822 0.0759 0 7
35.0453 -10.3227 -2.7822 0.0759 0 7
35.1372 -10.0053 -2.7822 0.0759 0 7
35.2262 -9.6870 -2.7822 0.0759 0 7
35.3124 -9.3680 -2.7822 0.0759 0 7
35.3957 -9.0483 -2.7822 0.0759 0 7
35.4761 -8.7277 -2.7822 0.0759 0 7
35.5536 -8.4065 -2.7822 0.0759 0 7
35.6282 -8.0846 -2.7822 0.0759 0 7
35.6998 -7.7620 -2.7822 0.0759 0 7
35.7686 -7.4388 -2.7822 0.0759 0 6
35.8344 -7.1150 -2.7822 0.0759 0 7
35.8973 -6.7906 -2.7822 0.0759 0 7
35.9572 -6.4656 -2.7822 0.0759 0 7
36.0142 -6.1401 -2.7822 0.0759 0 7
36.0683 -5.8142 -2.7822 0.0759 0 7
36.1194 -5.4877 -2.7822 0.0759 0 7
36.1676 -5.1608 -2.7822 0.0759 0 7
36.2128 -4.8334 -2.7822 0.0759 0 7
36.2550 -4.5057 -2.7822 0.0759 0 7
36.2943 -4.1776 -2.7822 0.0759 0 7
36.3306 -3.8492 -2.7822 0.0759 0 7
36.3639 -3.5204 -2.7822 0.0759 0 7
36.3943 -3.1914 -2.7822 0.0759 0 7
36.4216 -2.8620 -2.7822 0.0759 0 7
36.4460 -2.5325 -2.7822 0.0759 0 7
36.4675 -2.2028 -2.7822 0.0759 0 7
36.4859 -1.8728 -2.7822 0.0759 0 7
36.5013 -1.5427 -2.7822 0.0759 0 7
36.5138 -1.2125 -2.7822 0.0759 0 7
36.5232 -0.8823 -2.7822 0.0759 0 7
36.5298 -0.5518 -2.7822 0.0759 0 6
36.5332 -0.2214 -2.7822 0.0759 0 7
36.5338 0.1090 -2.7822 0.0759 0 7
36.5313 0.4395 -2.7822 0.0759 0 7
36.5258 0.7698 -2.7822 0.0759 0 7
36.5174 1.1002 -2.7822 0.0759 0 7
36.5059 1.4304 -2.7822 0.0759 0 7
36.4454 1.7583 -2.7787 0.0802 0 8
36.1499 2.0720 -2.7574 0.2718 0 8
35.0286 2.3257 -2.6734 0.2804 0 8
34.4347 2.5993 -2.6298 0.0759 0 8
34.4098 2.9107 -2.6298 0.0759 0 8
34.3821 3.2218 -2.6298 0.0759 0 8
34.3515 3.5326 -2.6298 0.0759 0 8
34.3182 3.8432 -2.6298 0.0759 0 8
34.2820 4.1534 -2.6298 0.0759 0 8
34.2430 4.4633 -2.6298 0.0759 0 8
34.2013 4.7729 -2.6298 0.0759 0 8
34.1567 5.0820 -2.6298 0.0759 0 8
34.1093 5.3907 -2.6298 0.0759 0 8
34.0592 5.6990 -2.6298 0.0759 0 8
34.0062 6.0068 -2.6298 0.0759 0 8
33.9505 6.3142 -2.6298 0.0759 0 8
33.8920 6.6210 -2.6298 0.0759 0 8
33.8308 6.9272 -2.6298 0.0759 0 8
33.7667 7.2330 -2.6298 0.0759 0 8
33.6999 7.5381 -2.6298 0.0759 0 8
33.6304 7.8426 -2.6298 0.0759 0 8
33.5580 8.1464 -2.6298 0.0759 0 8
33.4830 8.4496 -2.6298 0.0759 0 8
33.4052 8.7521 -2.6298 0.0759 0 8
33.3247 9.0539 -2.6298 0.0759 0 22
33.2414 9.3549 -2.6298 0.0759 0 22
33.1554 9.6552 -2.6298 0.0759 0 22
33.0667 9.9547 -2.6298 0.0759 0 22
22.4878 6.9924 -1.7934 0.4647 0 9
22.2946 7.1541 -1.7831 0.9952 0 9
22.2237 7.3537 -1.7826 0.9954 0 9
22.2099 7.5727 -1.7870 0.5089 0 9
22.4839 7.8938 -1.8147 0.5011 0 9
32.4781 11.7337 -2.6298 0.0759 0 8
17.6778 6.5680 -1.4361 0.5746 0 5
32.2605 12.3193 -2.6298 0.0759 0 8
32.1478 12.6105 -2.6298 0.0759 0 8
32.0324 12.9008 -2.6298 0.0759 0 8
31.9144 13.1900 -2.6298 0.0759 0 8
31.7938 13.4781 -2.6298 0.0759 0 8
31.6706 13.7651 -2.6298 0.0759 0 8
31.5448 14.0510 -2.6298 0.0759 0 8
31.4164 14.3357 -2.6298 0.0759 0 8
31.2855 14.6192 -2.6298 0.0759 0 8
31.1520 14.9017 -2.6298 0.0759 0 8
31.0159 15.1828 -2.6298 0.0759 0 8
30.8773 15.4627 -2.6298 0.0759 0 8
30.7362 15.7414 -2.6298 0.0759 0 8
30.5926 16.0187 -2.6298 0.0759 0 8
30.4465 16.2948 -2.6298 0.0759 0 8
30.2978 16.5695 -2.6298 0.0759 0 8
30.1467 16.8428 -2.6298 0.0759 0 8
29.9931 17.1148 -2.6298 0.0759 0 8
29.8371 17.3854 -2.6298 0.0759 0 8
29.6787 17.6546 -2.6298 0.0759 0 8
29.5178 17.9223 -2.6298 0.0759 0 8
29.3545 18.1885 -2.6298 0.0759 0 8
29.1887 18.4533 -2.6298 0.0759 0 8
29.0206 18.7165 -2.6298 0.0759 0 8
28.8502 18.9783 -2.6298 0.0759 0 8
28.6773 19.2385 -2.6298 0.0759 0 8
28.5021 19.4970 -2.6298 0.0759 0 8
28.3246 19.7540 -2.6298 0.0759 0 8
28.1448 20.0094 -2.6298 0.0759 0 8
27.9627 20.2631 -2.6298 0.0759 0 8
27.7783 20.5152 -2.6298 0.0759 0 8
27.5916 20.7656 -2.6298 0.0759 0 8
27.4026 21.0143 -2.6298 0.0759 0 8
27.2114 21.2613 -2.6298 0.0759 0 8
27.0180 21.5066 -2.6298 0.0759 0 8
26.8224 21.7501 -2.6298 0.0759 0 8
26.6246 21.9918 -2.6298 0.0759 0 8
26.4246 22.2317 -2.6298 0.0759 0 8
26.2224 22.4698 -2.6298 0.0759 0 8
26.0181 22.7060 -2.6298 0.0759 0 8
25.8091 22.9236 -2.6298 0.0760 0 8
25.6031 23.1730 -2.6298 0.0759 0 8
25.3925 23.4036 -2.6298 0.0759 0 8
25.1798 23.6323 -2.6298 0.0759 0 8
24.9650 23.8591 -2.6298 0.0759 0 8
24.7482 24.0839 -2.6298 0.0759 0 8
24.5293 24.3067 -2.6298 0.0759 0 8
24.3085 24.5276 -2.6298 0.0759 0 8
24.0856 24.7465 -2.6298 0.0759 0 8
23.8608 24.9633 -2.6298 0.0759 0 8
23.6341 25.1781 -2.6298 0.0759 0 8
23.4054 25.3908 -2.6298 0.0759 0 8
23.1748 25.6015 -2.6298 0.0759 0 8
22.9423 25.8101 -2.6298 0.0759 0 8
22.7078 26.0164 -2.6298 0.0759 0 8
22.4716 26.2208 -2.6298 0.0759 0 8
22.2336 26.4230 -2.6298 0.0759 0 8
21.9936 26.6230 -2.6298 0.0759 0 8
21.7519 26.8209 -2.6298 0.0759 0 8
21.5085 27.0165 -2.6298 0.0759 0 8
21.2632 27.2100 -2.6298 0.0759 0 8
21.0163 27.4012 -2.6298 0.0759 0 8
20.7676 27.5901 -2.6298 0.0759 0 8
20.5172 27.7768 -2.6298 0.0759 0 8
20.2651 27.9613 -2.6298 0.0759 0 8
20.0114 28.1434 -2.6298 0.0759 0 8
19.7560 28.3233 -2.6298 0.0759 0 8
19.4990 28.5008 -2.6298 0.0759 0 8
19.2404 28.6760 -2.6298 0.0759 0 8
18.9803 28.8488 -2.6298 0.0759 0 8
18.7186 29.0193 -2.6298 0.0759 0 8
18.4553 29.1874 -2.6298 0.0759 0 8
18.1906 29.3532 -2.6298 0.0759 0 8
17.9244 29.5165 -2.6298 0.0759 0 8
17.6567 29.6774 -2.6298 0.0759 0 8
17.3875 29.8359 -2.6298 0.0759 0 8
17.1170 29.9919 -2.6298 0.0759 0 8
16.8450 30.1455 -2.6298 0.0759 0 8
16.5716 30.2971 -2.6298 0.0759 0 8
16.2969 30.4453 -2.6298 0.0759 0 8
16.0209 30.5914 -2.6298 0.0759 0 8
15.7436 30.7351 -2.6298 0.0759 0 8
15.4649 30.8762 -2.6298 0.0759 0 8
15.1850 31.0149 -2.6298 0.0759 0 8
14.9039 31.1509 -2.6298 0.0759 0 8
14.6215 31.2845 -2.6298 0.0759 0 8
14.3380 31.4154 -2.6298 0.0759 0 8
14.0534 31.5429 -2.6298 0.0759 0 8
13.7674 31.6696 -2.6298 0.0759 0 8
13.4803 31.7929 -2.6298 0.0759 0 8
13.1922 31.9135 -2.6298 0.0759 0 8
12.9031 32.0315 -2.6298 0.0759 0 8
12.6128 32.1469 -2.6298 0.0759 0 8
12.3215 32.2597 -2.6298 0.0759 0 8
12.0292 32.3698 -2.6298 0.0759 0 8
11.7360 32.4773 -2.6298 0.0759 0 8
11.4418 32.5821 -2.6298 0.0759 0 8
11.1466 32.6842 -2.6298 0.0759 0 8
10.8505 32.7837 -2.6298 0.0759 0 8
3.4925 10.8811 -0.8703 0.7683 0 9
3.3689 10.8318 -0.8639 0.7740 0 9
3.2471 10.7833 -0.8576 0.7796 0 9
3.1271 10.7355 -0.8515 0.7852 0 9
3.0385 10.7939 -0.8539 0.9200 0 9
2.9520 10.8623 -0.8572 0.9165 0 9
2.8648 10.9312 -0.8606 0.9130 0 9
2.7769 11.0007 -0.8640 0.9093 0 9
2.7732 11.4204 -0.8950 0.0950 0 9
7.8450 33.6298 -2.6298 0.0759 0 8
7.5405 33.6994 -2.6298 0.0759 0 8
7.2353 33.7662 -2.6298 0.0759 0 8
6.9296 33.8303 -2.6298 0.0759 0 8
6.6234 33.8915 -2.6298 0.0759 0 8
6.3166 33.9501 -2.6298 0.0759 0 8
6.0092 34.0058 -2.6298 0.0759 0 8
5.7014 34.0588 -2.6298 0.0759 0 8
5.3931 34.1089 -2.6298 0.0759 0 8
5.0844 34.1563 -2.6298 0.0759 0 8
4.7753 34.2009 -2.6298 0.0759 0 8
4.4657 34.2427 -2.6298 0.0759 0 8
4.1558 34.2817 -2.6298 0.0759 0 8
3.8456 34.3179 -2.6298 0.0759 0 8
3.5350 34.3513 -2.6298 0.0759 0 8
3.2242 34.3818 -2.6298 0.0759 0 8
2.9131 34.4096 -2.6298 0.0759 0 8
2.6017 34.4345 -2.6298 0.0759 0 8
2.2902 34.4567 -2.6298 0.0759 0 8
1.9784 34.4760 -2.6298 0.0759 0 8
1.6665 34.4924 -2.6298 0.0759 0 8
1.3545 34.5061 -2.6298 0.0759 0 8
1.0423 34.5169 -2.6298 0.0759 0 8
0.7301 34.5250 -2.6298 0.0759 0 8
0.4178 34.5302 -2.6298 0.0759 0 8
0.1055 34.5325 -2.6298 0.0759 0 8
-0.2069 34.5321 -2.6298 0.0759 0 8
-0.5192 34.5288 -2.6298 0.0759 0 8
-0.8315 34.5227 -2.6298 0.0759 0 8
-1.1437 34.5139 -2.6298 0.0759 0 8
-1.4558 34.5020 -2.6298 0.0759 0 8
-1.7678 34.4874 -2.6298 0.0759 0 8
-2.0797 34.4700 -2.6298 0.0759 0 8
-2.3914 34.4498 -2.6298 0.0759 0 8
-2.7029 34.4267 -2.6298 0.0759 0 8
-3.0141 34.4009 -2.6298 0.0759 0 8
-3.3251 34.3722 -2.6298 0.0759 0 8
-3.6359 34.3407 -2.6298 0.0759 0 8
-3.9464 34.3064 -2.6298 0.0759 0 8
-4.2565 34.2694 -2.6298 0.0759 0 8
-4.5663 34.2294 -2.6298 0.0759 0 8
-4.8757 34.1867 -2.6298 0.0759 0 8
-5.1847 34.1413 -2.6298 0.0759 0 8
-5.4933 34.0930 -2.6298 0.0759 0 8
-5.8014 34.0419 -2.6298 0.0759 0 8
-1.8710 10.4092 -0.8054 0.9974 0 5
-6.4162 33.9314 -2.6298 0.0759 0 8
-6.7228 33.8720 -2.6298 0.0759 0 8
-7.0289 33.8098 -2.6298 0.0759 0 8
-7.3345 33.7448 -2.6298 0.0759 0 8
-7.6394 33.6771 -2.6298 0.0759 0 8
-7.1898 30.4172 -2.3802 0.9042 0 5
-8.7252 35.4767 -2.7822 0.0759 0 7
-9.0458 35.3963 -2.7822 0.0759 0 7
-9.3655 35.3131 -2.7822 0.0759 0 7
-9.6845 35.2269 -2.7822 0.0759 0 7
-10.0028 35.1379 -2.7822 0.0759 0 6
-10.3202 35.0460 -2.7822 0.0759 0 7
-10.6367 34.9512 -2.7822 0.0759 0 7
-10.9524 34.8536 -2.7822 0.0759 0 7
-11.2672 34.7531 -2.7822 0.0759 0 7
-11.5811 34.6497 -2.7822 0.0759 0 7
-11.8940 34.5436 -2.7822 0.0759 0 7
-12.2060 34.4346 -2.7822 0.0759 0 7
-12.5169 34.3228 -2.7822 0.0759 0 7
-12.8269 34.2082 -2.7822 0.0759 0 7
-13.1357 34.0907 -2.7822 0.0759 0 7
-13.4435 33.9706 -2.7822 0.0759 0 7
-13.7502 33.8476 -2.7822 0.0759 0 7
-14.0558 33.7218 -2.7822 0.0759 0 7
-9.4925 22.2061 -1.8391 0.7278 0 19
-9.6840 22.0989 -1.8374 0.8152 0 19
-14.9656 33.3280 -2.7822 0.0759 0 7
-15.2664 33.1913 -2.7822 0.0759 0 7
-15.5660 33.0519 -2.7822 0.0759 0 7
-15.8643 32.9098 -2.7822 0.0759 0 7
-16.1613 32.7649 -2.7822 0.0759 0 7
-16.4570 32.6174 -2.7822 0.0759 0 7
-16.7513 32.4672 -2.7822 0.0759 0 7
-17.0443 32.3144 -2.7822 0.0759 0 7
-17.3359 32.1589 -2.7822 0.0759 0 7
-17.6260 32.0008 -2.7822 0.0759 0 6
-17.9147 31.8400 -2.7822 0.0759 0 6
-18.2020 31.6767 -2.7822 0.0759 0 7
-18.4878 31.5108 -2.7822 0.0759 0 7
-18.7720 31.3423 -2.7822 0.0759 0 7
-19.0547 31.1712 -2.7822 0.0759 0 7
-19.3359 30.9976 -2.7822 0.0759 0 7
-8.9103 14.0006 -1.2638 0.6980 0 12
-8.9543 13.7927 -1.2523 0.7044 0 12
-8.9944 13.5838 -1.2407 0.6993 0 12
-20.4445 30.2779 -2.7822 0.0759 0 7
-20.7175 30.0918 -2.7822 0.0759 0 7
-20.9888 29.9031 -2.7822 0.0759 0 7
28.1463 0.0000 -2.7822 0.0984 0 7
28.1451 0.2546 -2.7822 0.0984 0 7
28.1417 0.5091 -2.7822 0.0984 0 7
28.1359 0.7637 -2.7822 0.0984 0 7
28.1278 1.0181 -2.7822 0.0984 0 7
28.1175 1.2725 -2.7822 0.0984 0 6
28.1048 1.5267 -2.7822 0.0984 0 7
28.0899 1.7809 -2.7822 0.0984 0 7
28.0726 2.0349 -2.7822 0.0984 0 7
28.0531 2.2887 -2.7822 0.0984 0 7
28.0312 2.5423 -2.7822 0.0984 0 7
28.0071 2.7958 -2.7822 0.0984 0 7
27.9806 3.0490 -2.7822 0.0984 0 7
27.9519 3.3019 -2.7822 0.0984 0 7
27.8852 3.5500 -2.7786 0.1037 0 8
27.8132 3.7968 -2.7747 0.1039 0 8
27.1388 3.9551 -2.7109 0.3456 0 8
26.4608 4.1010 -2.6468 0.3501 0 8
26.2527 4.3123 -2.6298 0.0984 0 8
26.2126 4.5496 -2.6298 0.0984 0 8
26.1704 4.7865 -2.6298 0.0984 0 8
26.1260 5.0230 -2.6298 0.0984 0 8
26.0795 5.2591 -2.6298 0.0984 0 8
26.0309 5.4947 -2.6298 0.0984 0 8
25.9801 5.7300 -2.6298 0.0984 0 8
25.9272 5.9647 -2.6298 0.0984 0 8
25.8722 6.1990 -2.6298 0.0984 0 8
23.7358 5.9146 -2.4180 0.9060 0 9
23.2655 6.0214 -2.3755 0.4200 0 9
22.7687 6.1131 -2.3303 0.4281 0 9
22.2903 6.2013 -2.2870 0.4362 0 9
21.8293 6.2863 -2.2454 0.4443 0 9
21.3848 6.3683 -2.2056 0.4523 0 9
21.2526 6.5388 -2.1979 0.8823 0 9
21.2939 6.7630 -2.2084 0.8781 0 9
21.3357 6.9893 -2.2192 0.8738 0 9
21.3778 7.2178 -2.2303 0.8695 0 9
21.4204 7.4487 -2.2417 0.8651 0 9
21.4634 7.6820 -2.2534 0.8606 0 9
17.6690 6.5048 -1.8611 0.9815 0 5
21.5509 8.1560 -2.2777 0.8514 0 9
21.5953 8.3969 -2.2903 0.8467 0 9
21.6402 8.6405 -2.3033 0.8419 0 9
21.6857 8.8869 -2.3166 0.8371 0 9
24.5253 10.3106 -2.6298 0.0984 0 8
24.4310 10.5320 -2.6298 0.0984 0 8
24.3348 10.7525 -2.6298 0.0984 0 8
15.1528 6.8599 -1.6441 0.6555 0 19
15.1347 7.0173 -1.6490 0.9530 0 19
14.8501 7.0492 -1.6249 0.1901 0 19
23.9299 11.6257 -2.6298 0.0984 0 22
23.8238 11.8417 -2.6298 0.0984 0 22
23.7157 12.0567 -2.6298 0.0984 0 22
23.6057 12.2707 -2.6298 0.0984 0 22
23.4937 12.4837 -2.6298 0.0984 0 22
23.3799 12.6957 -2.6298 0.0984 0 22
23.2641 12.9066 -2.6298 0.0984 0 22
23.1464 13.1165 -2.6298 0.0984 0 22
23.0268 13.3253 -2.6298 0.0984 0 8
22.9053 13.5331 -2.6298 0.0984 0 8
22.7820 13.7397 -2.6298 0.0984 0 8
22.6568 13.9452 -2.6298 0.0984 0 8
22.5298 14.1495 -2.6298 0.0984 0 8
22.4008 14.3527 -2.6298 0.0984 0 8
22.2701 14.5548 -2.6298 0.0984 0 8
22.1376 14.7556 -2.6298 0.0984 0 8
22.0032 14.9552 -2.6298 0.0984 0 8
21.8670 15.1536 -2.6298 0.0984 0 8
21.7291 15.3508 -2.6298 0.0984 0 8
21.5893 15.5467 -2.6298 0.0984 0 8
21.4478 15.7413 -2.6298 0.0984 0 8
21.3046 15.9347 -2.6298 0.0984 0 8
21.1595 16.1262 -2.6298 0.0984 0 8
21.0129 16.3174 -2.6298 0.0984 0 8
20.8644 16.5068 -2.6298 0.0984 0 8
20.7143 16.6949 -2.6298 0.0984 0 8
20.5624 16.8815 -2.6298 0.0984 0 8
20.4089 17.0668 -2.6298 0.0984 0 8
20.2537 17.2507 -2.6298 0.0984 0 8
20.0968 17.4332 -2.6298 0.0984 0 8
19.9383 17.6142 -2.6298 0.0984 0 8
19.7782 17.7939 -2.6298 0.0984 0 8
19.6164 17.9720 -2.6298 0.0984 0 8
19.4531 18.1487 -2.6298 0.0984 0 8
19.2882 18.3239 -2.6298 0.0984 0 8
19.1216 18.4976 -2.6298 0.0984 0 8
18.9535 18.6698 -2.6298 0.0984 0 8
18.7839 18.8405 -2.6298 0.0984 0 8
18.6127 19.0094 -2.6298 0.0984 0 8
18.4400 19.1772 -2.6298 0.0984 0 8
18.2658 19.3432 -2.6298 0.0984 0 8
18.0901 19.5076 -2.6298 0.0984 0 8
17.9129 19.6704 -2.6298 0.0984 0 8
17.7343 19.8317 -2.6298 0.0984 0 8
17.5542 19.9912 -2.6298 0.0984 0 8
17.3727 20.1492 -2.6298 0.0984 0 8
17.1897 20.3059 -2.6298 0.0984 0 8
17.0053 20.4601 -2.6298 0.0984 0 8
16.8196 20.6131 -2.6298 0.0984 0 8
16.6325 20.7644 -2.6298 0.0984 0 8
16.4440 20.9140 -2.6298 0.0984 0 8
16.2541 21.0618 -2.6298 0.0984 0 8
16.0630 21.2080 -2.6298 0.0984 0 8
15.8707 21.3514 -2.6298 0.0984 0 8
15.6767 21.4951 -2.6298 0.0984 0 8
15.4817 21.6360 -2.6298 0.0984 0 8
15.2853 21.7751 -2.6298 0.0984 0 8
15.0878 21.9125 -2.6298 0.0984 0 8
14.8890 22.0481 -2.6298 0.0984 0 8
14.6889 22.1818 -2.6298 0.0984 0 8
14.4877 22.3138 -2.6298 0.0984 0 8
14.2853 22.4439 -2.6298 0.0984 0 8
14.0817 22.5722 -2.6298 0.0984 0 8
13.8770 22.6986 -2.6298 0.0984 0 8
13.6711 22.8232 -2.6298 0.0984 0 8
13.4641 22.9459 -2.6298 0.0984 0 8
13.2560 23.0668 -2.6298 0.0984 0 8
13.0469 23.1857 -2.6298 0.0984 0 8
12.8366 23.3028 -2.6298 0.0984 0 8
12.6253 23.4179 -2.6298 0.0984 0 8
12.4130 23.5312 -2.6298 0.0984 0 8
12.1996 23.6425 -2.6298 0.0984 0 8
11.9853 23.7519 -2.6298 0.0984 0 8
11.7700 23.8593 -2.6298 0.0984 0 8
11.5537 23.9648 -2.6298 0.0984 0 8
11.3365 24.0683 -2.6298 0.0984 0 8
11.1183 24.1698 -2.6298 0.0984 0 8
10.8993 24.2694 -2.6298 0.0984 0 8
10.6793 24.3670 -2.6298 0.0984 0 8
10.4585 24.4626 -2.6298 0.0984 0 8
10.2368 24.5562 -2.6298 0.0984 0 8
10.0143 24.6478 -2.6298 0.0984 0 8
9.7909 24.7373 -2.6298 0.0984 0 8
9.5668 24.8249 -2.6298 0.0984 0 8
9.3419 24.9104 -2.6298 0.0984 0 8
9.1162 24.9939 -2.6298 0.0984 0 8
8.8897 25.0753 -2.6298 0.0984 0 8
8.6626 25.1547 -2.6298 0.0984 0 8
8.4347 25.2320 -2.6298 0.0984 0 8
3.5354 10.9029 -1.1330 0.7645 0 9
3.4112 10.8534 -1.1246 0.7702 0 9
3.2887 10.8046 -1.1164 0.7759 0 9
3.1681 10.7565 -1.1084 0.7814 0 9
3.0674 10.7731 -1.1072 0.9192 0 9
2.9811 10.8414 -1.1114 0.9158 0 9
2.8941 10.9101 -1.1157 0.9122 0 9
2.8064 10.9795 -1.1202 0.9086 0 9
2.7181 11.0493 -1.1248 0.9049 0 9
6.1211 25.8907 -2.6298 0.0984 0 8
5.8867 25.9450 -2.6298 0.0984 0 8
5.6518 25.9972 -2.6298 0.0984 0 8
5.4164 26.0473 -2.6298 0.0984 0 8
5.1806 26.0952 -2.6298 0.0984 0 8
4.9444 26.1410 -2.6298 0.0984 0 8
4.7077 26.1846 -2.6298 0.0984 0 8
4.4707 26.2262 -2.6298 0.0984 0 8
4.2333 26.2655 -2.6298 0.0984 0 8
3.9956 26.3027 -2.6298 0.0984 0 8
3.7575 26.3378 -2.6298 0.0984 0 8
3.5192 26.3707 -2.6298 0.0984 0 8
3.2805 26.4014 -2.6298 0.0984 0 8
3.0416 26.4300 -2.6298 0.0984 0 8
2.8024 26.4565 -2.6298 0.0984 0 8
2.5630 26.4807 -2.6298 0.0984 0 8
2.3234 26.5028 -2.6298 0.0984 0 8
2.0836 26.5228 -2.6298 0.0984 0 8
1.8436 26.5405 -2.6298 0.0984 0 8
1.6035 26.5561 -2.6298 0.0984 0 8
1.3632 26.5695 -2.6298 0.0984 0 8
1.1228 26.5808 -2.6298 0.0984 0 8
0.8824 26.5898 -2.6298 0.0984 0 8
0.6418 26.5967 -2.6298 0.0984 0 8
0.4012 26.6015 -2.6298 0.0984 0 8
0.1606 26.6040 -2.6298 0.0984 0 8
-0.0800 26.6044 -2.6298 0.0984 0 8
-0.3206 26.6025 -2.6298 0.0984 0 8
-0.5612 26.5986 -2.6298 0.0984 0 8
-0.8018 26.5924 -2.6298 0.0984 0 8
-1.0423 26.5841 -2.6298 0.0984 0 8
-1.2827 26.5735 -2.6298 0.0984 0 8
-1.5230 26.5609 -2.6298 0.0984 0 8
-1.7631 26.5460 -2.6298 0.0984 0 8
-2.0032 26.5290 -2.6298 0.0984 0 8
-2.2430 26.5098 -2.6298 0.0984 0 8
-2.4827 26.4884 -2.6298 0.0984 0 8
-2.7222 26.4649 -2.6298 0.0984 0 8
-2.9615 26.4391 -2.6298 0.0984 0 8
-3.2005 26.4113 -2.6298 0.0984 0 8
-3.4392 26.3812 -2.6298 0.0984 0 8
-3.6777 26.3491 -2.6298 0.0984 0 8
-3.9159 26.3147 -2.6298 0.0984 0 8
-4.1537 26.2782 -2.6298 0.0984 0 8
-4.3912 26.2396 -2.6298 0.0984 0 8
-1.8419 10.4258 -1.0465 0.6976 0 5
-4.8651 26.1559 -2.6298 0.0984 0 8
-5.1015 26.1108 -2.6298 0.0984 0 8
-5.3375 26.0636 -2.6298 0.0984 0 8
-5.5730 26.0142 -2.6298 0.0984 0 8
-5.8080 25.9628 -2.6298 0.0984 0 8
-6.0426 25.9092 -2.6298 0.0984 0 8
-6.2767 25.8535 -2.6298 0.0984 0 8
-6.5103 25.7956 -2.6298 0.0984 0 8
-6.7434 25.7357 -2.6298 0.0984 0 8
-6.9758 25.6736 -2.6298 0.0984 0 8
-7.2078 25.6095 -2.6298 0.0984 0 8
-7.4391 25.5433 -2.6298 0.0984 0 8
-7.6698 25.4749 -2.6298 0.0984 0 8
-7.8999 25.4045 -2.6298 0.0984 0 8
-8.1294 25.3320 -2.6298 0.0984 0 8
-8.3582 25.2575 -2.6298 0.0984 0 8
-8.5863 25.1808 -2.6298 0.0984 0 8
-8.8137 25.1021 -2.6298 0.0984 0 8
-9.0404 25.0214 -2.6298 0.0984 0 8
-9.2663 24.9386 -2.6298 0.0984 0 8
-9.4915 24.8538 -2.6298 0.0984 0 8
-10.2790 26.2022 -2.7822 0.0984 0 7
-10.5155 26.1081 -2.7822 0.0984 0 7
-10.7513 26.0120 -2.7822 0.0984 0 7
-10.9861 25.9137 -2.7822 0.0984 0 7
-11.2200 25.8132 -2.7822 0.0984 0 7
-11.4530 25.7107 -2.7822 0.0984 0 7
-11.6851 25.6061 -2.7822 0.0984 0 7
-11.9162 25.4993 -2.7822 0.0984 0 6
-12.1464 25.3905 -2.7822 0.0984 0 7
-12.3755 25.2796 -2.7822 0.0984 0 7
-12.6037 25.1666 -2.7822 0.0984 0 7
-12.8308 25.0516 -2.7822 0.0984 0 7
-13.0568 24.9345 -2.7822 0.0984 0 7
-13.2818 24.8154 -2.7822 0.0984 0 7
-13.5057 24.6943 -2.7822 0.0984 0 7
-13.7286 24.5711 -2.7822 0.0984 0 7
-13.9502 24.4459 -2.7822 0.0984 0 7
-14.1708 24.3188 -2.7822 0.0984 0 7
-14.3902 24.1896 -2.7822 0.0984 0 7
-14.6084 24.0584 -2.7822 0.0984 0 7
-14.8254 23.9253 -2.7822 0.0984 0 7
-15.0411 23.7903 -2.7822 0.0984 0 7
-15.2557 23.6532 -2.7822 0.0984 0 7
-15.4690 23.5143 -2.7822 0.0984 0 7
-15.6811 23.3734 -2.7822 0.0984 0 7
-15.8918 23.2306 -2.7822 0.0984 0 7
-16.1013 23.0860 -2.7822 0.0984 0 7
-16.3094 22.9394 -2.7822 0.0984 0 7
-16.5162 22.7909 -2.7822 0.0984 0 7
-16.7217 22.6406 -2.7822 0.0984 0 7
-16.9258 22.4884 -2.7822 0.0984 0 7
-17.1285 22.3344 -2.7822 0.0984 0 7
-17.3298 22.1786 -2.7822 0.0984 0 7
-17.5298 22.0209 -2.7822 0.0984 0 7
-17.7282 21.8615 -2.7822 0.0984 0 6
-17.9252 21.7002 -2.7822 0.0984 0 7
-18.1207 21.5372 -2.7822 0.0984 0 7
-18.3148 21.3724 -2.7822 0.0984 0 7
-18.5073 21.2059 -2.7822 0.0984 0 7
-18.6984 21.0377 -2.7822 0.0984 0 7
-18.8879 20.8677 -2.7822 0.0984 0 7
-19.0759 20.6960 -2.7822 0.0984 0 7
-19.2623 20.5226 -2.7822 0.0984 0 7
-19.4471 20.3476 -2.7822 0.0984 0 7
-19.6303 20.1708 -2.7822 0.0984 0 7
-19.8120 19.9925 -2.7822 0.0984 0 7
-19.9920 19.8124 -2.7822 0.0984 0 6
-20.1704 19.6308 -2.7822 0.0984 0 6
-20.3471 19.4474 -2.7822 0.0984 0 6
-20.5221 19.2628 -2.7822 0.0984 0 6
-20.6955 19.0763 -2.7822 0.0984 0 7
-20.8672 18.8884 -2.7822 0.0984 0 7
-21.0372 18.6989 -2.7822 0.0984 0 7
-21.2055 18.5078 -2.7822 0.0984 0 7
-21.3720 18.3153 -2.7822 0.0984 0 7
-21.5368 18.1212 -2.7822 0.0984 0 7
-21.6998 17.9257 -2.7822 0.0984 0 7
-21.8611 17.7287 -2.7822 0.0984 0 7
-22.0205 17.5302 -2.7822 0.0984 0 7
-22.1782 17.3303 -2.7822 0.0984 0 7
-22.3340 17.1290 -2.7822 0.0984 0 7
-22.4880 16.9263 -2.7822 0.0984 0 7
-22.6402 16.7222 -2.7822 0.0984 0 7
-22.7905 16.5168 -2.7822 0.0984 0 7
-22.9390 16.3100 -2.7822 0.0984 0 7
-23.0856 16.1018 -2.7822 0.0984 0 7
-23.2303 15.8924 -2.7822 0.0984 0 7
-23.3730 15.6816 -2.7822 0.0984 0 7
-23.5139 15.4696 -2.7822 0.0984 0 7
-23.6529 15.2562 -2.7822 0.0984 0 7
-23.7899 15.0417 -2.7822 0.0984 0 7
-23.9250 14.8259 -2.7822 0.0984 0 7
-24.0581 14.6089 -2.7822 0.0984 0 7
-24.1893 14.3907 -2.7822 0.0984 0 7
-24.3184 14.1713 -2.7822 0.0984 0 7
-24.4456 13.9508 -2.7822 0.0984 0 7
-24.5708 13.7291 -2.7822 0.0984 0 7
-24.6939 13.5063 -2.7822 0.0984 0 7
-24.8151 13.2824 -2.7822 0.0984 0 7
-24.9342 13.0574 -2.7822 0.0984 0 7
-25.0513 12.8314 -2.7822 0.0984 0 7
-25.1663 12.6043 -2.7822 0.0984 0 7
-25.2793 12.3761 -2.7822 0.0984 0 7
-25.3902 12.1470 -2.7822 0.0984 0 7
-25.4990 11.9168 -2.7822 0.0984 0 7
-25.6058 11.6857 -2.7822 0.0984 0 7
-25.7104 11.4536 -2.7822 0.0984 0 7
-25.8130 11.2206 -2.7822 0.0984 0 7
-25.9134 10.9867 -2.7822 0.0984 0 7
-26.0117 10.7519 -2.7822 0.0984 0 7
-26.1079 10.5162 -2.7822 0.0984 0 7
-26.2019 10.2796 -2.7822 0.0984 0 7
-26.2938 10.0422 -2.7822 0.0984 0 7
-26.3836 9.8039 -2.7822 0.0984 0 7
-26.4712 9.5649 -2.7822 0.0984 0 7
-26.5566 9.3251 -2.7822 0.0984 0 7
-26.6399 9.0845 -2.7822 0.0984 0 7
-26.7210 8.8432 -2.7822 0.0984 0 7
-26.7999 8.6011 -2.7822 0.0984 0 7
-26.8766 8.3584 -2.7822 0.0984 0 7
-26.9511 8.1150 -2.7822 0.0984 0 7
-27.0233 7.8709 -2.7822 0.0984 0 7
-27.0934 7.6261 -2.7822 0.0984 0 7
-27.1613 7.3808 -2.7822 0.0984 0 7
-27.2269 7.1348 -2.7822 0.0984 0 7
-27.2904 6.8882 -2.7822 0.0984 0 7
-27.3516 6.6411 -2.7822 0.0984 0 7
-27.4105 6.3935 -2.7822 0.0984 0 7
-27.4672 6.1453 -2.7822 0.0984 0 7
-27.5217 5.8966 -2.7822 0.0984 0 7
-27.5739 5.6474 -2.7822 0.0984 0 7
-27.6238 5.3978 -2.7822 0.0984 0 7
-27.6715 5.1477 -2.7822 0.0984 0 7
-27.7169 4.8972 -2.7822 0.0984 0 7
-27.7601 4.6463 -2.7822 0.0984 0 7
-27.8010 4.3951 -2.7822 0.0984 0 7
-27.8396 4.1434 -2.7822 0.0984 0 7
-27.8759 3.8915 -2.7822 0.0984 0 7
-27.9100 3.6392 -2.7822 0.0984 0 7
-27.9418 3.3866 -2.7822 0.0984 0 7
-27.9713 3.1337 -2.7822 0.0984 0 7
-27.9985 2.8806 -2.7822 0.0984 0 7
-28.0234 2.6272 -2.7822 0.0984 0 7
-28.0460 2.3737 -2.7822 0.0984 0 7
-28.0663 2.1199 -2.7822 0.0984 0 7
-28.0843 1.8660 -2.7822 0.0984 0 7
-28.1001 1.6119 -2.7822 0.0984 0 7
-28.1135 1.3576 -2.7822 0.0984 0 7
-28.1246 1.1033 -2.7822 0.0984 0 7
-28.1334 0.8489 -2.7822 0.0984 0 7
-28.1400 0.5944 -2.7822 0.0984 0 7
-28.1442 0.3398 -2.7822 0.0984 0 7
-28.1461 0.0853 -2.7822 0.0984 0 7
-28.1457 -0.1693 -2.7822 0.0984 0 7
-28.1431 -0.4239 -2.7822 0.0984 0 7
-28.1381 -0.6784 -2.7822 0.0984 0 7
-28.1308 -0.9329 -2.7822 0.0984 0 7
-28.1212 -1.1873 -2.7822 0.0984 0 7
-28.1093 -1.4416 -2.7822 0.0984 0 7
-28.0951 -1.6957 -2.7822 0.0984 0 7
-28.0786 -1.9498 -2.7822 0.0984 0 7
-28.0599 -2.2037 -2.7822 0.0984 0 7
-28.0388 -2.4574 -2.7822 0.0984 0 7
-28.0154 -2.7109 -2.7822 0.0984 0 7
-27.9897 -2.9641 -2.7822 0.0984 0 7
-27.9618 -3.2172 -2.7822 0.0984 0 7
-27.9315 -3.4700 -2.7822 0.0984 0 7
-27.8990 -3.7224 -2.7822 0.0984 0 7
-27.8460 -3.9720 -2.7804 0.1040 0 8
-27.7706 -4.2179 -2.7765 0.1041 0 8
-27.4036 -4.4161 -2.7437 0.3608 0 8
-26.7490 -4.5592 -2.6822 0.3690 0 8
-26.1847 -4.7071 -2.6298 0.0984 0 8
-26.1411 -4.9438 -2.6298 0.0984 0 8
-26.0953 -5.1800 -2.6298 0.0984 0 8
-26.0474 -5.4158 -2.6298 0.0984 0 8
-25.9974 -5.6512 -2.6298 0.0984 0 8
-25.9452 -5.8861 -2.6298 0.0984 0 8
-25.8909 -6.1205 -2.6298 0.0984 0 8
-25.8345 -6.3545 -2.6298 0.0984 0 8
-25.7759 -6.5879 -2.6298 0.0984 0 8
-25.7153 -6.8207 -2.6298 0.0984 0 8
-25.6525 -7.0530 -2.6298 0.0984 0 8
-25.5877 -7.2848 -2.6298 0.0984 0 8
-25.5208 -7.5159 -2.6298 0.0984 0 8
-25.4517 -7.7464 -2.6298 0.0984 0 8
-25.3806 -7.9763 -2.6298 0.0984 0 8
-25.3075 -8.2056 -2.6298 0.0984 0 8
-25.2322 -8.4341 -2.6298 0.0984 0 8
-25.1549 -8.6620 -2.6298 0.0984 0 8
-25.0755 -8.8891 -2.6298 0.0984 0 8
-24.9941 -9.1156 -2.6298 0.0984 0 8
-24.9106 -9.3413 -2.6298 0.0984 0 8
-24.8251 -9.5662 -2.6298 0.0984 0 8
-24.7376 -9.7904 -2.6298 0.0984 0 8
-24.6480 -10.0137 -2.6298 0.0984 0 8
-19.2763 -8.0352 -2.0643 0.7889 0 9
-24.4628 -10.4579 -2.6298 0.0984 0 8
-24.3672 -10.6788 -2.6298 0.0984 0 8
-18.5995 -8.3524 -2.0155 0.1632 0 9
-18.0803 -8.3166 -1.9672 0.9366 0 9
-15.8851 -7.4816 -1.7356 0.8594 0 5
-17.8356 -8.5982 -1.9572 0.7559 0 9
-17.8967 -8.8281 -1.9725 0.7500 0 9
-23.7704 -11.9939 -2.6318 0.0960 0 8
-23.6675 -12.2118 -2.6325 0.0960 0 8
-18.4892 -9.7527 -2.0663 0.6754 0 9
-23.4555 -12.6449 -2.6340 0.0960 0 8
-23.3465 -12.8600 -2.6347 0.0959 0 8
-23.2355 -13.0742 -2.6354 0.0959 0 8
-23.1225 -13.2873 -2.6361 0.0959 0 8
-23.0075 -13.4995 -2.6368 0.0959 0 8
-22.8905 -13.7107 -2.6375 0.0958 0 8
-22.7715 -13.9208 -2.6382 0.0958 0 8
-22.6505 -14.1298 -2.6389 0.0958 0 8
-22.5275 -14.3378 -2.6395 0.0957 0 8
-22.4026 -14.5446 -2.6402 0.0957 0 8
-18.3031 -12.1198 -2.1699 0.1717 0 19
-17.9326 -12.1092 -2.1389 0.5500 0 19
-17.7664 -12.2324 -2.1321 0.7615 0 19
-17.6606 -12.3965 -2.1328 0.7477 0 19
-17.6192 -12.6068 -2.1415 0.5123 0 19
-21.6126 -15.7616 -2.6441 0.0956 0 8
-21.4742 -15.9603 -2.6447 0.0956 0 8
-21.3340 -16.1577 -2.6453 0.0956 0 8
-21.1920 -16.3538 -2.6460 0.0955 0 8
-21.0481 -16.5486 -2.6466 0.0955 0 8
-20.9023 -16.7422 -2.6472 0.0955 0 8
-19.2931 -15.7418 -2.4613 0.7751 0 5
-19.1782 -15.9391 -2.4650 0.1640 0 5
-20.4541 -17.3148 -2.6490 0.0954 0 8
-20.3012 -17.5029 -2.6496 0.0954 0 8
-20.1464 -17.6896 -2.6501 0.0954 0 8
-19.9898 -17.8750 -2.6507 0.0954 0 8
-19.8316 -18.0589 -2.6513 0.0953 0 8
-19.6715 -18.2413 -2.6518 0.0953 0 8
-19.5098 -18.4223 -2.6524 0.0953 0 8
-19.3463 -18.6018 -2.6529 0.0953 0 8
-19.1811 -18.7798 -2.6534 0.0953 0 8
-19.0142 -18.9562 -2.6540 0.0952 0 8
-18.8456 -19.1311 -2.6545 0.0952 0 8
-18.6754 -19.3045 -2.6550 0.0952 0 8
-12.9042 -13.5826 -1.8519 0.9793 0 19
-12.5567 -13.4585 -1.8194 0.6423 0 19
-12.2482 -13.3682 -1.7922 0.4741 0 19
-12.1252 -13.4767 -1.7919 0.4775 0 19
-11.9646 -13.5425 -1.7862 0.6032 0 19
-11.8702 -13.6832 -1.7905 0.9198 0 19
-11.8506 -13.9129 -1.8065 0.5068 0 19
-11.7240 -14.0192 -1.8065 0.9539 0 19
-17.0713 -20.7926 -2.6593 0.0951 0 8
-16.8853 -20.9497 -2.6597 0.0950 0 8
-16.6979 -21.1050 -2.6601 0.0950 0 8
-16.5090 -21.2585 -2.6606 0.0950 0 8
