ply
format ascii 1.0
element vertex 1352
property float32 x
property float32 y
property float32 z
property float32 CosAngle
property uint32 ObjIdx
property uint32 ObjTag
end_header
7.8004 -36.3699 -2.8327 0.0759 0 7
8.1292 -36.2978 -2.8327 0.0759 0 7
8.4574 -36.2227 -2.8327 0.0759 0 7
8.7849 -36.1447 -2.8327 0.0759 0 7
9.1117 -36.0637 -2.8327 0.0759 0 6
9.4377 -35.9798 -2.8327 0.0759 0 7
9.7630 -35.8929 -2.8327 0.0759 0 7
10.0874 -35.8031 -2.8327 0.0759 0 7
10.4111 -35.7103 -2.8327 0.0759 0 7
10.7338 -35.6146 -2.8327 0.0759 0 7
11.0557 -35.5160 -2.8327 0.0759 0 7
11.3767 -35.4145 -2.8327 0.0759 0 7
11.6968 -35.3101 -2.8327 0.0759 0 7
12.0159 -35.2027 -2.8327 0.0759 0 7
12.3340 -35.0925 -2.8327 0.0759 0 7
12.6511 -34.9795 -2.8327 0.0759 0 7
12.9672 -34.8635 -2.8327 0.0759 0 6
13.2822 -34.7448 -2.8327 0.0759 0 7
13.5961 -34.6231 -2.8327 0.0759 0 7
13.9089 -34.4986 -2.8327 0.0759 0 7
14.2206 -34.3714 -2.8327 0.0759 0 6
14.5311 -34.2412 -2.8327 0.0759 0 7
14.8404 -34.1083 -2.8327 0.0759 0 7
15.1485 -33.9726 -2.8327 0.0759 0 7
15.4553 -33.8341 -2.8327 0.0759 0 6
15.7609 -33.6928 -2.8327 0.0759 0 6
16.0652 -33.5488 -2.8327 0.0759 0 6
16.3682 -33.4020 -2.8327 0.0759 0 7
16.6699 -33.2525 -2.8327 0.0759 0 7
16.9701 -33.1003 -2.8327 0.0759 0 6
17.2690 -32.9453 -2.8327 0.0759 0 7
17.5665 -32.7877 -2.8327 0.0759 0 7
17.8625 -32.6274 -2.8327 0.0759 0 7
18.1571 -32.4644 -2.8327 0.0759 0 7
18.4502 -32.2987 -2.8327 0.0759 0 7
18.7417 -32.1304 -2.8327 0.0759 0 7
19.0318 -31.9594 -2.8327 0.0759 0 7
19.3203 -31.7859 -2.8327 0.0759 0 7
19.6072 -31.6097 -2.8327 0.0759 0 7
19.8925 -31.4310 -2.8327 0.0759 0 7
20.1761 -31.2496 -2.8327 0.0759 0 7
20.4581 -31.0657 -2.8327 0.0759 0 7
20.7385 -30.8793 -2.8327 0.0759 0 7
21.0171 -30.6903 -2.8327 0.0759 0 7
21.2940 -30.4989 -2.8327 0.0759 0 7
21.5692 -30.3049 -2.8327 0.0759 0 7
21.8426 -30.1084 -2.8327 0.0759 0 7
22.1142 -29.9095 -2.8327 0.0759 0 7
22.3840 -29.7081 -2.8327 0.0759 0 7
22.6519 -29.5043 -2.8327 0.0759 0 7
22.9180 -29.2981 -2.8327 0.0759 0 7
23.1822 -29.0895 -2.8327 0.0759 0 7
23.4446 -28.8785 -2.8327 0.0759 0 7
23.7050 -28.6651 -2.8327 0.0759 0 7
23.9635 -28.4494 -2.8327 0.0759 0 7
24.2200 -28.2313 -2.8327 0.0759 0 7
24.4745 -28.0110 -2.8327 0.0759 0 7
24.7270 -27.7883 -2.8327 0.0759 0 7
24.9775 -27.5634 -2.8327 0.0759 0 7
25.2260 -27.3362 -2.8327 0.0759 0 7
25.4723 -27.1068 -2.8327 0.0759 0 7
25.7166 -26.8751 -2.8327 0.0759 0 7
25.9588 -26.6412 -2.8327 0.0759 0 7
26.1989 -26.4052 -2.8327 0.0759 0 7
26.4133 -26.1438 -2.8302 0.0875 0 8
26.6152 -25.8710 -2.8266 0.0876 0 8
26.6957 -25.4834 -2.8105 0.7000 0 8
26.6847 -25.0152 -2.7854 0.7063 0 8
26.6739 -24.5553 -2.7610 0.7126 0 8
26.6632 -24.1033 -2.7372 0.7188 0 8
26.6527 -23.6589 -2.7140 0.7249 0 8
26.6423 -23.2220 -2.6914 0.7310 0 8
26.7400 -22.8847 -2.6803 0.0759 0 8
26.9461 -22.6417 -2.6803 0.0759 0 8
27.1499 -22.3969 -2.6803 0.0759 0 8
27.3515 -22.1503 -2.6803 0.0759 0 8
27.5509 -21.9018 -2.6803 0.0759 0 8
27.7480 -21.6515 -2.6803 0.0759 0 8
27.9428 -21.3995 -2.6803 0.0759 0 8
28.1353 -21.1457 -2.6803 0.0759 0 8
28.3256 -20.8902 -2.6803 0.0759 0 8
28.5135 -20.6330 -2.6803 0.0759 0 8
28.6991 -20.3741 -2.6803 0.0759 0 8
28.8823 -20.1135 -2.6803 0.0759 0 8
29.0631 -19.8513 -2.6803 0.0759 0 8
29.2416 -19.5874 -2.6803 0.0759 0 8
29.4177 -19.3220 -2.6803 0.0759 0 8
29.5914 -19.0549 -2.6803 0.0759 0 8
29.7626 -18.7863 -2.6803 0.0759 0 8
29.9314 -18.5162 -2.6803 0.0759 0 8
30.0978 -18.2445 -2.6803 0.0759 0 8
30.2617 -17.9714 -2.6803 0.0759 0 8
30.4231 -17.6968 -2.6803 0.0759 0 8
30.5820 -17.4207 -2.6803 0.0759 0 8
30.7384 -17.1432 -2.6803 0.0759 0 8
30.8923 -16.8643 -2.6803 0.0759 0 8
31.0437 -16.5840 -2.6803 0.0759 0 8
31.1925 -16.3023 -2.6803 0.0759 0 8
31.3388 -16.0194 -2.6803 0.0759 0 8
31.4825 -15.7350 -2.6803 0.0759 0 8
31.6236 -15.4495 -2.6803 0.0759 0 8
31.7622 -15.1626 -2.6803 0.0759 0 8
31.8981 -14.8745 -2.6803 0.0759 0 8
32.0314 -14.5852 -2.6803 0.0759 0 8
32.1621 -14.2947 -2.6803 0.0759 0 8
32.2902 -14.0030 -2.6803 0.0759 0 8
32.4156 -13.7102 -2.6803 0.0759 0 8
32.5383 -13.4162 -2.6803 0.0759 0 8
32.6584 -13.1212 -2.6803 0.0759 0 8
32.7759 -12.8251 -2.6803 0.0759 0 8
32.8906 -12.5279 -2.6803 0.0759 0 8
33.0026 -12.2297 -2.6803 0.0759 0 8
33.1120 -11.9305 -2.6803 0.0759 0 8
33.2186 -11.6304 -2.6803 0.0759 0 8
33.3225 -11.3292 -2.6803 0.0759 0 8
33.4237 -11.0272 -2.6803 0.0759 0 8
33.5221 -10.7242 -2.6803 0.0759 0 8
33.6178 -10.4204 -2.6803 0.0759 0 8
33.7107 -10.1157 -2.6803 0.0759 0 8
33.8009 -9.8102 -2.6803 0.0759 0 8
33.8883 -9.5038 -2.6803 0.0759 0 8
34.3549 -9.3002 -2.7104 0.4133 0 8
35.1351 -9.1709 -2.7653 0.3276 0 8
35.9895 -9.0468 -2.8260 0.0805 0 8
36.1361 -8.7367 -2.8312 0.0803 0 8
36.2329 -8.4137 -2.8327 0.0759 0 7
36.3076 -8.0855 -2.8327 0.0759 0 7
36.3793 -7.7565 -2.8327 0.0759 0 7
36.4480 -7.4269 -2.8327 0.0759 0 7
36.5137 -7.0967 -2.8327 0.0759 0 7
36.5764 -6.7660 -2.8327 0.0759 0 7
36.6362 -6.4347 -2.8327 0.0759 0 7
36.6929 -6.1028 -2.8327 0.0759 0 7
36.7467 -5.7705 -2.8327 0.0759 0 7
36.7974 -5.4376 -2.8327 0.0759 0 7
36.8451 -5.1044 -2.8327 0.0759 0 7
36.8898 -4.7707 -2.8327 0.0759 0 7
36.9314 -4.4366 -2.8327 0.0759 0 7
36.9701 -4.1022 -2.8327 0.0759 0 7
37.0057 -3.7674 -2.8327 0.0759 0 7
37.0383 -3.4323 -2.8327 0.0759 0 7
37.0678 -3.0969 -2.8327 0.0759 0 7
37.0943 -2.7613 -2.8327 0.0759 0 7
37.1178 -2.4255 -2.8327 0.0759 0 7
37.1382 -2.0894 -2.8327 0.0759 0 7
37.1556 -1.7532 -2.8327 0.0759 0 7
37.1700 -1.4169 -2.8327 0.0759 0 7
37.1813 -1.0804 -2.8327 0.0759 0 7
37.1895 -0.7438 -2.8327 0.0759 0 7
37.1947 -0.4072 -2.8327 0.0759 0 7
37.1969 -0.0706 -2.8327 0.0759 0 7
37.1960 0.2661 -2.8327 0.0759 0 6
37.1921 0.6028 -2.8327 0.0759 0 7
37.1851 0.9393 -2.8327 0.0759 0 7
37.1751 1.2758 -2.8327 0.0759 0 7
37.1620 1.6123 -2.8327 0.0759 0 7
37.1459 1.9485 -2.8327 0.0759 0 7
37.1267 2.2847 -2.8327 0.0759 0 7
37.1045 2.6206 -2.8327 0.0759 0 7
37.0793 2.9563 -2.8327 0.0759 0 7
37.0510 3.2918 -2.8327 0.0759 0 7
37.0197 3.6270 -2.8327 0.0759 0 7
36.9854 3.9619 -2.8327 0.0759 0 7
36.9480 4.2965 -2.8327 0.0759 0 7
36.9076 4.6307 -2.8327 0.0759 0 7
36.8642 4.9646 -2.8327 0.0759 0 7
36.8177 5.2980 -2.8327 0.0759 0 7
36.7683 5.6310 -2.8327 0.0759 0 7
36.7158 5.9636 -2.8327 0.0759 0 7
36.6603 6.2956 -2.8327 0.0759 0 7
36.6018 6.6272 -2.8327 0.0759 0 7
36.5404 6.9582 -2.8327 0.0759 0 7
36.4759 7.2886 -2.8327 0.0759 0 7
36.4084 7.6184 -2.8327 0.0759 0 7
36.3380 7.9477 -2.8327 0.0759 0 7
36.2646 8.2762 -2.8327 0.0759 0 7
36.1882 8.6041 -2.8327 0.0759 0 7
36.1088 8.9313 -2.8327 0.0759 0 7
36.0265 9.2577 -2.8327 0.0759 0 7
35.8942 9.5709 -2.8290 0.0798 0 8
35.4393 9.7940 -2.8000 0.2487 0 8
34.1667 9.7760 -2.7063 0.2573 0 8
33.7488 9.9877 -2.6803 0.0759 0 8
33.6571 10.2929 -2.6803 0.0759 0 8
33.5625 10.5971 -2.6803 0.0759 0 8
33.4653 10.9003 -2.6803 0.0759 0 8
33.3652 11.2026 -2.6803 0.0759 0 8
33.2625 11.5043 -2.6803 0.0759 0 8
33.1570 11.8048 -2.6803 0.0759 0 8
33.0488 12.1045 -2.6803 0.0759 0 8
32.9379 12.4031 -2.6803 0.0759 0 8
32.8243 12.7007 -2.6803 0.0759 0 8
32.7080 12.9972 -2.6803 0.0759 0 8
32.5890 13.2927 -2.6803 0.0759 0 8
32.4674 13.5871 -2.6803 0.0759 0 8
32.3431 13.8804 -2.6803 0.0759 0 8
32.2161 14.1726 -2.6803 0.0759 0 8
32.0865 14.4636 -2.6803 0.0759 0 8
27.7059 12.7919 -2.3239 0.8911 0 5
31.8195 15.0420 -2.6803 0.0759 0 8
31.6820 15.3294 -2.6803 0.0759 0 8
31.5420 15.6155 -2.6803 0.0759 0 8
31.3993 15.9003 -2.6803 0.0759 0 8
31.2542 16.1839 -2.6803 0.0759 0 8
31.1064 16.4661 -2.6803 0.0759 0 8
30.9561 16.7470 -2.6803 0.0759 0 8
30.8033 17.0264 -2.6803 0.0759 0 8
30.6479 17.3045 -2.6803 0.0759 0 8
30.4900 17.5812 -2.6803 0.0759 0 8
30.3296 17.8564 -2.6803 0.0759 0 8
30.1668 18.1302 -2.6803 0.0759 0 8
30.0015 18.4025 -2.6803 0.0759 0 8
29.8337 18.6733 -2.6803 0.0759 0 8
29.6634 18.9425 -2.6803 0.0759 0 8
29.4908 19.2103 -2.6803 0.0759 0 8
29.3157 19.4764 -2.6803 0.0759 0 8
29.1382 19.7409 -2.6803 0.0759 0 8
28.9584 20.0038 -2.6803 0.0759 0 8
28.7761 20.2651 -2.6803 0.0759 0 8
28.5915 20.5247 -2.6803 0.0759 0 8
28.4046 20.7826 -2.6803 0.0759 0 8
28.2154 21.0389 -2.6803 0.0759 0 8
28.0238 21.2934 -2.6803 0.0759 0 8
27.8299 21.5461 -2.6803 0.0759 0 8
27.6338 21.7971 -2.6803 0.0759 0 8
27.4354 22.0463 -2.6803 0.0759 0 8
27.2347 22.2937 -2.6803 0.0759 0 8
27.0318 22.5393 -2.6803 0.0759 0 8
26.8267 22.7831 -2.6803 0.0759 0 8
26.6194 23.0249 -2.6803 0.0759 0 8
26.4099 23.2649 -2.6803 0.0759 0 8
26.1983 23.5030 -2.6803 0.0759 0 8
25.9845 23.7391 -2.6803 0.0759 0 8
25.7685 23.9734 -2.6803 0.0759 0 8
25.5505 24.2056 -2.6803 0.0759 0 8
25.3304 24.4359 -2.6803 0.0759 0 8
25.1082 24.6642 -2.6803 0.0759 0 8
25.0303 25.0367 -2.6960 0.7298 0 8
25.0114 25.4749 -2.7187 0.7237 0 8
24.9922 25.9205 -2.7420 0.7175 0 8
24.9727 26.3738 -2.7659 0.7113 0 8
24.9527 26.8351 -2.7905 0.7050 0 8
24.9324 27.3047 -2.8158 0.6987 0 8
24.7854 27.6420 -2.8273 0.0876 0 8
24.5652 27.9005 -2.8309 0.0875 0 8
24.3269 28.1392 -2.8327 0.0759 0 7
24.0712 28.3583 -2.8327 0.0759 0 7
23.8136 28.5750 -2.8327 0.0759 0 7
23.5540 28.7893 -2.8327 0.0759 0 7
23.2924 29.0013 -2.8327 0.0759 0 7
13.0198 16.5149 -1.6015 0.7584 0 9
12.8263 16.5758 -1.5961 0.9274 0 9
12.7272 16.7590 -1.6026 0.6269 0 9
22.2275 29.8254 -2.8327 0.0759 0 7
14.2154 19.4393 -1.8340 0.9619 0 19
21.6839 30.2229 -2.8327 0.0759 0 7
21.4095 30.4179 -2.8327 0.0759 0 7
21.1333 30.6104 -2.8327 0.0759 0 7
14.1454 20.8907 -1.9213 0.8475 0 19
20.5758 30.9879 -2.8327 0.0759 0 7
20.2945 31.1729 -2.8327 0.0759 0 7
14.1908 22.2350 -2.0087 0.9766 0 19
19.7269 31.5351 -2.8327 0.0759 0 7
19.4407 31.7123 -2.8327 0.0759 0 7
14.1336 23.5305 -2.0903 0.3923 0 19
18.8635 32.0590 -2.8327 0.0759 0 7
14.1296 24.5187 -2.1550 0.5252 0 19
11.7012 20.7363 -1.8132 0.5867 0 19
17.9862 32.5594 -2.8327 0.0759 0 7
17.6908 32.7208 -2.8327 0.0759 0 7
11.7334 22.1796 -1.9108 0.6083 0 19
11.5618 22.3421 -1.9157 0.1195 0 19
16.7959 33.1890 -2.8327 0.0759 0 7
11.6646 23.5769 -2.0032 0.6296 0 19
16.1924 33.4876 -2.8327 0.0759 0 7
13.8710 29.3618 -2.4729 0.7570 0 19
11.5233 24.9752 -2.0946 0.9948 0 19
11.5430 25.6249 -2.1403 0.4384 0 19
14.2046 32.3114 -2.6879 0.0759 0 8
13.7915 32.1587 -2.6647 0.7330 0 19
13.6174 32.5632 -2.6879 0.0759 0 14
11.3603 27.8719 -2.2921 0.7210 0 19
13.0257 32.8043 -2.6879 0.0759 0 14
11.3181 29.2736 -2.3901 0.7085 0 19
12.4298 33.0347 -2.6879 0.0759 0 14
12.1303 33.1459 -2.6879 0.0759 0 14
11.3922 32.0243 -2.5885 0.7160 0 19
11.5284 33.3600 -2.6879 0.0759 0 14
11.2260 33.4630 -2.6879 0.0759 0 14
10.9226 33.5632 -2.6879 0.0759 0 8
10.7655 34.1268 -2.7251 0.3398 0 8
10.7206 35.0884 -2.7940 0.3314 0 8
10.5464 35.6705 -2.8327 0.0759 0 7
10.2232 35.7645 -2.8327 0.0759 0 6
9.8991 35.8556 -2.8327 0.0759 0 7
9.5741 35.9437 -2.8327 0.0759 0 7
9.2484 36.0289 -2.8327 0.0759 0 7
8.9220 36.1111 -2.8327 0.0759 0 7
8.5948 36.1904 -2.8327 0.0759 0 7
8.2669 36.2667 -2.8327 0.0759 0 7
7.9383 36.3400 -2.8327 0.0759 0 7
7.6091 36.4104 -2.8327 0.0759 0 7
7.2792 36.4778 -2.8327 0.0759 0 7
6.9488 36.5422 -2.8327 0.0759 0 7
6.6177 36.6036 -2.8327 0.0759 0 7
6.2862 36.6619 -2.8327 0.0759 0 7
5.9541 36.7173 -2.8327 0.0759 0 7
5.6215 36.7697 -2.8327 0.0759 0 7
5.2885 36.8191 -2.8327 0.0759 0 7
4.9551 36.8655 -2.8327 0.0759 0 7
4.6212 36.9088 -2.8327 0.0759 0 7
4.2870 36.9491 -2.8327 0.0759 0 7
3.9524 36.9864 -2.8327 0.0759 0 7
3.6174 37.0207 -2.8327 0.0759 0 7
3.2823 37.0519 -2.8327 0.0759 0 7
2.9468 37.0801 -2.8327 0.0759 0 7
2.6110 37.1052 -2.8327 0.0759 0 7
2.2751 37.1273 -2.8327 0.0759 0 7
1.9390 37.1464 -2.8327 0.0759 0 7
1.6027 37.1624 -2.8327 0.0759 0 7
1.2663 37.1754 -2.8327 0.0759 0 7
0.3644 14.5735 -1.1102 0.9956 0 12
0.2324 14.5694 -1.1096 0.9960 0 12
0.1005 14.5654 -1.1092 0.9964 0 12
-0.0314 14.5613 -1.1089 0.9967 0 12
-0.3944 35.1935 -2.6803 0.0759 0 8
-0.7129 35.1885 -2.6803 0.0759 0 8
-1.0313 35.1806 -2.6803 0.0759 0 8
-1.3497 35.1699 -2.6803 0.0759 0 8
-1.6680 35.1562 -2.6803 0.0759 0 8
-1.9861 35.1397 -2.6803 0.0759 0 8
-2.3040 35.1202 -2.6803 0.0759 0 8
-2.6218 35.0980 -2.6803 0.0759 0 8
-2.9393 35.0728 -2.6803 0.0759 0 8
-3.2567 35.0447 -2.6803 0.0759 0 8
-3.5737 35.0138 -2.6803 0.0759 0 8
-3.8905 34.9801 -2.6803 0.0759 0 8
-4.2069 34.9434 -2.6803 0.0759 0 8
-4.5230 34.9039 -2.6803 0.0759 0 8
-4.8387 34.8615 -2.6803 0.0759 0 8
-5.1540 34.8163 -2.6803 0.0759 0 8
-4.1623 26.4613 -2.0399 0.9893 0 19
-5.7834 34.7173 -2.6803 0.0759 0 8
-6.0974 34.6636 -2.6803 0.0759 0 8
-6.4109 34.6069 -2.6803 0.0759 0 8
-6.7238 34.5475 -2.6803 0.0759 0 8
-7.0362 34.4852 -2.6803 0.0759 0 8
-7.3481 34.4201 -2.6803 0.0759 0 8
-7.6593 34.3522 -2.6803 0.0759 0 8
-7.9699 34.2815 -2.6803 0.0759 0 8
-8.2798 34.2080 -2.6803 0.0759 0 8
-8.5891 34.1316 -2.6803 0.0759 0 8
-8.8977 34.0525 -2.6803 0.0759 0 8
-9.2055 33.9706 -2.6803 0.0759 0 8
-9.5126 33.8859 -2.6803 0.0759 0 8
-9.8189 33.7984 -2.6803 0.0759 0 8
-10.1244 33.7081 -2.6803 0.0759 0 8
-10.4290 33.6151 -2.6803 0.0759 0 8
-10.7328 33.5193 -2.6803 0.0759 0 8
-11.0358 33.4208 -2.6803 0.0759 0 8
-11.3378 33.3196 -2.6803 0.0759 0 8
-11.6389 33.2156 -2.6803 0.0759 0 8
-11.9391 33.1089 -2.6803 0.0759 0 8
-12.2382 32.9995 -2.6803 0.0759 0 8
-12.5364 32.8874 -2.6803 0.0759 0 8
-12.8335 32.7726 -2.6803 0.0759 0 8
-13.1296 32.6551 -2.6803 0.0759 0 8
-13.4246 32.5349 -2.6803 0.0759 0 8
-13.7185 32.4121 -2.6803 0.0759 0 8
-14.0113 32.2866 -2.6803 0.0759 0 8
-14.3030 32.1584 -2.6803 0.0759 0 8
-14.5935 32.0277 -2.6803 0.0759 0 8
-14.8827 31.8943 -2.6803 0.0759 0 8
-15.1708 31.7583 -2.6803 0.0759 0 8
-15.4576 31.6197 -2.6803 0.0759 0 8
-15.7431 31.4785 -2.6803 0.0759 0 8
-16.0274 31.3347 -2.6803 0.0759 0 8
-16.3104 31.1883 -2.6803 0.0759 0 8
-16.5920 31.0394 -2.6803 0.0759 0 8
-8.5523 15.6568 -1.3586 0.4510 0 20
-8.5416 15.3062 -1.3348 0.4590 0 20
-8.5312 14.9677 -1.3120 0.4670 0 20
-8.6432 14.8500 -1.3085 0.8767 0 20
-8.8209 14.8446 -1.3150 0.8724 0 20
-8.9940 14.8287 -1.3207 0.3541 0 20
-9.1664 14.8089 -1.3263 0.7432 0 20
-9.3463 14.7986 -1.3329 0.7395 0 20
-9.5302 14.7915 -1.3400 0.8543 0 20
-9.7170 14.7858 -1.3474 0.8496 0 20
-9.9059 14.7800 -1.3550 0.8449 0 20
-10.0969 14.7741 -1.3627 0.8401 0 20
-7.9656 11.4321 -1.0611 0.7560 0 9
28.6571 0.0000 -2.8327 0.0984 0 7
28.6559 0.2594 -2.8327 0.0984 0 7
28.6524 0.5187 -2.8327 0.0984 0 7
28.6465 0.7780 -2.8327 0.0984 0 7
28.6383 1.0373 -2.8327 0.0984 0 7
28.6277 1.2964 -2.8327 0.0984 0 7
28.6148 1.5555 -2.8327 0.0984 0 7
28.5996 1.8144 -2.8327 0.0984 0 7
28.5820 2.0732 -2.8327 0.0984 0 7
28.5621 2.3318 -2.8327 0.0984 0 7
28.5398 2.5902 -2.8327 0.0984 0 7
28.5152 2.8484 -2.8327 0.0984 0 7
28.4882 3.1064 -2.8327 0.0984 0 7
28.4589 3.3641 -2.8327 0.0984 0 7
28.4273 3.6215 -2.8327 0.0984 0 7
28.3934 3.8786 -2.8327 0.0984 0 7
28.3571 4.1355 -2.8327 0.0984 0 7
28.3185 4.3919 -2.8327 0.0984 0 7
28.2776 4.6481 -2.8327 0.0984 0 7
28.2344 4.9038 -2.8327 0.0984 0 7
28.1889 5.1591 -2.8327 0.0984 0 7
28.1410 5.4141 -2.8327 0.0984 0 7
28.0909 5.6685 -2.8327 0.0984 0 7
28.0384 5.9226 -2.8327 0.0984 0 7
27.9837 6.1761 -2.8327 0.0984 0 7
27.9266 6.4291 -2.8327 0.0984 0 7
27.8673 6.6816 -2.8327 0.0984 0 7
27.8057 6.9335 -2.8327 0.0984 0 7
27.7418 7.1849 -2.8327 0.0984 0 7
27.6756 7.4357 -2.8327 0.0984 0 7
27.6072 7.6859 -2.8327 0.0984 0 7
27.5365 7.9354 -2.8327 0.0984 0 7
27.4635 8.1843 -2.8327 0.0984 0 7
27.3883 8.4326 -2.8327 0.0984 0 7
27.3109 8.6801 -2.8327 0.0984 0 7
27.2312 8.9269 -2.8327 0.0984 0 6
27.1493 9.1730 -2.8327 0.0984 0 7
27.0652 9.4184 -2.8327 0.0984 0 7
26.9788 9.6629 -2.8327 0.0984 0 7
26.8902 9.9067 -2.8327 0.0984 0 7
26.7995 10.1497 -2.8327 0.0984 0 7
26.7065 10.3918 -2.8327 0.0984 0 7
26.6114 10.6331 -2.8327 0.0984 0 7
26.5141 10.8735 -2.8327 0.0984 0 7
26.4145 11.1131 -2.8327 0.0984 0 7
26.3129 11.3517 -2.8327 0.0984 0 7
26.2091 11.5894 -2.8327 0.0984 0 7
26.1031 11.8261 -2.8327 0.0984 0 7
25.9950 12.0619 -2.8327 0.0984 0 7
25.8848 12.2966 -2.8327 0.0984 0 7
25.7724 12.5304 -2.8327 0.0984 0 7
25.6580 12.7632 -2.8327 0.0984 0 7
25.5414 12.9949 -2.8327 0.0984 0 7
25.4227 13.2255 -2.8327 0.0984 0 7
25.3020 13.4550 -2.8327 0.0984 0 7
25.1792 13.6835 -2.8327 0.0984 0 7
25.0543 13.9108 -2.8327 0.0984 0 7
24.9274 14.1370 -2.8327 0.0984 0 7
24.7984 14.3620 -2.8327 0.0984 0 7
24.6674 14.5859 -2.8327 0.0984 0 7
24.5344 14.8086 -2.8327 0.0984 0 7
24.3993 15.0300 -2.8327 0.0984 0 7
24.2623 15.2502 -2.8327 0.0984 0 7
24.1233 15.4692 -2.8327 0.0984 0 7
23.9823 15.6869 -2.8327 0.0984 0 7
23.8393 15.9033 -2.8327 0.0984 0 7
23.6944 16.1184 -2.8327 0.0984 0 7
23.5475 16.3322 -2.8327 0.0984 0 7
23.3988 16.5447 -2.8327 0.0984 0 7
23.2480 16.7558 -2.8327 0.0984 0 7
23.0955 16.9655 -2.8327 0.0984 0 7
22.9410 17.1738 -2.8327 0.0984 0 7
22.7846 17.3808 -2.8327 0.0984 0 7
22.6264 17.5863 -2.8327 0.0984 0 7
22.4663 17.7903 -2.8327 0.0984 0 7
22.3043 17.9929 -2.8327 0.0984 0 6
22.1406 18.1941 -2.8327 0.0984 0 7
21.9750 18.3937 -2.8327 0.0984 0 7
21.8076 18.5918 -2.8327 0.0984 0 7
21.6385 18.7884 -2.8327 0.0984 0 7
21.4675 18.9835 -2.8327 0.0984 0 7
21.2948 19.1770 -2.8327 0.0984 0 7
21.1204 19.3690 -2.8327 0.0984 0 7
20.9442 19.5594 -2.8327 0.0984 0 7
20.7663 19.7481 -2.8327 0.0984 0 7
20.5867 19.9353 -2.8327 0.0984 0 7
20.4055 20.1208 -2.8327 0.0984 0 7
20.2225 20.3046 -2.8327 0.0984 0 7
20.0379 20.4868 -2.8327 0.0984 0 7
19.8517 20.6673 -2.8327 0.0984 0 7
19.6638 20.8462 -2.8327 0.0984 0 7
19.4743 21.0233 -2.8327 0.0984 0 7
19.2833 21.1987 -2.8327 0.0984 0 7
19.0906 21.3723 -2.8327 0.0984 0 7
18.8964 21.5442 -2.8327 0.0984 0 7
14.3105 16.6167 -2.1677 0.9361 0 19
18.5033 21.8828 -2.8327 0.0984 0 7
14.3604 17.2983 -2.2223 0.6598 0 19
18.1042 22.2141 -2.8327 0.0984 0 7
17.9024 22.3770 -2.8327 0.0984 0 7
13.0273 16.5890 -2.0850 0.6970 0 9
12.8123 16.6228 -2.0745 0.9827 0 9
12.7128 16.8061 -2.0830 0.7821 0 9
12.7804 17.2172 -2.1195 0.2443 0 9
14.1898 19.4818 -2.3824 0.8633 0 19
11.8065 16.5218 -2.0072 0.9626 0 19
11.8229 16.8655 -2.0359 0.5970 0 19
16.2367 23.6135 -2.8327 0.0984 0 7
14.1321 20.9565 -2.4984 0.2331 0 19
11.7920 17.8325 -2.1132 0.5751 0 19
11.6772 18.0111 -2.1218 0.8355 0 19
11.7701 18.5194 -2.1690 0.5603 0 19
11.7587 18.8767 -2.1983 0.5529 0 19
11.8186 19.3613 -2.2422 0.5576 0 19
11.6245 19.4366 -2.2386 0.8154 0 19
13.7455 23.4625 -2.6879 0.0984 0 14
13.5326 23.5859 -2.6879 0.0984 0 14
11.6578 20.7512 -2.3527 0.9843 0 19
13.1034 23.8270 -2.6879 0.0984 0 14
12.8872 23.9446 -2.6879 0.0984 0 14
11.6626 22.1473 -2.4742 0.6086 0 19
12.4517 24.1740 -2.6879 0.0984 0 14
12.2324 24.2857 -2.6879 0.0984 0 14
11.5986 23.5556 -2.5954 0.9908 0 19
11.7908 24.5031 -2.6879 0.0984 0 14
11.5685 24.6088 -2.6879 0.0984 0 14
11.3453 24.7126 -2.6879 0.0984 0 14
11.1212 24.8142 -2.6879 0.0984 0 8
11.0599 25.2884 -2.7283 0.4397 0 8
11.0315 25.8584 -2.7789 0.4317 0 8
11.0020 26.4500 -2.8317 0.4237 0 8
10.7660 26.5579 -2.8327 0.0984 0 7
10.5252 26.6542 -2.8327 0.0984 0 6
10.2835 26.7484 -2.8327 0.0984 0 7
10.0410 26.8404 -2.8327 0.0984 0 7
9.7977 26.9302 -2.8327 0.0984 0 7
9.5535 27.0177 -2.8327 0.0984 0 7
9.3086 27.1031 -2.8327 0.0984 0 7
9.0629 27.1862 -2.8327 0.0984 0 7
8.8165 27.2672 -2.8327 0.0984 0 7
8.5694 27.3458 -2.8327 0.0984 0 7
8.3215 27.4223 -2.8327 0.0984 0 7
8.0730 27.4965 -2.8327 0.0984 0 7
7.8238 27.5684 -2.8327 0.0984 0 7
7.5740 27.6381 -2.8327 0.0984 0 7
7.3235 27.7055 -2.8327 0.0984 0 7
7.0725 27.7707 -2.8327 0.0984 0 7
6.8208 27.8335 -2.8327 0.0984 0 7
6.5686 27.8941 -2.8327 0.0984 0 7
6.3159 27.9524 -2.8327 0.0984 0 7
6.0627 28.0084 -2.8327 0.0984 0 7
5.8089 28.0622 -2.8327 0.0984 0 7
5.5548 28.1136 -2.8327 0.0984 0 7
5.3000 28.1627 -2.8327 0.0984 0 7
5.0449 28.2095 -2.8327 0.0984 0 7
4.7894 28.2540 -2.8327 0.0984 0 7
4.5335 28.2962 -2.8327 0.0984 0 7
4.2772 28.3361 -2.8327 0.0984 0 7
4.0205 28.3737 -2.8327 0.0984 0 7
3.7636 28.4089 -2.8327 0.0984 0 7
3.5063 28.4418 -2.8327 0.0984 0 7
3.2487 28.4723 -2.8327 0.0984 0 7
2.9909 28.5006 -2.8327 0.0984 0 7
2.7328 28.5265 -2.8327 0.0984 0 7
2.4745 28.5501 -2.8327 0.0984 0 7
2.2160 28.5713 -2.8327 0.0984 0 7
1.9573 28.5902 -2.8327 0.0984 0 7
1.6985 28.6067 -2.8327 0.0984 0 7
1.4395 28.6209 -2.8327 0.0984 0 7
1.1804 28.6328 -2.8327 0.0984 0 7
0.9212 28.6420 -2.8326 0.0972 0 8
0.6609 28.6043 -2.8282 0.0974 0 8
0.3810 27.1126 -2.6803 0.0984 0 8
0.1356 27.1150 -2.6803 0.0984 0 8
-0.1098 27.1151 -2.6803 0.0984 0 8
-0.3553 27.1130 -2.6803 0.0984 0 8
-0.6006 27.1087 -2.6803 0.0984 0 8
-0.8460 27.1021 -2.6803 0.0984 0 8
-1.0912 27.0933 -2.6803 0.0984 0 8
-1.3364 27.0824 -2.6803 0.0984 0 8
-1.5815 27.0691 -2.6803 0.0984 0 8
-1.8264 27.0537 -2.6803 0.0984 0 8
-2.0712 27.0361 -2.6803 0.0984 0 8
-2.3158 27.0162 -2.6803 0.0984 0 8
-2.5602 26.9942 -2.6803 0.0984 0 8
-2.8044 26.9699 -2.6803 0.0984 0 8
-3.0484 26.9434 -2.6803 0.0984 0 8
-3.2921 26.9147 -2.6803 0.0984 0 8
-3.5356 26.8838 -2.6803 0.0984 0 8
-3.7788 26.8507 -2.6803 0.0984 0 8
-4.0216 26.8154 -2.6803 0.0984 0 8
-4.2153 26.4712 -2.6496 0.9871 0 19
-4.5063 26.7382 -2.6803 0.0984 0 8
-4.7482 26.6963 -2.6803 0.0984 0 8
-4.9896 26.6523 -2.6803 0.0984 0 8
-5.2306 26.6060 -2.6803 0.0984 0 8
-3.4505 16.7492 -1.6904 0.9804 0 20
-5.7113 26.5070 -2.6803 0.0984 0 8
-5.9510 26.4542 -2.6803 0.0984 0 8
-6.1902 26.3993 -2.6803 0.0984 0 8
-6.4289 26.3422 -2.6803 0.0984 0 8
-6.6670 26.2829 -2.6803 0.0984 0 8
-6.9046 26.2215 -2.6803 0.0984 0 8
-7.1417 26.1579 -2.6803 0.0984 0 8
-7.3781 26.0922 -2.6803 0.0984 0 8
-7.6140 26.0244 -2.6803 0.0984 0 8
-7.8492 25.9544 -2.6803 0.0984 0 8
-8.0838 25.8823 -2.6803 0.0984 0 8
-8.3177 25.8081 -2.6803 0.0984 0 8
-8.5510 25.7317 -2.6803 0.0984 0 8
-8.7835 25.6533 -2.6803 0.0984 0 8
-9.0153 25.5727 -2.6803 0.0984 0 8
-9.2464 25.4901 -2.6803 0.0984 0 8
-9.4767 25.4054 -2.6803 0.0984 0 8
-9.7063 25.3185 -2.6803 0.0984 0 8
-9.9350 25.2296 -2.6803 0.0984 0 8
-10.1630 25.1387 -2.6803 0.0984 0 8
-10.3901 25.0457 -2.6803 0.0984 0 8
-10.6163 24.9506 -2.6803 0.0984 0 8
-10.8417 24.8535 -2.6803 0.0984 0 8
-11.0662 24.7544 -2.6803 0.0984 0 8
-11.2898 24.6532 -2.6803 0.0984 0 8
-11.5125 24.5500 -2.6803 0.0984 0 8
-11.7342 24.4448 -2.6803 0.0984 0 8
-11.9549 24.3376 -2.6803 0.0984 0 8
-12.1748 24.2284 -2.6803 0.0984 0 8
-12.3935 24.1172 -2.6803 0.0984 0 8
-12.6113 24.0041 -2.6803 0.0984 0 8
-12.8280 23.8889 -2.6803 0.0984 0 8
-8.5501 15.5823 -1.7569 0.4518 0 20
-8.5394 15.2343 -1.7263 0.4598 0 20
-8.5291 14.8982 -1.6969 0.4678 0 20
-8.6623 14.8181 -1.6966 0.8741 0 20
-8.8399 14.8126 -1.7051 0.8697 0 20
-9.0194 14.8071 -1.7138 0.8653 0 20
-9.2007 14.8016 -1.7227 0.8608 0 20
-9.3839 14.7960 -1.7319 0.8563 0 20
-9.5691 14.7903 -1.7413 0.8517 0 20
-9.7564 14.7846 -1.7509 0.8470 0 20
-9.9457 14.7788 -1.7608 0.8422 0 20
-10.1372 14.7729 -1.7710 0.8374 0 20
-7.9830 11.4108 -1.3765 0.6919 0 9
-8.0371 11.2695 -1.3682 0.9823 0 9
-8.1314 11.1863 -1.3670 0.9831 0 9
-8.2889 11.1886 -1.3764 0.7137 0 9
-11.2715 14.9302 -1.8491 0.8122 0 20
-11.4802 14.9238 -1.8611 0.8070 0 20
-11.6917 14.9173 -1.8735 0.8017 0 20
-11.9060 14.9108 -1.8861 0.7963 0 20
-12.1232 14.9041 -1.8991 0.7909 0 20
-12.3434 14.8974 -1.9124 0.7854 0 20
-12.5667 14.8906 -1.9260 0.7798 0 20
-12.7933 14.8836 -1.9400 0.7742 0 20
-13.1531 15.0250 -1.9739 0.6323 0 20
-13.7225 15.3920 -2.0383 0.7409 0 20
-13.9565 15.3720 -2.0523 0.7289 0 20
-14.5472 15.7341 -2.1181 0.7711 0 20
-18.5872 19.7423 -2.6803 0.0984 0 8
-15.1456 15.7979 -2.1633 0.6444 0 20
-15.1292 15.4975 -2.1408 0.6543 0 20
-15.2496 15.3405 -2.1381 0.8100 0 20
-15.5322 15.3446 -2.1582 0.9112 0 20
-15.7806 15.3102 -2.1733 0.7145 0 20
-16.0601 15.3017 -2.1927 0.7082 0 20
-19.7999 18.5258 -2.6803 0.0984 0 8
-19.9667 18.3459 -2.6803 0.0984 0 8
-20.1319 18.1644 -2.6803 0.0984 0 8
-20.2955 17.9815 -2.6803 0.0984 0 8
-20.4574 17.7970 -2.6803 0.0984 0 8
-19.3042 16.4892 -2.5095 0.7366 0 19
-19.5048 16.3575 -2.5162 0.6625 0 19
-19.8542 16.3468 -2.5421 0.6557 0 19
-20.2392 16.3587 -2.5724 0.6489 0 19
-20.6247 16.3639 -2.6024 0.7603 0 19
-20.9769 16.3362 -2.6281 0.6352 0 19
-21.3579 16.3245 -2.6572 0.6282 0 19
-21.6913 16.2704 -2.6803 0.0984 0 8
-21.8377 16.0734 -2.6803 0.0984 0 8
-21.9823 15.8751 -2.6803 0.0984 0 8
-22.1250 15.6755 -2.6803 0.0984 0 8
-13.2300 9.1947 -1.5926 0.8539 0 5
-22.4052 15.2725 -2.6803 0.0984 0 8
-22.5425 15.0691 -2.6803 0.0984 0 8
-17.6611 11.5761 -2.0873 0.3620 0 9
-17.5787 11.2960 -2.0654 0.7584 0 9
-17.6358 11.1085 -2.0602 0.9855 0 9
-17.8784 11.0365 -2.0768 0.7214 0 9
-23.2011 14.0339 -2.6803 0.0984 0 8
-23.3271 13.8233 -2.6803 0.0984 0 8
-23.4513 13.6116 -2.6803 0.0984 0 8
-23.5735 13.3988 -2.6803 0.0984 0 8
-23.6938 13.1849 -2.6803 0.0984 0 8
-23.8122 12.9699 -2.6803 0.0984 0 8
-23.9286 12.7539 -2.6803 0.0984 0 8
-24.0431 12.5368 -2.6803 0.0984 0 8
-24.1556 12.3186 -2.6803 0.0984 0 8
-24.2660 12.0995 -2.6803 0.0984 0 8
-24.3746 11.8794 -2.6803 0.0984 0 8
-24.4811 11.6583 -2.6803 0.0984 0 8
-24.5856 11.4363 -2.6803 0.0984 0 8
-24.6881 11.2133 -2.6803 0.0984 0 8
-24.7886 10.9894 -2.6803 0.0984 0 8
-24.8951 10.7680 -2.6811 0.2679 0 8
-26.4040 11.1381 -2.8327 0.0984 0 7
-26.5037 10.8987 -2.8327 0.0984 0 7
-26.6013 10.6583 -2.8327 0.0984 0 7
-26.6967 10.4171 -2.8327 0.0984 0 7
-26.7899 10.1751 -2.8327 0.0984 0 7
-26.8808 9.9322 -2.8327 0.0984 0 7
-26.9696 9.6885 -2.8327 0.0984 0 7
-27.0562 9.4440 -2.8327 0.0984 0 7
-27.1406 9.1988 -2.8327 0.0984 0 7
-27.2227 8.9527 -2.8327 0.0984 0 7
-27.3026 8.7060 -2.8327 0.0984 0 6
-27.3803 8.4585 -2.8327 0.0984 0 7
-27.4558 8.2104 -2.8327 0.0984 0 7
-27.5289 7.9615 -2.8327 0.0984 0 7
-27.5999 7.7121 -2.8327 0.0984 0 7
-27.6685 7.4619 -2.8327 0.0984 0 7
-27.7349 7.2112 -2.8327 0.0984 0 7
-27.7991 6.9599 -2.8327 0.0984 0 7
-27.8609 6.7080 -2.8327 0.0984 0 7
-27.9205 6.4556 -2.8327 0.0984 0 7
-27.9778 6.2026 -2.8327 0.0984 0 7
-28.0328 5.9492 -2.8327 0.0984 0 7
-28.0855 5.6952 -2.8327 0.0984 0 7
-28.1359 5.4408 -2.8327 0.0984 0 7
-28.1840 5.1859 -2.8327 0.0984 0 7
-28.2297 4.9306 -2.8327 0.0984 0 7
-28.2732 4.6749 -2.8327 0.0984 0 7
-28.3144 4.4188 -2.8327 0.0984 0 7
-28.3532 4.1623 -2.8327 0.0984 0 7
-28.3897 3.9056 -2.8327 0.0984 0 7
-28.4239 3.6485 -2.8327 0.0984 0 7
-28.4557 3.3910 -2.8327 0.0984 0 7
-28.4853 3.1334 -2.8327 0.0984 0 7
-28.5125 2.8754 -2.8327 0.0984 0 7
-28.5373 2.6172 -2.8327 0.0984 0 7
-28.5598 2.3589 -2.8327 0.0984 0 7
-28.5800 2.1003 -2.8327 0.0984 0 6
-28.5979 1.8415 -2.8327 0.0984 0 7
-28.6133 1.5826 -2.8327 0.0984 0 7
-28.6265 1.3236 -2.8327 0.0984 0 7
-28.6373 1.0644 -2.8327 0.0984 0 7
-28.6458 0.8052 -2.8327 0.0984 0 7
-28.6519 0.5459 -2.8327 0.0984 0 7
-28.6557 0.2865 -2.8327 0.0984 0 7
-28.6571 0.0272 -2.8327 0.0984 0 7
-28.6561 -0.2322 -2.8327 0.0984 0 7
-28.6529 -0.4915 -2.8327 0.0984 0 7
-28.6473 -0.7508 -2.8327 0.0984 0 7
-28.6393 -1.0101 -2.8327 0.0984 0 7
-28.6290 -1.2692 -2.8327 0.0984 0 6
-28.6163 -1.5283 -2.8327 0.0984 0 6
-28.6013 -1.7872 -2.8327 0.0984 0 7
-28.5840 -2.0460 -2.8327 0.0984 0 7
-28.5643 -2.3046 -2.8327 0.0984 0 7
-28.5422 -2.5631 -2.8327 0.0984 0 7
-28.5179 -2.8213 -2.8327 0.0984 0 7
-28.4912 -3.0793 -2.8327 0.0984 0 7
-28.4621 -3.3370 -2.8327 0.0984 0 7
-28.4308 -3.5945 -2.8327 0.0984 0 7
-28.3971 -3.8517 -2.8327 0.0984 0 7
-28.3610 -4.1085 -2.8327 0.0984 0 7
-28.3227 -4.3651 -2.8327 0.0984 0 7
-28.2820 -4.6212 -2.8327 0.0984 0 7
-28.2390 -4.8770 -2.8327 0.0984 0 6
-28.1937 -5.1324 -2.8327 0.0984 0 7
-28.1461 -5.3874 -2.8327 0.0984 0 7
-28.0962 -5.6419 -2.8327 0.0984 0 7
-28.0440 -5.8959 -2.8327 0.0984 0 7
-27.9895 -6.1495 -2.8327 0.0984 0 7
-27.9327 -6.4026 -2.8327 0.0984 0 7
-27.8736 -6.6551 -2.8327 0.0984 0 7
-27.8122 -6.9071 -2.8327 0.0984 0 7
-27.7486 -7.1586 -2.8327 0.0984 0 7
-27.6826 -7.4094 -2.8327 0.0984 0 7
-27.6144 -7.6597 -2.8327 0.0984 0 7
-27.5440 -7.9093 -2.8327 0.0984 0 7
-27.4713 -8.1583 -2.8327 0.0984 0 7
-27.3963 -8.4066 -2.8327 0.0984 0 6
-27.3191 -8.6542 -2.8327 0.0984 0 7
-27.2397 -8.9011 -2.8327 0.0984 0 7
-27.1580 -9.1472 -2.8327 0.0984 0 7
-27.0741 -9.3927 -2.8327 0.0984 0 7
-26.9880 -9.6373 -2.8327 0.0984 0 7
-26.8996 -9.8812 -2.8327 0.0984 0 7
-26.8091 -10.1242 -2.8327 0.0984 0 7
-26.7164 -10.3665 -2.8327 0.0984 0 7
-26.5890 -10.5949 -2.8292 0.1042 0 8
-26.4557 -10.8203 -2.8253 0.1043 0 8
-25.8100 -10.8299 -2.7667 0.3713 0 8
-25.1525 -10.8228 -2.7066 0.3796 0 8
-24.8094 -10.9423 -2.6803 0.0984 0 8
-24.7094 -11.1664 -2.6803 0.0984 0 8
-24.6073 -11.3896 -2.6803 0.0984 0 8
-24.5032 -11.6118 -2.6803 0.0984 0 8
-24.3971 -11.8331 -2.6803 0.0984 0 8
-24.2890 -12.0534 -2.6803 0.0984 0 8
-24.1789 -12.2728 -2.6803 0.0984 0 8
-24.0668 -12.4911 -2.6803 0.0984 0 8
-23.9528 -12.7084 -2.6803 0.0984 0 8
-23.8368 -12.9247 -2.6803 0.0984 0 8
-23.7188 -13.1399 -2.6803 0.0984 0 8
-23.5989 -13.3540 -2.6803 0.0984 0 8
-23.2481 -13.4348 -2.6541 0.4743 0 1
-22.7468 -13.4211 -2.6106 0.4822 0 1
-22.2615 -13.4079 -2.5688 0.4900 0 1
-21.7915 -13.3951 -2.5284 0.4979 0 1
-21.3361 -13.3827 -2.4895 0.5056 0 1
-20.8943 -13.3707 -2.4520 0.5134 0 1
-20.4657 -13.3590 -2.4158 0.5211 0 1
-20.0495 -13.3477 -2.3808 0.5287 0 1
-19.6452 -13.3367 -2.3471 0.5363 0 1
-19.2522 -13.3260 -2.3144 0.5439 0 1
-18.8698 -13.3155 -2.2829 0.5514 0 1
-18.4978 -13.3054 -2.2523 0.5589 0 1
-18.1356 -13.2956 -2.2228 0.5663 0 1
-17.7826 -13.2859 -2.1942 0.5737 0 1
-17.4387 -13.2766 -2.1665 0.5810 0 1
-17.1531 -13.3061 -2.1459 0.0984 0 1
-17.0320 -13.4608 -2.1459 0.0984 0 1
-17.0265 -13.7087 -2.1607 0.2942 0 9
-16.7630 -13.7484 -2.1430 0.6281 0 9
-16.7739 -14.0132 -2.1605 0.2958 0 9
-16.2846 -13.8566 -2.1135 0.1365 0 9
-15.9744 -13.8438 -2.0895 0.4244 0 9
-15.7594 -13.9093 -2.0777 0.4367 0 9
-15.3406 -13.7887 -2.0389 0.2901 0 9
-14.7623 -13.5124 -1.9782 0.6562 0 9
-14.6979 -13.7000 -1.9861 0.6536 0 9
-14.4731 -13.7373 -1.9724 0.6798 0 9
-14.1373 -13.6639 -1.9435 0.5995 0 9
-13.8517 -13.6326 -1.9211 0.2110 0 9
-13.5253 -13.5545 -1.8928 0.4369 0 9
-13.2863 -13.5582 -1.8764 0.4306 0 9
-13.0458 -13.5561 -1.8597 0.4239 0 9
-12.7610 -13.5026 -1.8364 0.4086 0 9
-12.5857 -13.5609 -1.8288 0.4103 0 9
-12.3137 -13.5111 -1.8070 0.6658 0 9
-12.0047 -13.4139 -1.7794 0.6621 0 9
-11.7591 -13.3812 -1.7608 0.4521 0 9
-11.6172 -13.4635 -1.7578 0.4529 0 9
-11.4623 -13.5297 -1.7528 0.5987 0 9
-11.3538 -13.6503 -1.7550 0.5944 0 9
-11.0841 -13.5740 -1.7323 0.3327 0 9
-10.8696 -13.5600 -1.7178 0.5469 0 9
-10.6185 -13.4953 -1.6974 0.5574 0 9
-10.4434 -13.5229 -1.6889 0.4338 0 9
-10.2580 -13.5343 -1.6787 0.2843 0 9
-10.0522 -13.5150 -1.6649 0.5854 0 9
-9.8252 -13.4626 -1.6474 0.3539 0 9
-9.6924 -13.5363 -1.6457 0.4839 0 9
-9.3500 -13.3110 -1.6079 0.5796 0 9
-9.3176 -13.5234 -1.6233 0.4897 0 9
-9.0291 -13.3619 -1.5941 0.5687 0 9
-9.0051 -13.5900 -1.6115 0.5906 0 9
-8.7931 -13.5345 -1.5954 0.4098 0 9
-8.7132 -13.6809 -1.6033 0.7670 0 9
-8.5099 -13.6325 -1.5885 0.6069 0 9
-6.7014 -10.9548 -1.2694 0.8226 0 5
-8.1206 -13.5488 -1.5614 0.5294 0 9
-8.0090 -13.6411 -1.5636 0.3020 0 9
-7.8325 -13.6214 -1.5532 0.5115 0 9
-7.6778 -13.6364 -1.5469 0.6890 0 9
-7.5684 -13.7313 -1.5498 0.6710 0 9
-7.4435 -13.7987 -1.5497 0.3963 0 9
-7.2782 -13.7896 -1.5413 0.7251 0 9
-7.1893 -13.9249 -1.5491 0.9908 0 9
-7.0392 -13.9423 -1.5438 0.4438 0 9
-6.8640 -13.9067 -1.5330 0.5080 0 9
-6.7245 -13.9406 -1.5299 0.4065 0 9
-6.6476 -14.1062 -1.5414 0.9490 0 9
-6.4520 -14.0188 -1.5254 0.3914 0 9
-6.3454 -14.1223 -1.5304 0.0622 0 9
-6.1487 -14.0227 -1.5135 0.2965 0 9
-6.0775 -14.2086 -1.5276 0.6889 0 9
-5.8850 -14.1103 -1.5112 0.1414 0 9
-5.8031 -14.2763 -1.5233 0.8305 0 9
-5.6778 -14.3387 -1.5244 0.0858 0 9
-5.5391 -14.3669 -1.5220 0.4329 0 9
-5.3747 -14.3255 -1.5124 0.4350 0 9
-5.2858 -14.4858 -1.5242 0.8806 0 9
-5.0922 -14.3574 -1.5058 0.6450 0 9
-4.9913 -14.4880 -1.5147 0.8960 0 9
-4.8695 -14.5610 -1.5177 0.8943 0 9
-4.7177 -14.5435 -1.5113 0.4958 0 9
-4.6025 -14.6383 -1.5168 0.5136 0 9
-4.4503 -14.6155 -1.5102 0.4727 0 9
-4.3647 -14.8142 -1.5266 0.9778 0 9
-4.2278 -14.8436 -1.5256 0.9785 0 9
-4.0761 -14.8189 -1.5192 0.8243 0 9
-3.9497 -14.8849 -1.5222 0.8634 0 9
-3.8273 -14.9688 -1.5272 0.9772 0 9
-3.7479 -15.2315 -1.5505 0.6703 0 9
-3.6643 -15.4949 -1.5739 0.6095 0 9
-3.5447 -15.6190 -1.5832 0.4578 0 9
-3.4176 -15.7167 -1.5898 0.2836 0 9
-3.3010 -15.8710 -1.6024 0.5364 0 9
-3.1847 -16.0384 -1.6163 0.6788 0 9
-3.0726 -16.2423 -1.6340 0.6576 0 9
-2.9586 -16.4533 -1.6524 0.4804 0 9
-2.8106 -16.4854 -1.6530 0.6388 0 9
-2.7038 -16.7740 -1.6795 0.6319 0 9
-2.5900 -17.0488 -1.7046 0.6107 0 9
-2.4378 -17.0872 -1.7061 0.7919 0 9
-2.3057 -17.2783 -1.7230 0.9958 0 9
-2.1685 -17.4535 -1.7385 0.6066 0 9
-2.0353 -17.6882 -1.7600 0.4426 0 9
-1.9169 -18.1011 -1.7992 0.8694 0 9
-1.7678 -18.2705 -1.8144 0.6578 0 9
-1.6081 -18.3514 -1.8209 0.6053 0 9
-1.5060 -19.1812 -1.9018 0.5972 0 9
-1.4021 -20.1986 -2.0014 0.8971 0 9
-1.3073 -21.6697 -2.1459 0.0984 0 1
-1.1111 -21.6806 -2.1459 0.0984 0 1
-0.9949 -23.5887 -2.3337 0.0686 0 1
-0.8974 -27.1004 -2.6803 0.0984 0 8
-0.6521 -27.1075 -2.6803 0.0984 0 8
-0.4067 -27.1123 -2.6803 0.0984 0 8
-0.1613 -27.1148 -2.6803 0.0984 0 8
0.0841 -27.1152 -2.6803 0.0984 0 8
0.3295 -27.1133 -2.6803 0.0984 0 8
0.5749 -27.1092 -2.6803 0.0984 0 8
0.8202 -27.1029 -2.6803 0.0984 0 8
1.0655 -27.0944 -2.6803 0.0984 0 8
1.3107 -27.0836 -2.6803 0.0984 0 8
1.5558 -27.0706 -2.6803 0.0984 0 8
1.8007 -27.0554 -2.6803 0.0984 0 8
1.4745 -19.4900 -1.9320 0.9018 0 5
2.2901 -27.0184 -2.6803 0.0984 0 8
2.6762 -28.5052 -2.8300 0.0973 0 8
2.9368 -28.5062 -2.8327 0.0984 0 7
3.1947 -28.4785 -2.8327 0.0984 0 7
3.4523 -28.4484 -2.8327 0.0984 0 7
3.7097 -28.4160 -2.8327 0.0984 0 7
3.9667 -28.3812 -2.8327 0.0984 0 7
4.2234 -28.3442 -2.8327 0.0984 0 7
4.4798 -28.3048 -2.8327 0.0984 0 7
4.7358 -28.2631 -2.8327 0.0984 0 7
4.9914 -28.2190 -2.8327 0.0984 0 7
5.2466 -28.1727 -2.8327 0.0984 0 7
5.5013 -28.1241 -2.8327 0.0984 0 7
5.7557 -28.0731 -2.8327 0.0984 0 7
6.0095 -28.0199 -2.8327 0.0984 0 7
6.2629 -27.9644 -2.8327 0.0984 0 7
6.5157 -27.9065 -2.8327 0.0984 0 7
6.7680 -27.8464 -2.8327 0.0984 0 7
7.0198 -27.7840 -2.8327 0.0984 0 7
7.2710 -27.7193 -2.8327 0.0984 0 7
7.5215 -27.6524 -2.8327 0.0984 0 7
7.7715 -27.5832 -2.8327 0.0984 0 7
8.0208 -27.5117 -2.8327 0.0984 0 7
8.2695 -27.4380 -2.8327 0.0984 0 7
8.5175 -27.3620 -2.8327 0.0984 0 7
8.7648 -27.2838 -2.8327 0.0984 0 7
9.0114 -27.2034 -2.8327 0.0984 0 7
9.2572 -27.1207 -2.8327 0.0984 0 7
9.5023 -27.0358 -2.8327 0.0984 0 7
9.7466 -26.9487 -2.8327 0.0984 0 7
9.9901 -26.8594 -2.8327 0.0984 0 7
10.2328 -26.7679 -2.8327 0.0984 0 7
10.4746 -26.6742 -2.8327 0.0984 0 7
10.7156 -26.5783 -2.8327 0.0984 0 7
10.9557 -26.4802 -2.8327 0.0984 0 7
11.1950 -26.3800 -2.8327 0.0984 0 7
11.4332 -26.2775 -2.8327 0.0984 0 7
11.6706 -26.1730 -2.8327 0.0984 0 7
11.9070 -26.0663 -2.8327 0.0984 0 7
12.1425 -25.9575 -2.8327 0.0984 0 7
12.3769 -25.8465 -2.8327 0.0984 0 7
12.6103 -25.7334 -2.8327 0.0984 0 7
12.7375 -25.4083 -2.8094 0.4270 0 8
12.7276 -24.8253 -2.7576 0.4350 0 8
12.7180 -24.2631 -2.7078 0.4430 0 8
12.8418 -23.9690 -2.6879 0.0984 0 8
13.0582 -23.8518 -2.6879 0.0984 0 14
13.2735 -23.7327 -2.6879 0.0984 0 14
13.4878 -23.6116 -2.6879 0.0984 0 14
13.7009 -23.4885 -2.6879 0.0984 0 14
13.9130 -23.3636 -2.6879 0.0984 0 14
14.1238 -23.2367 -2.6879 0.0984 0 14
14.3336 -23.1079 -2.6879 0.0984 0 14
14.5421 -22.9772 -2.6879 0.0984 0 14
14.7495 -22.8447 -2.6879 0.0984 0 14
14.9557 -22.7102 -2.6879 0.0984 0 14
15.1606 -22.5739 -2.6879 0.0984 0 14
15.3643 -22.4358 -2.6879 0.0984 0 14
15.5667 -22.2958 -2.6879 0.0984 0 14
15.7679 -22.1540 -2.6879 0.0984 0 14
15.9677 -22.0104 -2.6879 0.0984 0 8
17.0371 -23.0427 -2.8327 0.0984 0 7
17.2449 -22.8876 -2.8327 0.0984 0 7
17.4514 -22.7306 -2.8327 0.0984 0 7
17.6564 -22.5717 -2.8327 0.0984 0 7
17.8599 -22.4110 -2.8327 0.0984 0 7
18.0620 -22.2484 -2.8327 0.0984 0 7
18.2627 -22.0840 -2.8327 0.0984 0 7
18.4618 -21.9178 -2.8327 0.0984 0 7
18.6594 -21.7498 -2.8327 0.0984 0 7
18.8555 -21.5800 -2.8327 0.0984 0 7
19.0500 -21.4085 -2.8327 0.0984 0 7
19.2430 -21.2352 -2.8327 0.0984 0 7
19.4344 -21.0602 -2.8327 0.0984 0 7
19.6242 -20.8834 -2.8327 0.0984 0 7
19.8125 -20.7050 -2.8327 0.0984 0 7
19.9990 -20.5248 -2.8327 0.0984 0 7
20.1840 -20.3430 -2.8327 0.0984 0 7
20.3673 -20.1594 -2.8327 0.0984 0 7
20.5489 -19.9743 -2.8327 0.0984 0 7
20.7288 -19.7875 -2.8327 0.0984 0 7
20.9071 -19.5991 -2.8327 0.0984 0 7
21.0836 -19.4090 -2.8327 0.0984 0 7
21.2584 -19.2174 -2.8327 0.0984 0 7
21.4315 -19.0242 -2.8327 0.0984 0 7
21.6028 -18.8295 -2.8327 0.0984 0 7
21.7723 -18.6332 -2.8327 0.0984 0 7
21.9401 -18.4354 -2.8327 0.0984 0 7
22.1060 -18.2360 -2.8327 0.0984 0 7
22.2702 -18.0352 -2.8327 0.0984 0 7
22.4325 -17.8329 -2.8327 0.0984 0 7
22.5930 -17.6291 -2.8327 0.0984 0 7
22.7516 -17.4239 -2.8327 0.0984 0 7
22.9084 -17.2173 -2.8327 0.0984 0 7
23.0633 -17.0092 -2.8327 0.0984 0 7
23.2163 -16.7998 -2.8327 0.0984 0 7
23.3674 -16.5890 -2.8327 0.0984 0 7
23.5165 -16.3768 -2.8327 0.0984 0 7
23.6638 -16.1633 -2.8327 0.0984 0 7
23.8091 -15.9485 -2.8327 0.0984 0 7
23.9525 -15.7324 -2.8327 0.0984 0 7
24.0939 -15.5149 -2.8327 0.0984 0 7
24.2333 -15.2962 -2.8327 0.0984 0 7
24.3708 -15.0763 -2.8327 0.0984 0 7
24.5062 -14.8551 -2.8327 0.0984 0 7
24.6397 -14.6327 -2.8327 0.0984 0 7
24.7711 -14.4091 -2.8327 0.0984 0 7
24.9005 -14.1843 -2.8327 0.0984 0 7
25.0279 -13.9583 -2.8327 0.0984 0 7
25.1532 -13.7312 -2.8327 0.0984 0 7
25.2764 -13.5030 -2.8327 0.0984 0 7
25.3976 -13.2737 -2.8327 0.0984 0 7
25.5167 -13.0433 -2.8327 0.0984 0 7
25.6337 -12.8118 -2.8327 0.0984 0 7
25.7486 -12.5793 -2.8327 0.0984 0 7
25.8614 -12.3457 -2.8327 0.0984 0 7
25.9721 -12.1111 -2.8327 0.0984 0 7
26.0806 -11.8756 -2.8327 0.0984 0 7
26.1870 -11.6390 -2.8327 0.0984 0 7
26.2913 -11.4015 -2.8327 0.0984 0 7
26.3934 -11.1631 -2.8327 0.0984 0 7
26.4934 -10.9238 -2.8327 0.0984 0 7
26.5912 -10.6836 -2.8327 0.0984 0 7
26.6868 -10.4425 -2.8327 0.0984 0 7
26.7802 -10.2005 -2.8327 0.0984 0 7
26.8714 -9.9577 -2.8327 0.0984 0 7
26.9604 -9.7141 -2.8327 0.0984 0 7
27.0473 -9.4697 -2.8327 0.0984 0 7
27.1318 -9.2245 -2.8327 0.0984 0 7
27.2142 -8.9785 -2.8327 0.0984 0 7
27.2944 -8.7319 -2.8327 0.0984 0 7
27.3723 -8.4845 -2.8327 0.0984 0 7
27.4480 -8.2364 -2.8327 0.0984 0 7
27.5214 -7.9876 -2.8327 0.0984 0 7
27.5925 -7.7382 -2.8327 0.0984 0 7
27.6614 -7.4882 -2.8327 0.0984 0 7
27.7281 -7.2375 -2.8327 0.0984 0 7
27.7925 -6.9863 -2.8327 0.0984 0 7
27.8545 -6.7344 -2.8327 0.0984 0 7
27.9144 -6.4821 -2.8327 0.0984 0 7
27.9719 -6.2291 -2.8327 0.0984 0 7
28.0271 -5.9757 -2.8327 0.0984 0 7
28.0801 -5.7218 -2.8327 0.0984 0 7
28.1307 -5.4674 -2.8327 0.0984 0 7
28.1790 -5.2126 -2.8327 0.0984 0 7
28.2250 -4.9573 -2.8327 0.0984 0 7
28.2688 -4.7017 -2.8327 0.0984 0 7
28.3102 -4.4456 -2.8327 0.0984 0 7
28.3492 -4.1892 -2.8327 0.0984 0 7
28.3860 -3.9325 -2.8327 0.0984 0 7
28.4204 -3.6754 -2.8327 0.0984 0 7
28.4525 -3.4180 -2.8327 0.0984 0 7
28.4823 -3.1604 -2.8327 0.0984 0 7
28.5097 -2.9025 -2.8327 0.0984 0 7
28.5348 -2.6443 -2.8327 0.0984 0 7
28.5576 -2.3859 -2.8327 0.0984 0 7
28.5780 -2.1274 -2.8327 0.0984 0 7
28.5961 -1.8686 -2.8327 0.0984 0 7
28.6118 -1.6097 -2.8327 0.0984 0 7
28.6252 -1.3507 -2.8327 0.0984 0 7
28.6363 -1.0916 -2.8327 0.0984 0 7
28.6450 -0.8324 -2.8327 0.0984 0 7
28.6514 -0.5731 -2.8327 0.0984 0 7
28.6554 -0.3137 -2.8327 0.0984 0 7
28.6570 -0.0544 -2.8327 0.0984 0 7
28.6564 0.2050 -2.8327 0.0984 0 7
28.6533 0.4644 -2.8327 0.0984 0 7
28.6479 0.7237 -2.8327 0.0984 0 7
28.6402 0.9829 -2.8327 0.0984 0 7
28.6302 1.2421 -2.8327 0.0984 0 7
28.6177 1.5012 -2.8327 0.0984 0 7
28.6030 1.7601 -2.8327 0.0984 0 7
28.5859 2.0189 -2.8327 0.0984 0 7
28.5664 2.2776 -2.8327 0.0984 0 7
28.5447 2.5360 -2.8327 0.0984 0 7
28.5205 2.7943 -2.8327 0.0984 0 7
28.4941 3.0523 -2.8327 0.0984 0 7
28.4653 3.3101 -2.8327 0.0984 0 7
28.4342 3.5676 -2.8327 0.0984 0 7
28.4007 3.8248 -2.8327 0.0984 0 7
28.3649 4.0817 -2.8327 0.0984 0 7
28.3268 4.3382 -2.8327 0.0984 0 7
28.2864 4.5944 -2.8327 0.0984 0 7
28.2437 4.8502 -2.8327 0.0984 0 7
28.1986 5.1057 -2.8327 0.0984 0 7
28.1512 5.3607 -2.8327 0.0984 0 7
28.1016 5.6152 -2.8327 0.0984 0 7
28.0496 5.8694 -2.8327 0.0984 0 7
27.9953 6.1230 -2.8327 0.0984 0 7
27.9388 6.3761 -2.8327 0.0984 0 7
27.8799 6.6287 -2.8327 0.0984 0 7
27.8188 6.8808 -2.8327 0.0984 0 7
27.7553 7.1323 -2.8327 0.0984 0 7
27.6897 7.3832 -2.8327 0.0984 0 7
27.6217 7.6335 -2.8327 0.0984 0 7
27.5515 7.8832 -2.8327 0.0984 0 7
27.4790 8.1322 -2.8327 0.0984 0 7
27.4043 8.3806 -2.8327 0.0984 0 7
27.3273 8.6283 -2.8327 0.0984 0 7
27.2481 8.8752 -2.8327 0.0984 0 7
27.1666 9.1215 -2.8327 0.0984 0 7
27.0830 9.3670 -2.8327 0.0984 0 7
26.9971 9.6117 -2.8327 0.0984 0 7
26.9090 9.8557 -2.8327 0.0984 0 7
26.8187 10.0988 -2.8327 0.0984 0 7
26.7262 10.3411 -2.8327 0.0984 0 7
26.6315 10.5826 -2.8327 0.0984 0 7
26.5346 10.8232 -2.8327 0.0984 0 7
26.4356 11.0629 -2.8327 0.0984 0 7
26.3344 11.3017 -2.8327 0.0984 0 7
26.2310 11.5396 -2.8327 0.0984 0 7
26.1255 11.7765 -2.8327 0.0984 0 7
26.0178 12.0125 -2.8327 0.0984 0 7
25.9081 12.2475 -2.8327 0.0984 0 7
25.7961 12.4815 -2.8327 0.0984 0 7
25.6821 12.7145 -2.8327 0.0984 0 7
25.5660 12.9464 -2.8327 0.0984 0 7
25.4478 13.1772 -2.8327 0.0984 0 7
25.3275 13.4070 -2.8327 0.0984 0 7
25.2051 13.6357 -2.8327 0.0984 0 7
25.0806 13.8633 -2.8327 0.0984 0 7
24.9541 14.0897 -2.8327 0.0984 0 7
24.8256 14.3150 -2.8327 0.0984 0 7
24.6950 14.5391 -2.8327 0.0984 0 7
24.5624 14.7620 -2.8327 0.0984 0 7
24.4278 14.9837 -2.8327 0.0984 0 7
24.2912 15.2042 -2.8327 0.0984 0 7
24.1526 15.4234 -2.8327 0.0984 0 7
24.0120 15.6414 -2.8327 0.0984 0 7
23.8694 15.8581 -2.8327 0.0984 0 7
23.7249 16.0735 -2.8327 0.0984 0 7
23.5785 16.2875 -2.8327 0.0984 0 7
23.4301 16.5003 -2.8327 0.0984 0 7
23.2798 16.7116 -2.8327 0.0984 0 7
23.1276 16.9217 -2.8327 0.0984 0 7
22.9735 17.1303 -2.8327 0.0984 0 7
22.8175 17.3375 -2.8327 0.0984 0 7
22.6597 17.5433 -2.8327 0.0984 0 7
22.5000 17.7477 -2.8327 0.0984 0 7
22.3384 17.9506 -2.8327 0.0984 0 6
22.1750 18.1520 -2.8327 0.0984 0 7
22.0098 18.3520 -2.8327 0.0984 0 7
21.8429 18.5504 -2.8327 0.0984 0 7
21.6741 18.7474 -2.8327 0.0984 0 7
21.5035 18.9428 -2.8327 0.0984 0 7
21.3312 19.1366 -2.8327 0.0984 0 7
21.1571 19.3289 -2.8327 0.0984 0 7
20.9813 19.5196 -2.8327 0.0984 0 7
20.8038 19.7087 -2.8327 0.0984 0 7
20.6245 19.8962 -2.8327 0.0984 0 7
20.4436 20.0820 -2.8327 0.0984 0 7
20.2610 20.2662 -2.8327 0.0984 0 7
20.0768 20.4488 -2.8327 0.0984 0 7
19.8909 20.6296 -2.8327 0.0984 0 7
19.7033 20.8088 -2.8327 0.0984 0 7
19.5142 20.9863 -2.8327 0.0984 0 7
19.3234 21.1621 -2.8327 0.0984 0 7
19.1311 21.3361 -2.8327 0.0984 0 7
18.9372 21.5084 -2.8327 0.0984 0 7
14.3518 16.6009 -2.1692 0.9354 0 19
18.5448 21.8476 -2.8327 0.0984 0 7
14.3625 17.2341 -2.2176 0.6612 0 19
18.1463 22.1797 -2.8327 0.0984 0 7
17.9448 22.3430 -2.8327 0.0984 0 7
13.0835 16.5956 -2.0889 0.6957 0 9
12.8454 16.6005 -2.0748 0.9809 0 9
12.7224 16.7526 -2.0793 0.7237 0 9
12.7194 17.0672 -2.1040 0.2461 0 9
14.2154 19.4393 -2.3805 0.9600 0 19
11.8521 16.5193 -2.0097 0.4948 0 19
11.7200 16.6513 -2.0128 0.2519 0 19
16.2814 23.5827 -2.8327 0.0984 0 7
14.1454 20.8907 -2.4938 0.8458 0 19
11.7943 17.7626 -2.1076 0.5767 0 19
11.6970 17.9669 -2.1192 0.8365 0 19
11.7724 18.4457 -2.1630 0.5619 0 19
11.7611 18.8010 -2.1921 0.5544 0 19
14.2119 23.1829 -2.6879 0.0984 0 14
11.6459 19.3888 -2.2357 0.8165 0 19
13.7900 23.4364 -2.6879 0.0984 0 14
13.5773 23.5602 -2.6879 0.0984 0 14
11.7012 20.7363 -2.3535 0.5855 0 19
13.1486 23.8021 -2.6879 0.0984 0 14
12.9326 23.9202 -2.6879 0.0984 0 14
11.7334 22.1796 -2.4802 0.6071 0 19
11.5618 22.3420 -2.4867 0.1193 0 19
12.2784 24.2625 -2.6879 0.0984 0 14
11.6646 23.5769 -2.6001 0.6283 0 19
11.8373 24.4807 -2.6879 0.0984 0 14
11.6152 24.5869 -2.6879 0.0984 0 14
11.3922 24.6910 -2.6879 0.0984 0 14
11.1683 24.7931 -2.6879 0.0984 0 8
11.0658 25.1715 -2.7179 0.4414 0 8
11.0376 25.7372 -2.7681 0.4334 0 8
11.0083 26.3241 -2.8204 0.4253 0 8
10.8164 26.5374 -2.8327 0.0984 0 7
10.5757 26.6342 -2.8327 0.0984 0 7
10.3343 26.7289 -2.8327 0.0984 0 7
10.0919 26.8213 -2.8327 0.0984 0 7
9.8488 26.9115 -2.8327 0.0984 0 7
9.6048 26.9996 -2.8327 0.0984 0 7
9.3600 27.0854 -2.8327 0.0984 0 7
9.1145 27.1690 -2.8327 0.0984 0 7
8.8682 27.2504 -2.8327 0.0984 0 7
8.6212 27.3295 -2.8327 0.0984 0 7
8.3735 27.4064 -2.8327 0.0984 0 7
8.1251 27.4811 -2.8327 0.0984 0 7
7.8761 27.5535 -2.8327 0.0984 0 7
7.6264 27.6237 -2.8327 0.0984 0 7
7.3760 27.6916 -2.8327 0.0984 0 7
7.1251 27.7572 -2.8327 0.0984 0 7
6.8736 27.8205 -2.8327 0.0984 0 7
6.6215 27.8816 -2.8327 0.0984 0 7
6.3689 27.9404 -2.8327 0.0984 0 7
6.1158 27.9969 -2.8327 0.0984 0 7
5.8621 28.0511 -2.8327 0.0984 0 7
5.6080 28.1030 -2.8327 0.0984 0 7
5.3534 28.1526 -2.8327 0.0984 0 7
5.0984 28.1999 -2.8327 0.0984 0 7
4.8430 28.2449 -2.8327 0.0984 0 7
4.5871 28.2876 -2.8327 0.0984 0 7
4.3309 28.3279 -2.8327 0.0984 0 7
4.0744 28.3660 -2.8327 0.0984 0 7
3.8175 28.4017 -2.8327 0.0984 0 7
3.5602 28.4351 -2.8327 0.0984 0 7
3.3027 28.4661 -2.8327 0.0984 0 7
3.0450 28.4949 -2.8327 0.0984 0 7
2.7869 28.5212 -2.8327 0.0984 0 7
2.5287 28.5453 -2.8327 0.0984 0 7
2.2702 28.5670 -2.8327 0.0984 0 7
2.0116 28.5864 -2.8327 0.0984 0 7
1.7528 28.6034 -2.8327 0.0984 0 7
1.4938 28.6181 -2.8327 0.0984 0 7
1.2347 28.6305 -2.8327 0.0984 0 7
0.9756 28.6405 -2.8327 0.0984 0 7
0.7154 28.6124 -2.8291 0.0974 0 8
0.4324 27.1119 -2.6803 0.0984 0 8
0.1870 27.1147 -2.6803 0.0984 0 8
-0.0584 27.1152 -2.6803 0.0984 0 8
-0.3038 27.1136 -2.6803 0.0984 0 8
-0.5492 27.1098 -2.6803 0.0984 0 8
-0.7945 27.1037 -2.6803 0.0984 0 8
-1.0398 27.0954 -2.6803 0.0984 0 8
-1.2850 27.0848 -2.6803 0.0984 0 8
-1.5301 27.0721 -2.6803 0.0984 0 8
-1.7751 27.0571 -2.6803 0.0984 0 8
-2.0199 27.0400 -2.6803 0.0984 0 8
-2.2645 27.0206 -2.6803 0.0984 0 8
-2.5090 26.9990 -2.6803 0.0984 0 8
-2.7532 26.9752 -2.6803 0.0984 0 8
-2.9973 26.9491 -2.6803 0.0984 0 8
-3.2411 26.9209 -2.6803 0.0984 0 8
-3.4846 26.8905 -2.6803 0.0984 0 8
-3.7278 26.8578 -2.6803 0.0984 0 8
-3.9707 26.8230 -2.6803 0.0984 0 8
-4.1641 26.4728 -2.6489 0.9873 0 19
-4.4556 26.7467 -2.6803 0.0984 0 8
-4.6975 26.7053 -2.6803 0.0984 0 8
-4.9390 26.6617 -2.6803 0.0984 0 8
-5.1801 26.6159 -2.6803 0.0984 0 8
-3.4566 16.9412 -1.7091 0.1828 0 20
-5.6610 26.5178 -2.6803 0.0984 0 8
-5.9008 26.4655 -2.6803 0.0984 0 8
-6.1401 26.4110 -2.6803 0.0984 0 8
-6.3789 26.3543 -2.6803 0.0984 0 8
-6.6172 26.2955 -2.6803 0.0984 0 8
-6.8549 26.2345 -2.6803 0.0984 0 8
-7.0921 26.1714 -2.6803 0.0984 0 8
-7.3286 26.1061 -2.6803 0.0984 0 8
-7.5646 26.0388 -2.6803 0.0984 0 8
-7.8000 25.9692 -2.6803 0.0984 0 8
-8.0347 25.8976 -2.6803 0.0984 0 8
-8.2688 25.8238 -2.6803 0.0984 0 8
-8.5021 25.7479 -2.6803 0.0984 0 8
-8.7348 25.6699 -2.6803 0.0984 0 8
-8.9668 25.5898 -2.6803 0.0984 0 8
-9.1980 25.5076 -2.6803 0.0984 0 8
-9.4285 25.4233 -2.6803 0.0984 0 8
-9.6582 25.3369 -2.6803 0.0984 0 8
-9.8871 25.2485 -2.6803 0.0984 0 8
-10.1153 25.1579 -2.6803 0.0984 0 8
-10.3425 25.0654 -2.6803 0.0984 0 8
-10.5690 24.9707 -2.6803 0.0984 0 8
-10.7945 24.8740 -2.6803 0.0984 0 8
-11.0192 24.7753 -2.6803 0.0984 0 8
-11.2430 24.6746 -2.6803 0.0984 0 8
-11.4659 24.5718 -2.6803 0.0984 0 8
-11.6878 24.4670 -2.6803 0.0984 0 8
-11.9088 24.3602 -2.6803 0.0984 0 8
-12.1288 24.2515 -2.6803 0.0984 0 8
-12.3478 24.1407 -2.6803 0.0984 0 8
-12.5658 24.0279 -2.6803 0.0984 0 8
-12.7827 23.9132 -2.6803 0.0984 0 8
-8.5523 15.6568 -1.7635 0.4501 0 20
-8.5416 15.3062 -1.7326 0.4581 0 20
-8.5312 14.9677 -1.7030 0.4661 0 20
-8.6253 14.8192 -1.6949 0.8750 0 20
-8.8025 14.8138 -1.7033 0.8707 0 20
-8.9816 14.8083 -1.7119 0.8663 0 20
-9.1625 14.8027 -1.7208 0.8618 0 20
-9.3454 14.7971 -1.7299 0.8573 0 20
-9.5302 14.7915 -1.7393 0.8526 0 20
-9.7170 14.7858 -1.7489 0.8480 0 20
-9.9059 14.7800 -1.7587 0.8432 0 20
-10.0969 14.7741 -1.7688 0.8384 0 20
-7.9771 11.4485 -1.3793 0.6906 0 9
23.2869 0.0000 -2.8327 0.1208 0 7
23.2860 0.2108 -2.8327 0.1208 0 7
23.2831 0.4215 -2.8327 0.1208 0 7
23.2783 0.6322 -2.8327 0.1208 0 7
23.2717 0.8429 -2.8327 0.1208 0 7
23.2631 1.0535 -2.8327 0.1208 0 7
23.2526 1.2640 -2.8327 0.1208 0 7
23.2402 1.4744 -2.8327 0.1208 0 7
23.2259 1.6847 -2.8327 0.1208 0 7
23.2097 1.8948 -2.8327 0.1208 0 7
23.1916 2.1048 -2.8327 0.1208 0 7
23.1716 2.3146 -2.8327 0.1208 0 7
23.1497 2.5242 -2.8327 0.1208 0 7
23.1259 2.7337 -2.8327 0.1208 0 7
23.1002 2.9428 -2.8327 0.1208 0 7
23.0726 3.1518 -2.8327 0.1208 0 7
23.0432 3.3605 -2.8327 0.1208 0 7
23.0118 3.5689 -2.8327 0.1208 0 7
22.9786 3.7771 -2.8327 0.1208 0 7
22.9434 3.9849 -2.8327 0.1208 0 7
22.9064 4.1923 -2.8327 0.1208 0 7
22.8676 4.3995 -2.8327 0.1208 0 7
22.8268 4.6063 -2.8327 0.1208 0 7
22.7842 4.8127 -2.8327 0.1208 0 7
